5.000000000000000000e+00,5.000000000000000000e+00,5.000000000000000000e+00,5.000000000000000000e+00,5.000000000000000000e+00,5.000000000000000000e+00,5.000000000000000000e+00,5.000000000000000000e+00,5.000000000000000000e+00,5.000000000000000000e+00,5.000000000000000000e+00,5.000000000000000000e+00,5.000000000000000000e+00,5.000000000000000000e+00,5.000000000000000000e+00,5.000000000000000000e+00,5.000000000000000000e+00,5.000000000000000000e+00,5.000000000000000000e+00,5.000000000000000000e+00,5.000000000000000000e+00,5.000000000000000000e+00,5.000000000000000000e+00,5.000000000000000000e+00,5.000000000000000000e+00,5.000000000000000000e+00,5.000000000000000000e+00,5.000000000000000000e+00,5.000000000000000000e+00,5.000000000000000000e+00,5.000000000000000000e+00,5.000000000000000000e+00,5.000000000000000000e+00,5.000000000000000000e+00,5.000000000000000000e+00,5.000000000000000000e+00,5.000000000000000000e+00,5.000000000000000000e+00,5.000000000000000000e+00,5.000000000000000000e+00,5.000000000000000000e+00,5.000000000000000000e+00,5.000000000000000000e+00,4.880800247192382812e+00,4.697607517242431641e+00,4.527669906616210938e+00,4.369597434997558594e+00,4.222190380096435547e+00,4.084403991699218750e+00,3.955326557159423828e+00,3.834157228469848633e+00,3.720191478729248047e+00,3.612804889678955078e+00,3.511444330215454102e+00,3.415615797042846680e+00,3.324878931045532227e+00,3.238838195800781250e+00,3.157137870788574219e+00,3.079458475112915039e+00,3.005509376525878906e+00,2.935028791427612305e+00,2.867777824401855469e+00,2.803539991378784180e+00,2.742116928100585938e+00,2.683327436447143555e+00,2.627006053924560547e+00,2.572999954223632812e+00,2.521170139312744141e+00,2.471386909484863281e+00,2.423531770706176758e+00,2.377494573593139648e+00,2.333173990249633789e+00,2.290475606918334961e+00,2.249311923980712891e+00,2.209601640701293945e+00,2.171268939971923828e+00,2.134243726730346680e+00,2.098460197448730469e+00,2.063856601715087891e+00,2.030375957489013672e+00
5.000000000000000000e+00,5.000000000000000000e+00,5.000000000000000000e+00,5.000000000000000000e+00,5.000000000000000000e+00,5.000000000000000000e+00,5.000000000000000000e+00,5.000000000000000000e+00,5.000000000000000000e+00,5.000000000000000000e+00,5.000000000000000000e+00,5.000000000000000000e+00,5.000000000000000000e+00,5.000000000000000000e+00,5.000000000000000000e+00,5.000000000000000000e+00,5.000000000000000000e+00,5.000000000000000000e+00,5.000000000000000000e+00,5.000000000000000000e+00,5.000000000000000000e+00,5.000000000000000000e+00,5.000000000000000000e+00,5.000000000000000000e+00,5.000000000000000000e+00,5.000000000000000000e+00,5.000000000000000000e+00,5.000000000000000000e+00,5.000000000000000000e+00,5.000000000000000000e+00,5.000000000000000000e+00,5.000000000000000000e+00,5.000000000000000000e+00,5.000000000000000000e+00,5.000000000000000000e+00,5.000000000000000000e+00,5.000000000000000000e+00,5.000000000000000000e+00,5.000000000000000000e+00,5.000000000000000000e+00,5.000000000000000000e+00,5.000000000000000000e+00,5.000000000000000000e+00,4.880935668945312500e+00,4.697733402252197266e+00,4.527786731719970703e+00,4.369706153869628906e+00,4.222291946411132812e+00,4.084498882293701172e+00,3.955415725708007812e+00,3.834240913391113281e+00,3.720270395278930664e+00,3.612879276275634766e+00,3.511514425277709961e+00,3.415682554244995117e+00,3.324941873550415039e+00,3.238898038864135742e+00,3.157194614410400391e+00,3.079512596130371094e+00,3.005560874938964844e+00,2.935077905654907227e+00,2.867825031280517578e+00,2.803584814071655273e+00,2.742159843444824219e+00,2.683368444442749023e+00,2.627045154571533203e+00,2.573037624359130859e+00,2.521206140518188477e+00,2.471421718597412109e+00,2.423565149307250977e+00,2.377526998519897461e+00,2.333204984664916992e+00,2.290505409240722656e+00,2.249340534210205078e+00,2.209629297256469727e+00,2.171295881271362305e+00,2.134269714355468750e+00,2.098485231399536133e+00,2.063880920410156250e+00,2.030399560928344727e+00
5.000000000000000000e+00,5.000000000000000000e+00,5.000000000000000000e+00,5.000000000000000000e+00,5.000000000000000000e+00,5.000000000000000000e+00,5.000000000000000000e+00,5.000000000000000000e+00,5.000000000000000000e+00,5.000000000000000000e+00,5.000000000000000000e+00,5.000000000000000000e+00,5.000000000000000000e+00,5.000000000000000000e+00,5.000000000000000000e+00,5.000000000000000000e+00,5.000000000000000000e+00,5.000000000000000000e+00,5.000000000000000000e+00,5.000000000000000000e+00,5.000000000000000000e+00,5.000000000000000000e+00,5.000000000000000000e+00,5.000000000000000000e+00,5.000000000000000000e+00,5.000000000000000000e+00,5.000000000000000000e+00,5.000000000000000000e+00,5.000000000000000000e+00,5.000000000000000000e+00,5.000000000000000000e+00,5.000000000000000000e+00,5.000000000000000000e+00,5.000000000000000000e+00,5.000000000000000000e+00,5.000000000000000000e+00,5.000000000000000000e+00,5.000000000000000000e+00,5.000000000000000000e+00,5.000000000000000000e+00,5.000000000000000000e+00,5.000000000000000000e+00,5.000000000000000000e+00,4.881071567535400391e+00,4.697859287261962891e+00,4.527903556823730469e+00,4.369814872741699219e+00,4.222393035888671875e+00,4.084593772888183594e+00,3.955504655838012695e+00,3.834324598312377930e+00,3.720349073410034180e+00,3.612953901290893555e+00,3.511584758758544922e+00,3.415748834609985352e+00,3.325004816055297852e+00,3.238957643508911133e+00,3.157251358032226562e+00,3.079566478729248047e+00,3.005612373352050781e+00,2.935127019882202148e+00,2.867871761322021484e+00,2.803629398345947266e+00,2.742202520370483398e+00,2.683409452438354492e+00,2.627084493637084961e+00,2.573075294494628906e+00,2.521242380142211914e+00,2.471456527709960938e+00,2.423598766326904297e+00,2.377559185028076172e+00,2.333235979080200195e+00,2.290535211563110352e+00,2.249369382858276367e+00,2.209657192230224609e+00,2.171322822570800781e+00,2.134295701980590820e+00,2.098510503768920898e+00,2.063905239105224609e+00,2.030422925949096680e+00
5.000000000000000000e+00,5.000000000000000000e+00,5.000000000000000000e+00,5.000000000000000000e+00,5.000000000000000000e+00,5.000000000000000000e+00,5.000000000000000000e+00,5.000000000000000000e+00,5.000000000000000000e+00,5.000000000000000000e+00,5.000000000000000000e+00,5.000000000000000000e+00,5.000000000000000000e+00,5.000000000000000000e+00,5.000000000000000000e+00,5.000000000000000000e+00,5.000000000000000000e+00,5.000000000000000000e+00,5.000000000000000000e+00,5.000000000000000000e+00,5.000000000000000000e+00,5.000000000000000000e+00,5.000000000000000000e+00,5.000000000000000000e+00,5.000000000000000000e+00,5.000000000000000000e+00,5.000000000000000000e+00,5.000000000000000000e+00,5.000000000000000000e+00,5.000000000000000000e+00,5.000000000000000000e+00,5.000000000000000000e+00,5.000000000000000000e+00,5.000000000000000000e+00,5.000000000000000000e+00,5.000000000000000000e+00,5.000000000000000000e+00,5.000000000000000000e+00,5.000000000000000000e+00,5.000000000000000000e+00,5.000000000000000000e+00,5.000000000000000000e+00,5.000000000000000000e+00,4.881207466125488281e+00,4.697984695434570312e+00,4.528019905090332031e+00,4.369923591613769531e+00,4.222494602203369141e+00,4.084688663482666016e+00,3.955593824386596680e+00,3.834408760070800781e+00,3.720427989959716797e+00,3.613028287887573242e+00,3.511654853820800781e+00,3.415815353393554688e+00,3.325067758560180664e+00,3.239017486572265625e+00,3.157308578491210938e+00,3.079620361328125000e+00,3.005663871765136719e+00,2.935175895690917969e+00,2.867918491363525391e+00,2.803674221038818359e+00,2.742245435714721680e+00,2.683450460433959961e+00,2.627123832702636719e+00,2.573113203048706055e+00,2.521278619766235352e+00,2.471491336822509766e+00,2.423632144927978516e+00,2.377591371536254883e+00,2.333266973495483398e+00,2.290565252304077148e+00,2.249398469924926758e+00,2.209684848785400391e+00,2.171349525451660156e+00,2.134321689605712891e+00,2.098535537719726562e+00,2.063929557800292969e+00,2.030446290969848633e+00
5.000000000000000000e+00,5.000000000000000000e+00,5.000000000000000000e+00,5.000000000000000000e+00,5.000000000000000000e+00,5.000000000000000000e+00,5.000000000000000000e+00,5.000000000000000000e+00,5.000000000000000000e+00,5.000000000000000000e+00,5.000000000000000000e+00,5.000000000000000000e+00,5.000000000000000000e+00,5.000000000000000000e+00,5.000000000000000000e+00,5.000000000000000000e+00,5.000000000000000000e+00,5.000000000000000000e+00,5.000000000000000000e+00,5.000000000000000000e+00,5.000000000000000000e+00,5.000000000000000000e+00,5.000000000000000000e+00,5.000000000000000000e+00,5.000000000000000000e+00,5.000000000000000000e+00,5.000000000000000000e+00,5.000000000000000000e+00,5.000000000000000000e+00,5.000000000000000000e+00,5.000000000000000000e+00,5.000000000000000000e+00,5.000000000000000000e+00,5.000000000000000000e+00,5.000000000000000000e+00,5.000000000000000000e+00,5.000000000000000000e+00,5.000000000000000000e+00,5.000000000000000000e+00,5.000000000000000000e+00,5.000000000000000000e+00,5.000000000000000000e+00,5.000000000000000000e+00,4.881342887878417969e+00,4.698110580444335938e+00,4.528136730194091797e+00,4.370032310485839844e+00,4.222596645355224609e+00,4.084784030914306641e+00,3.955682992935180664e+00,3.834492444992065430e+00,3.720506668090820312e+00,3.613102674484252930e+00,3.511725187301635742e+00,3.415881872177124023e+00,3.325130939483642578e+00,3.239077091217041016e+00,3.157365322113037109e+00,3.079674482345581055e+00,3.005715370178222656e+00,2.935225009918212891e+00,2.867965459823608398e+00,2.803719043731689453e+00,2.742288112640380859e+00,2.683491468429565430e+00,2.627163171768188477e+00,2.573150873184204102e+00,2.521314859390258789e+00,2.471526145935058594e+00,2.423665523529052734e+00,2.377623558044433594e+00,2.333298206329345703e+00,2.290595054626464844e+00,2.249427080154418945e+00,2.209712743759155273e+00,2.171376466751098633e+00,2.134347438812255859e+00,2.098560571670532227e+00,2.063953638076782227e+00,2.030469894409179688e+00
5.000000000000000000e+00,5.000000000000000000e+00,5.000000000000000000e+00,5.000000000000000000e+00,5.000000000000000000e+00,5.000000000000000000e+00,5.000000000000000000e+00,5.000000000000000000e+00,5.000000000000000000e+00,5.000000000000000000e+00,5.000000000000000000e+00,5.000000000000000000e+00,5.000000000000000000e+00,5.000000000000000000e+00,5.000000000000000000e+00,5.000000000000000000e+00,5.000000000000000000e+00,5.000000000000000000e+00,5.000000000000000000e+00,5.000000000000000000e+00,5.000000000000000000e+00,5.000000000000000000e+00,5.000000000000000000e+00,5.000000000000000000e+00,5.000000000000000000e+00,5.000000000000000000e+00,5.000000000000000000e+00,5.000000000000000000e+00,5.000000000000000000e+00,5.000000000000000000e+00,5.000000000000000000e+00,5.000000000000000000e+00,5.000000000000000000e+00,5.000000000000000000e+00,5.000000000000000000e+00,5.000000000000000000e+00,5.000000000000000000e+00,5.000000000000000000e+00,5.000000000000000000e+00,5.000000000000000000e+00,5.000000000000000000e+00,5.000000000000000000e+00,5.000000000000000000e+00,4.881481647491455078e+00,4.698238372802734375e+00,4.528254508972167969e+00,4.370141506195068359e+00,4.222698211669921875e+00,4.084878921508789062e+00,3.955771923065185547e+00,3.834576129913330078e+00,3.720585584640502930e+00,3.613176822662353516e+00,3.511795759201049805e+00,3.415948152542114258e+00,3.325193881988525391e+00,3.239136934280395508e+00,3.157422065734863281e+00,3.079728364944458008e+00,3.005766868591308594e+00,2.935274124145507812e+00,2.868012189865112305e+00,2.803763866424560547e+00,2.742331027984619141e+00,2.683532476425170898e+00,2.627202272415161133e+00,2.573188781738281250e+00,2.521351099014282227e+00,2.471560955047607422e+00,2.423699140548706055e+00,2.377655744552612305e+00,2.333329200744628906e+00,2.290624856948852539e+00,2.249455928802490234e+00,2.209740400314331055e+00,2.171403408050537109e+00,2.134373426437377930e+00,2.098585605621337891e+00,2.063978195190429688e+00,2.030493259429931641e+00
5.000000000000000000e+00,5.000000000000000000e+00,5.000000000000000000e+00,5.000000000000000000e+00,5.000000000000000000e+00,5.000000000000000000e+00,5.000000000000000000e+00,5.000000000000000000e+00,5.000000000000000000e+00,5.000000000000000000e+00,5.000000000000000000e+00,5.000000000000000000e+00,5.000000000000000000e+00,5.000000000000000000e+00,5.000000000000000000e+00,5.000000000000000000e+00,5.000000000000000000e+00,5.000000000000000000e+00,5.000000000000000000e+00,5.000000000000000000e+00,5.000000000000000000e+00,5.000000000000000000e+00,5.000000000000000000e+00,5.000000000000000000e+00,5.000000000000000000e+00,5.000000000000000000e+00,5.000000000000000000e+00,5.000000000000000000e+00,5.000000000000000000e+00,5.000000000000000000e+00,5.000000000000000000e+00,5.000000000000000000e+00,5.000000000000000000e+00,5.000000000000000000e+00,5.000000000000000000e+00,5.000000000000000000e+00,5.000000000000000000e+00,5.000000000000000000e+00,5.000000000000000000e+00,5.000000000000000000e+00,5.000000000000000000e+00,5.000000000000000000e+00,5.000000000000000000e+00,4.881624221801757812e+00,4.698370456695556641e+00,4.528377056121826172e+00,4.370255470275878906e+00,4.222804069519042969e+00,4.084977626800537109e+00,3.955863714218139648e+00,3.834661722183227539e+00,3.720665931701660156e+00,3.613251924514770508e+00,3.511865854263305664e+00,3.416014671325683594e+00,3.325256824493408203e+00,3.239196538925170898e+00,3.157478809356689453e+00,3.079782485961914062e+00,3.005818128585815430e+00,2.935323476791381836e+00,2.868058919906616211e+00,2.803808689117431641e+00,2.742373704910278320e+00,2.683573484420776367e+00,2.627241611480712891e+00,2.573226451873779297e+00,2.521387338638305664e+00,2.471595764160156250e+00,2.423732519149780273e+00,2.377687931060791016e+00,2.333359956741333008e+00,2.290654659271240234e+00,2.249484777450561523e+00,2.209768295288085938e+00,2.171430110931396484e+00,2.134399414062500000e+00,2.098610639572143555e+00,2.064002275466918945e+00,2.030516862869262695e+00
5.000000000000000000e+00,5.000000000000000000e+00,5.000000000000000000e+00,5.000000000000000000e+00,5.000000000000000000e+00,5.000000000000000000e+00,5.000000000000000000e+00,5.000000000000000000e+00,5.000000000000000000e+00,5.000000000000000000e+00,5.000000000000000000e+00,5.000000000000000000e+00,5.000000000000000000e+00,5.000000000000000000e+00,5.000000000000000000e+00,5.000000000000000000e+00,5.000000000000000000e+00,5.000000000000000000e+00,5.000000000000000000e+00,5.000000000000000000e+00,5.000000000000000000e+00,5.000000000000000000e+00,5.000000000000000000e+00,5.000000000000000000e+00,5.000000000000000000e+00,5.000000000000000000e+00,5.000000000000000000e+00,5.000000000000000000e+00,5.000000000000000000e+00,5.000000000000000000e+00,5.000000000000000000e+00,5.000000000000000000e+00,5.000000000000000000e+00,5.000000000000000000e+00,5.000000000000000000e+00,5.000000000000000000e+00,5.000000000000000000e+00,5.000000000000000000e+00,5.000000000000000000e+00,5.000000000000000000e+00,5.000000000000000000e+00,5.000000000000000000e+00,5.000000000000000000e+00,4.881766796112060547e+00,4.698502540588378906e+00,4.528499603271484375e+00,4.370369434356689453e+00,4.222910404205322266e+00,4.085077285766601562e+00,3.955957651138305664e+00,3.834749698638916016e+00,3.720748424530029297e+00,3.613329887390136719e+00,3.511939764022827148e+00,3.416084051132202148e+00,3.325322151184082031e+00,3.239258289337158203e+00,3.157536745071411133e+00,3.079837560653686523e+00,3.005870103836059570e+00,2.935372352600097656e+00,2.868105888366699219e+00,2.803853511810302734e+00,2.742416620254516602e+00,2.683614492416381836e+00,2.627281188964843750e+00,2.573264122009277344e+00,2.521423578262329102e+00,2.471630334854125977e+00,2.423766136169433594e+00,2.377720117568969727e+00,2.333390951156616211e+00,2.290684700012207031e+00,2.249513626098632812e+00,2.209796190261840820e+00,2.171457052230834961e+00,2.134425401687622070e+00,2.098635673522949219e+00,2.064026594161987305e+00,2.030540227890014648e+00
5.000000000000000000e+00,5.000000000000000000e+00,5.000000000000000000e+00,5.000000000000000000e+00,5.000000000000000000e+00,5.000000000000000000e+00,5.000000000000000000e+00,5.000000000000000000e+00,5.000000000000000000e+00,5.000000000000000000e+00,5.000000000000000000e+00,5.000000000000000000e+00,5.000000000000000000e+00,5.000000000000000000e+00,5.000000000000000000e+00,5.000000000000000000e+00,5.000000000000000000e+00,5.000000000000000000e+00,5.000000000000000000e+00,5.000000000000000000e+00,5.000000000000000000e+00,5.000000000000000000e+00,5.000000000000000000e+00,5.000000000000000000e+00,5.000000000000000000e+00,5.000000000000000000e+00,5.000000000000000000e+00,5.000000000000000000e+00,5.000000000000000000e+00,5.000000000000000000e+00,5.000000000000000000e+00,5.000000000000000000e+00,5.000000000000000000e+00,5.000000000000000000e+00,5.000000000000000000e+00,5.000000000000000000e+00,5.000000000000000000e+00,5.000000000000000000e+00,5.000000000000000000e+00,5.000000000000000000e+00,5.000000000000000000e+00,5.000000000000000000e+00,5.000000000000000000e+00,4.881908893585205078e+00,4.698634147644042969e+00,4.528622150421142578e+00,4.370483875274658203e+00,4.223017215728759766e+00,4.085176944732666016e+00,3.956050872802734375e+00,3.834837436676025391e+00,3.720831394195556641e+00,3.613408088684082031e+00,3.512013196945190430e+00,3.416153669357299805e+00,3.325387954711914062e+00,3.239320993423461914e+00,3.157596349716186523e+00,3.079894065856933594e+00,3.005923986434936523e+00,2.935424089431762695e+00,2.868155002593994141e+00,2.803899765014648438e+00,2.742460727691650391e+00,2.683656454086303711e+00,2.627321004867553711e+00,2.573302030563354492e+00,2.521459817886352539e+00,2.471665143966674805e+00,2.423799514770507812e+00,2.377752304077148438e+00,2.333421945571899414e+00,2.290714740753173828e+00,2.249542474746704102e+00,2.209824085235595703e+00,2.171483755111694336e+00,2.134451389312744141e+00,2.098660707473754883e+00,2.064050912857055664e+00,2.030563831329345703e+00
5.000000000000000000e+00,5.000000000000000000e+00,5.000000000000000000e+00,5.000000000000000000e+00,5.000000000000000000e+00,5.000000000000000000e+00,5.000000000000000000e+00,5.000000000000000000e+00,5.000000000000000000e+00,5.000000000000000000e+00,5.000000000000000000e+00,5.000000000000000000e+00,5.000000000000000000e+00,5.000000000000000000e+00,5.000000000000000000e+00,5.000000000000000000e+00,5.000000000000000000e+00,5.000000000000000000e+00,5.000000000000000000e+00,5.000000000000000000e+00,5.000000000000000000e+00,5.000000000000000000e+00,5.000000000000000000e+00,5.000000000000000000e+00,5.000000000000000000e+00,5.000000000000000000e+00,5.000000000000000000e+00,5.000000000000000000e+00,5.000000000000000000e+00,5.000000000000000000e+00,5.000000000000000000e+00,5.000000000000000000e+00,5.000000000000000000e+00,5.000000000000000000e+00,5.000000000000000000e+00,5.000000000000000000e+00,5.000000000000000000e+00,5.000000000000000000e+00,5.000000000000000000e+00,5.000000000000000000e+00,5.000000000000000000e+00,5.000000000000000000e+00,5.000000000000000000e+00,4.882051467895507812e+00,4.698766231536865234e+00,4.528744697570800781e+00,4.370597839355468750e+00,4.223123550415039062e+00,4.085276603698730469e+00,3.956144571304321289e+00,3.834925413131713867e+00,3.720913887023925781e+00,3.613485813140869141e+00,3.512087106704711914e+00,3.416223526000976562e+00,3.325454235076904297e+00,3.239383697509765625e+00,3.157655715942382812e+00,3.079950809478759766e+00,3.005978107452392578e+00,2.935475349426269531e+00,2.868203878402709961e+00,2.803946733474731445e+00,2.742505788803100586e+00,2.683699607849121094e+00,2.627362251281738281e+00,2.573341608047485352e+00,2.521497726440429688e+00,2.471701622009277344e+00,2.423834085464477539e+00,2.377785444259643555e+00,2.333453655242919922e+00,2.290745019912719727e+00,2.249571561813354492e+00,2.209851741790771484e+00,2.171510696411132812e+00,2.134477376937866211e+00,2.098685979843139648e+00,2.064074993133544922e+00,2.030587434768676758e+00
5.000000000000000000e+00,5.000000000000000000e+00,5.000000000000000000e+00,5.000000000000000000e+00,5.000000000000000000e+00,5.000000000000000000e+00,5.000000000000000000e+00,5.000000000000000000e+00,5.000000000000000000e+00,5.000000000000000000e+00,5.000000000000000000e+00,5.000000000000000000e+00,5.000000000000000000e+00,5.000000000000000000e+00,5.000000000000000000e+00,5.000000000000000000e+00,5.000000000000000000e+00,5.000000000000000000e+00,5.000000000000000000e+00,5.000000000000000000e+00,5.000000000000000000e+00,5.000000000000000000e+00,5.000000000000000000e+00,5.000000000000000000e+00,5.000000000000000000e+00,5.000000000000000000e+00,5.000000000000000000e+00,5.000000000000000000e+00,5.000000000000000000e+00,5.000000000000000000e+00,5.000000000000000000e+00,5.000000000000000000e+00,5.000000000000000000e+00,5.000000000000000000e+00,5.000000000000000000e+00,5.000000000000000000e+00,5.000000000000000000e+00,5.000000000000000000e+00,5.000000000000000000e+00,5.000000000000000000e+00,5.000000000000000000e+00,5.000000000000000000e+00,5.000000000000000000e+00,4.882194042205810547e+00,4.698897838592529297e+00,4.528867244720458984e+00,4.370712280273437500e+00,4.223230361938476562e+00,4.085376262664794922e+00,3.956237792968750000e+00,3.835013151168823242e+00,3.720996856689453125e+00,3.613564014434814453e+00,3.512160778045654297e+00,3.416293144226074219e+00,3.325520038604736328e+00,3.239446401596069336e+00,3.157715559005737305e+00,3.080007314682006836e+00,3.006031990051269531e+00,2.935527086257934570e+00,2.868253231048583984e+00,2.803993940353393555e+00,2.742550611495971680e+00,2.683742523193359375e+00,2.627403497695922852e+00,2.573381185531616211e+00,2.521535634994506836e+00,2.471738100051879883e+00,2.423869371414184570e+00,2.377819299697875977e+00,2.333486318588256836e+00,2.290776252746582031e+00,2.249601602554321289e+00,2.209881067276000977e+00,2.171538829803466797e+00,2.134504318237304688e+00,2.098711729049682617e+00,2.064100027084350586e+00,2.030611276626586914e+00
5.000000000000000000e+00,5.000000000000000000e+00,5.000000000000000000e+00,5.000000000000000000e+00,5.000000000000000000e+00,5.000000000000000000e+00,5.000000000000000000e+00,5.000000000000000000e+00,5.000000000000000000e+00,5.000000000000000000e+00,5.000000000000000000e+00,5.000000000000000000e+00,5.000000000000000000e+00,5.000000000000000000e+00,5.000000000000000000e+00,5.000000000000000000e+00,5.000000000000000000e+00,5.000000000000000000e+00,5.000000000000000000e+00,5.000000000000000000e+00,5.000000000000000000e+00,5.000000000000000000e+00,5.000000000000000000e+00,5.000000000000000000e+00,5.000000000000000000e+00,5.000000000000000000e+00,5.000000000000000000e+00,5.000000000000000000e+00,5.000000000000000000e+00,5.000000000000000000e+00,5.000000000000000000e+00,5.000000000000000000e+00,5.000000000000000000e+00,5.000000000000000000e+00,5.000000000000000000e+00,5.000000000000000000e+00,5.000000000000000000e+00,5.000000000000000000e+00,5.000000000000000000e+00,5.000000000000000000e+00,5.000000000000000000e+00,5.000000000000000000e+00,5.000000000000000000e+00,4.882336139678955078e+00,4.699029922485351562e+00,4.528989791870117188e+00,4.370826244354248047e+00,4.223336696624755859e+00,4.085475921630859375e+00,3.956331729888916016e+00,3.835101366043090820e+00,3.721079349517822266e+00,3.613641977310180664e+00,3.512234687805175781e+00,3.416363000869750977e+00,3.325586318969726562e+00,3.239509105682373047e+00,3.157774925231933594e+00,3.080064296722412109e+00,3.006086111068725586e+00,2.935578346252441406e+00,2.868302345275878906e+00,2.804040908813476562e+00,2.742595672607421875e+00,2.683785676956176758e+00,2.627444744110107422e+00,2.573420763015747070e+00,2.521573781967163086e+00,2.471774578094482422e+00,2.423904418945312500e+00,2.377852916717529297e+00,2.333518743515014648e+00,2.290807723999023438e+00,2.249631881713867188e+00,2.209910154342651367e+00,2.171566963195800781e+00,2.134531497955322266e+00,2.098738193511962891e+00,2.064125299453735352e+00,2.030635833740234375e+00
5.000000000000000000e+00,5.000000000000000000e+00,5.000000000000000000e+00,5.000000000000000000e+00,5.000000000000000000e+00,5.000000000000000000e+00,5.000000000000000000e+00,5.000000000000000000e+00,5.000000000000000000e+00,5.000000000000000000e+00,5.000000000000000000e+00,5.000000000000000000e+00,5.000000000000000000e+00,5.000000000000000000e+00,5.000000000000000000e+00,5.000000000000000000e+00,5.000000000000000000e+00,5.000000000000000000e+00,5.000000000000000000e+00,5.000000000000000000e+00,5.000000000000000000e+00,5.000000000000000000e+00,5.000000000000000000e+00,5.000000000000000000e+00,5.000000000000000000e+00,5.000000000000000000e+00,5.000000000000000000e+00,5.000000000000000000e+00,5.000000000000000000e+00,5.000000000000000000e+00,5.000000000000000000e+00,5.000000000000000000e+00,5.000000000000000000e+00,5.000000000000000000e+00,5.000000000000000000e+00,5.000000000000000000e+00,5.000000000000000000e+00,5.000000000000000000e+00,5.000000000000000000e+00,5.000000000000000000e+00,5.000000000000000000e+00,5.000000000000000000e+00,5.000000000000000000e+00,4.882478713989257812e+00,4.699162006378173828e+00,4.529112339019775391e+00,4.370940685272216797e+00,4.223443508148193359e+00,4.085576057434082031e+00,3.956424951553344727e+00,3.835188865661621094e+00,3.721162319183349609e+00,3.613720178604125977e+00,3.512308120727539062e+00,3.416432619094848633e+00,3.325652360916137695e+00,3.239571809768676758e+00,3.157834768295288086e+00,3.080120801925659180e+00,3.006139993667602539e+00,2.935630083084106445e+00,2.868351459503173828e+00,2.804087877273559570e+00,2.742640495300292969e+00,2.683828592300415039e+00,2.627485990524291992e+00,2.573460340499877930e+00,2.521611690521240234e+00,2.471811056137084961e+00,2.423939466476440430e+00,2.377886772155761719e+00,2.333551406860351562e+00,2.290838956832885742e+00,2.249662160873413086e+00,2.209939479827880859e+00,2.171595096588134766e+00,2.134558677673339844e+00,2.098764419555664062e+00,2.064150810241699219e+00,2.030660390853881836e+00
5.000000000000000000e+00,5.000000000000000000e+00,5.000000000000000000e+00,5.000000000000000000e+00,5.000000000000000000e+00,5.000000000000000000e+00,5.000000000000000000e+00,5.000000000000000000e+00,5.000000000000000000e+00,5.000000000000000000e+00,5.000000000000000000e+00,5.000000000000000000e+00,5.000000000000000000e+00,5.000000000000000000e+00,5.000000000000000000e+00,5.000000000000000000e+00,5.000000000000000000e+00,5.000000000000000000e+00,5.000000000000000000e+00,5.000000000000000000e+00,5.000000000000000000e+00,5.000000000000000000e+00,5.000000000000000000e+00,5.000000000000000000e+00,5.000000000000000000e+00,5.000000000000000000e+00,5.000000000000000000e+00,5.000000000000000000e+00,5.000000000000000000e+00,5.000000000000000000e+00,5.000000000000000000e+00,5.000000000000000000e+00,5.000000000000000000e+00,5.000000000000000000e+00,5.000000000000000000e+00,5.000000000000000000e+00,5.000000000000000000e+00,5.000000000000000000e+00,5.000000000000000000e+00,5.000000000000000000e+00,5.000000000000000000e+00,5.000000000000000000e+00,5.000000000000000000e+00,4.882621288299560547e+00,4.699294090270996094e+00,4.529235363006591797e+00,4.371054649353027344e+00,4.223549842834472656e+00,4.085675716400146484e+00,3.956518650054931641e+00,3.835277080535888672e+00,3.721244812011718750e+00,3.613797903060913086e+00,3.512382030487060547e+00,3.416502475738525391e+00,3.325718641281127930e+00,3.239634513854980469e+00,3.157894134521484375e+00,3.080177545547485352e+00,3.006194114685058594e+00,2.935681343078613281e+00,2.868400573730468750e+00,2.804134845733642578e+00,2.742685556411743164e+00,2.683871746063232422e+00,2.627527236938476562e+00,2.573499917984008789e+00,2.521649837493896484e+00,2.471847772598266602e+00,2.423974514007568359e+00,2.377920627593994141e+00,2.333584070205688477e+00,2.290870428085327148e+00,2.249692440032958984e+00,2.209968566894531250e+00,2.171623229980468750e+00,2.134585857391357422e+00,2.098790884017944336e+00,2.064176321029663086e+00,2.030684947967529297e+00
5.000000000000000000e+00,5.000000000000000000e+00,5.000000000000000000e+00,5.000000000000000000e+00,5.000000000000000000e+00,5.000000000000000000e+00,5.000000000000000000e+00,5.000000000000000000e+00,5.000000000000000000e+00,5.000000000000000000e+00,5.000000000000000000e+00,5.000000000000000000e+00,5.000000000000000000e+00,5.000000000000000000e+00,5.000000000000000000e+00,5.000000000000000000e+00,5.000000000000000000e+00,5.000000000000000000e+00,5.000000000000000000e+00,5.000000000000000000e+00,5.000000000000000000e+00,5.000000000000000000e+00,5.000000000000000000e+00,5.000000000000000000e+00,5.000000000000000000e+00,5.000000000000000000e+00,5.000000000000000000e+00,5.000000000000000000e+00,5.000000000000000000e+00,5.000000000000000000e+00,5.000000000000000000e+00,5.000000000000000000e+00,5.000000000000000000e+00,5.000000000000000000e+00,5.000000000000000000e+00,5.000000000000000000e+00,5.000000000000000000e+00,5.000000000000000000e+00,5.000000000000000000e+00,5.000000000000000000e+00,5.000000000000000000e+00,5.000000000000000000e+00,5.000000000000000000e+00,4.882763862609863281e+00,4.699425697326660156e+00,4.529357910156250000e+00,4.371169090270996094e+00,4.223656654357910156e+00,4.085775375366210938e+00,3.956612110137939453e+00,3.835364818572998047e+00,3.721327781677246094e+00,3.613876104354858398e+00,3.512455463409423828e+00,3.416572093963623047e+00,3.325784921646118164e+00,3.239697217941284180e+00,3.157953977584838867e+00,3.080234289169311523e+00,3.006247997283935547e+00,2.935733079910278320e+00,2.868449926376342773e+00,2.804181814193725586e+00,2.742730379104614258e+00,2.683914661407470703e+00,2.627568483352661133e+00,2.573539495468139648e+00,2.521687746047973633e+00,2.471884012222290039e+00,2.424009799957275391e+00,2.377954483032226562e+00,2.333616495132446289e+00,2.290901660919189453e+00,2.249722719192504883e+00,2.209997892379760742e+00,2.171651363372802734e+00,2.134613037109375000e+00,2.098817110061645508e+00,2.064201831817626953e+00,2.030709743499755859e+00
5.000000000000000000e+00,5.000000000000000000e+00,5.000000000000000000e+00,5.000000000000000000e+00,5.000000000000000000e+00,5.000000000000000000e+00,5.000000000000000000e+00,5.000000000000000000e+00,5.000000000000000000e+00,5.000000000000000000e+00,5.000000000000000000e+00,5.000000000000000000e+00,5.000000000000000000e+00,5.000000000000000000e+00,5.000000000000000000e+00,5.000000000000000000e+00,5.000000000000000000e+00,5.000000000000000000e+00,5.000000000000000000e+00,5.000000000000000000e+00,5.000000000000000000e+00,5.000000000000000000e+00,5.000000000000000000e+00,5.000000000000000000e+00,5.000000000000000000e+00,5.000000000000000000e+00,5.000000000000000000e+00,5.000000000000000000e+00,5.000000000000000000e+00,5.000000000000000000e+00,5.000000000000000000e+00,5.000000000000000000e+00,5.000000000000000000e+00,5.000000000000000000e+00,5.000000000000000000e+00,5.000000000000000000e+00,5.000000000000000000e+00,5.000000000000000000e+00,5.000000000000000000e+00,5.000000000000000000e+00,5.000000000000000000e+00,5.000000000000000000e+00,5.000000000000000000e+00,4.882905960083007812e+00,4.699557781219482422e+00,4.529480457305908203e+00,4.371283054351806641e+00,4.223763465881347656e+00,4.085875511169433594e+00,3.956705808639526367e+00,3.835452795028686523e+00,3.721410274505615234e+00,3.613954067230224609e+00,3.512529373168945312e+00,3.416642189025878906e+00,3.325850725173950195e+00,3.239759922027587891e+00,3.158013343811035156e+00,3.080291032791137695e+00,3.006302118301391602e+00,2.935784339904785156e+00,2.868498802185058594e+00,2.804228782653808594e+00,2.742775440216064453e+00,2.683957815170288086e+00,2.627609729766845703e+00,2.573579072952270508e+00,2.521725893020629883e+00,2.471920728683471680e+00,2.424044847488403320e+00,2.377988100051879883e+00,2.333649158477783203e+00,2.290933132171630859e+00,2.249752998352050781e+00,2.210026979446411133e+00,2.171679496765136719e+00,2.134640455245971680e+00,2.098843336105346680e+00,2.064227104187011719e+00,2.030734300613403320e+00
5.000000000000000000e+00,5.000000000000000000e+00,5.000000000000000000e+00,5.000000000000000000e+00,5.000000000000000000e+00,5.000000000000000000e+00,5.000000000000000000e+00,5.000000000000000000e+00,5.000000000000000000e+00,5.000000000000000000e+00,5.000000000000000000e+00,5.000000000000000000e+00,5.000000000000000000e+00,5.000000000000000000e+00,5.000000000000000000e+00,5.000000000000000000e+00,5.000000000000000000e+00,5.000000000000000000e+00,5.000000000000000000e+00,5.000000000000000000e+00,5.000000000000000000e+00,5.000000000000000000e+00,5.000000000000000000e+00,5.000000000000000000e+00,5.000000000000000000e+00,5.000000000000000000e+00,5.000000000000000000e+00,5.000000000000000000e+00,5.000000000000000000e+00,5.000000000000000000e+00,5.000000000000000000e+00,5.000000000000000000e+00,5.000000000000000000e+00,5.000000000000000000e+00,5.000000000000000000e+00,5.000000000000000000e+00,5.000000000000000000e+00,5.000000000000000000e+00,5.000000000000000000e+00,5.000000000000000000e+00,5.000000000000000000e+00,5.000000000000000000e+00,5.000000000000000000e+00,4.883048534393310547e+00,4.699689865112304688e+00,4.529603004455566406e+00,4.371397495269775391e+00,4.223869800567626953e+00,4.085975170135498047e+00,3.956799030303955078e+00,3.835540533065795898e+00,3.721493244171142578e+00,3.614032268524169922e+00,3.512603044509887695e+00,3.416711568832397461e+00,3.325917005538940430e+00,3.239822626113891602e+00,3.158072948455810547e+00,3.080347537994384766e+00,3.006356000900268555e+00,2.935836076736450195e+00,2.868548154830932617e+00,2.804275751113891602e+00,2.742820262908935547e+00,2.684000968933105469e+00,2.627651214599609375e+00,2.573618650436401367e+00,2.521763801574707031e+00,2.471957206726074219e+00,2.424080133438110352e+00,2.378021955490112305e+00,2.333681583404541016e+00,2.290964365005493164e+00,2.249783039093017578e+00,2.210056066513061523e+00,2.171707868576049805e+00,2.134667634963989258e+00,2.098869562149047852e+00,2.064252614974975586e+00,2.030759096145629883e+00
5.000000000000000000e+00,5.000000000000000000e+00,5.000000000000000000e+00,5.000000000000000000e+00,5.000000000000000000e+00,5.000000000000000000e+00,5.000000000000000000e+00,5.000000000000000000e+00,5.000000000000000000e+00,5.000000000000000000e+00,5.000000000000000000e+00,5.000000000000000000e+00,5.000000000000000000e+00,5.000000000000000000e+00,5.000000000000000000e+00,5.000000000000000000e+00,5.000000000000000000e+00,5.000000000000000000e+00,5.000000000000000000e+00,5.000000000000000000e+00,5.000000000000000000e+00,5.000000000000000000e+00,5.000000000000000000e+00,5.000000000000000000e+00,5.000000000000000000e+00,5.000000000000000000e+00,5.000000000000000000e+00,5.000000000000000000e+00,5.000000000000000000e+00,5.000000000000000000e+00,5.000000000000000000e+00,5.000000000000000000e+00,5.000000000000000000e+00,5.000000000000000000e+00,5.000000000000000000e+00,5.000000000000000000e+00,5.000000000000000000e+00,5.000000000000000000e+00,5.000000000000000000e+00,5.000000000000000000e+00,5.000000000000000000e+00,5.000000000000000000e+00,5.000000000000000000e+00,4.883191108703613281e+00,4.699821949005126953e+00,4.529725551605224609e+00,4.371511459350585938e+00,4.223976612091064453e+00,4.086074829101562500e+00,3.956892967224121094e+00,3.835628747940063477e+00,3.721575975418090820e+00,3.614109992980957031e+00,3.512676954269409180e+00,3.416781663894653320e+00,3.325983047485351562e+00,3.239885330200195312e+00,3.158132553100585938e+00,3.080404520034790039e+00,3.006410121917724609e+00,2.935887336730957031e+00,2.868597269058227539e+00,2.804322957992553711e+00,2.742865324020385742e+00,2.684043884277343750e+00,2.627692222595214844e+00,2.573658227920532227e+00,2.521801710128784180e+00,2.471993684768676758e+00,2.424114942550659180e+00,2.378055810928344727e+00,2.333714246749877930e+00,2.290995836257934570e+00,2.249813318252563477e+00,2.210085391998291016e+00,2.171736001968383789e+00,2.134694814682006836e+00,2.098896026611328125e+00,2.064278125762939453e+00,2.030783653259277344e+00
5.000000000000000000e+00,5.000000000000000000e+00,5.000000000000000000e+00,5.000000000000000000e+00,5.000000000000000000e+00,5.000000000000000000e+00,5.000000000000000000e+00,5.000000000000000000e+00,5.000000000000000000e+00,5.000000000000000000e+00,5.000000000000000000e+00,5.000000000000000000e+00,5.000000000000000000e+00,5.000000000000000000e+00,5.000000000000000000e+00,5.000000000000000000e+00,5.000000000000000000e+00,5.000000000000000000e+00,5.000000000000000000e+00,5.000000000000000000e+00,5.000000000000000000e+00,5.000000000000000000e+00,5.000000000000000000e+00,5.000000000000000000e+00,5.000000000000000000e+00,5.000000000000000000e+00,5.000000000000000000e+00,5.000000000000000000e+00,5.000000000000000000e+00,5.000000000000000000e+00,5.000000000000000000e+00,5.000000000000000000e+00,5.000000000000000000e+00,5.000000000000000000e+00,5.000000000000000000e+00,5.000000000000000000e+00,5.000000000000000000e+00,5.000000000000000000e+00,5.000000000000000000e+00,5.000000000000000000e+00,5.000000000000000000e+00,5.000000000000000000e+00,5.000000000000000000e+00,4.883333683013916016e+00,4.699953556060791016e+00,4.529848098754882812e+00,4.371625900268554688e+00,4.224082946777343750e+00,4.086174488067626953e+00,3.956986188888549805e+00,3.835716247558593750e+00,3.721658945083618164e+00,3.614188432693481445e+00,3.512750387191772461e+00,3.416851282119750977e+00,3.326049089431762695e+00,3.239948272705078125e+00,3.158192157745361328e+00,3.080461025238037109e+00,3.006464004516601562e+00,2.935939073562622070e+00,2.868646621704101562e+00,2.804369688034057617e+00,2.742910146713256836e+00,2.684087038040161133e+00,2.627733707427978516e+00,2.573697805404663086e+00,2.521839618682861328e+00,2.472030162811279297e+00,2.424150228500366211e+00,2.378089666366577148e+00,2.333746671676635742e+00,2.291027069091796875e+00,2.249843835830688477e+00,2.210114479064941406e+00,2.171764135360717773e+00,2.134721994400024414e+00,2.098922252655029297e+00,2.064303636550903320e+00,2.030808210372924805e+00
5.000000000000000000e+00,5.000000000000000000e+00,5.000000000000000000e+00,5.000000000000000000e+00,5.000000000000000000e+00,5.000000000000000000e+00,5.000000000000000000e+00,5.000000000000000000e+00,5.000000000000000000e+00,5.000000000000000000e+00,5.000000000000000000e+00,5.000000000000000000e+00,5.000000000000000000e+00,5.000000000000000000e+00,5.000000000000000000e+00,5.000000000000000000e+00,5.000000000000000000e+00,5.000000000000000000e+00,5.000000000000000000e+00,5.000000000000000000e+00,5.000000000000000000e+00,5.000000000000000000e+00,5.000000000000000000e+00,5.000000000000000000e+00,5.000000000000000000e+00,5.000000000000000000e+00,5.000000000000000000e+00,5.000000000000000000e+00,5.000000000000000000e+00,5.000000000000000000e+00,5.000000000000000000e+00,5.000000000000000000e+00,5.000000000000000000e+00,5.000000000000000000e+00,5.000000000000000000e+00,5.000000000000000000e+00,5.000000000000000000e+00,5.000000000000000000e+00,5.000000000000000000e+00,5.000000000000000000e+00,5.000000000000000000e+00,5.000000000000000000e+00,5.000000000000000000e+00,4.883476257324218750e+00,4.700085639953613281e+00,4.529970645904541016e+00,4.371739864349365234e+00,4.224189758300781250e+00,4.086274623870849609e+00,3.957080125808715820e+00,3.835804462432861328e+00,3.721741437911987305e+00,3.614266157150268555e+00,3.512824296951293945e+00,3.416921138763427734e+00,3.326115131378173828e+00,3.240010738372802734e+00,3.158252000808715820e+00,3.080517768859863281e+00,3.006518125534057617e+00,2.935990333557128906e+00,2.868695497512817383e+00,2.804416894912719727e+00,2.742955207824707031e+00,2.684129953384399414e+00,2.627774715423583984e+00,2.573737382888793945e+00,2.521877765655517578e+00,2.472066640853881836e+00,2.424185276031494141e+00,2.378123283386230469e+00,2.333779335021972656e+00,2.291058540344238281e+00,2.249873876571655273e+00,2.210143566131591797e+00,2.171792268753051758e+00,2.134749412536621094e+00,2.098948717117309570e+00,2.064329147338867188e+00,2.030833005905151367e+00
4.871750354766845703e+00,4.870541572570800781e+00,4.869332790374755859e+00,4.868125438690185547e+00,4.866917610168457031e+00,4.865711212158203125e+00,4.864505290985107422e+00,4.863299846649169922e+00,4.862094879150390625e+00,4.860890865325927734e+00,4.859686851501464844e+00,4.858483791351318359e+00,4.857281208038330078e+00,4.856079578399658203e+00,4.854878425598144531e+00,4.853677749633789062e+00,4.852477550506591797e+00,4.851278305053710938e+00,4.850079059600830078e+00,4.848880767822265625e+00,4.847682952880859375e+00,4.846486091613769531e+00,4.845289230346679688e+00,4.844093799591064453e+00,4.842897891998291016e+00,4.841703414916992188e+00,4.840509414672851562e+00,4.839315414428710938e+00,4.838122844696044922e+00,4.836930274963378906e+00,4.835738658905029297e+00,4.834547042846679688e+00,4.833356380462646484e+00,4.832166194915771484e+00,4.830976963043212891e+00,4.829787731170654297e+00,4.828599929809570312e+00,4.827411651611328125e+00,4.826224803924560547e+00,4.825037956237792969e+00,4.823852539062500000e+00,4.822666645050048828e+00,4.821482181549072266e+00,4.820297718048095703e+00,4.700217723846435547e+00,4.530093193054199219e+00,4.371854305267333984e+00,4.224296092987060547e+00,4.086374282836914062e+00,3.957173347473144531e+00,3.835892200469970703e+00,3.721824407577514648e+00,3.614344596862792969e+00,3.512897968292236328e+00,3.416990756988525391e+00,3.326181411743164062e+00,3.240073680877685547e+00,3.158311367034912109e+00,3.080574274063110352e+00,3.006572008132934570e+00,2.936042070388793945e+00,2.868744850158691406e+00,2.804463624954223633e+00,2.743000268936157227e+00,2.684173107147216797e+00,2.627816200256347656e+00,2.573776960372924805e+00,2.521915674209594727e+00,2.472103118896484375e+00,2.424220561981201172e+00,2.378157138824462891e+00,2.333811759948730469e+00,2.291089773178100586e+00,2.249904155731201172e+00,2.210172891616821289e+00,2.171820640563964844e+00,2.134776592254638672e+00,2.098974943161010742e+00,2.064354658126831055e+00,2.030857563018798828e+00
3.776190996170043945e+00,3.775464296340942383e+00,3.774738073348999023e+00,3.774012565612792969e+00,3.773286819458007812e+00,3.772561311721801758e+00,3.771836042404174805e+00,3.771111726760864258e+00,3.770387172698974609e+00,3.769662857055664062e+00,3.768938779830932617e+00,3.768215417861938477e+00,3.767491817474365234e+00,3.766768693923950195e+00,3.766045808792114258e+00,3.765323400497436523e+00,3.764600992202758789e+00,3.763879060745239258e+00,3.763157129287719727e+00,3.762435913085937500e+00,3.761714696884155273e+00,3.760993719100952148e+00,3.760272979736328125e+00,3.759552955627441406e+00,3.758832931518554688e+00,3.758112907409667969e+00,3.757393836975097656e+00,3.756674528121948242e+00,3.755955457687377930e+00,3.755236625671386719e+00,3.754518508911132812e+00,3.753800153732299805e+00,3.753082275390625000e+00,3.752364635467529297e+00,3.751647472381591797e+00,3.750930309295654297e+00,3.750213623046875000e+00,3.749496936798095703e+00,3.748780965805053711e+00,3.748064994812011719e+00,3.747349262237548828e+00,3.746633768081665039e+00,3.745918750762939453e+00,3.745203971862792969e+00,3.744489192962646484e+00,3.743774890899658203e+00,3.743061065673828125e+00,3.742347240447998047e+00,3.741633653640747070e+00,3.740920305252075195e+00,3.740207672119140625e+00,3.721906900405883789e+00,3.614422321319580078e+00,3.512971878051757812e+00,3.417060613632202148e+00,3.326247453689575195e+00,3.240136146545410156e+00,3.158371210098266602e+00,3.080631256103515625e+00,3.006626129150390625e+00,2.936093330383300781e+00,2.868793964385986328e+00,2.804510831832885742e+00,2.743045330047607422e+00,2.684216022491455078e+00,2.627857208251953125e+00,2.573816776275634766e+00,2.521953821182250977e+00,2.472139835357666016e+00,2.424255609512329102e+00,2.378190994262695312e+00,2.333844423294067383e+00,2.291121244430541992e+00,2.249934434890747070e+00,2.210201978683471680e+00,2.171848773956298828e+00,2.134803771972656250e+00,2.099001407623291016e+00,2.064379930496215820e+00,2.030882120132446289e+00
3.082906484603881836e+00,3.082422256469726562e+00,3.081938266754150391e+00,3.081454515457153320e+00,3.080970764160156250e+00,3.080487012863159180e+00,3.080003499984741211e+00,3.079520463943481445e+00,3.079037189483642578e+00,3.078554153442382812e+00,3.078071117401123047e+00,3.077588796615600586e+00,3.077105998992919922e+00,3.076623678207397461e+00,3.076141357421875000e+00,3.075659513473510742e+00,3.075177431106567383e+00,3.074695587158203125e+00,3.074213743209838867e+00,3.073732614517211914e+00,3.073251247406005859e+00,3.072769880294799805e+00,3.072288751602172852e+00,3.071808099746704102e+00,3.071327209472656250e+00,3.070846557617187500e+00,3.070366382598876953e+00,3.069885969161987305e+00,3.069405794143676758e+00,3.068925857543945312e+00,3.068446159362792969e+00,3.067966461181640625e+00,3.067486763000488281e+00,3.067007303237915039e+00,3.066528320312500000e+00,3.066049337387084961e+00,3.065570354461669922e+00,3.065091371536254883e+00,3.064613103866577148e+00,3.064134597778320312e+00,3.063656091690063477e+00,3.063177824020385742e+00,3.062700033187866211e+00,3.062222003936767578e+00,3.061744213104248047e+00,3.061266660690307617e+00,3.060789346694946289e+00,3.060312032699584961e+00,3.059834718704223633e+00,3.059357643127441406e+00,3.058881044387817383e+00,3.058404207229614258e+00,3.057927608489990234e+00,3.057451248168945312e+00,3.056975126266479492e+00,3.056499004364013672e+00,3.056022882461547852e+00,3.055546998977661133e+00,3.055071592330932617e+00,3.006680011749267578e+00,2.936145067214965820e+00,2.868843317031860352e+00,2.804557800292968750e+00,2.743090152740478516e+00,2.684259176254272461e+00,2.627898693084716797e+00,2.573856115341186523e+00,2.521991729736328125e+00,2.472176074981689453e+00,2.424290657043457031e+00,2.378224849700927734e+00,2.333876848220825195e+00,2.291152477264404297e+00,2.249964714050292969e+00,2.210231304168701172e+00,2.171876907348632812e+00,2.134830951690673828e+00,2.099027633666992188e+00,2.064405441284179688e+00,2.030906915664672852e+00
2.604700326919555664e+00,2.604354619979858398e+00,2.604008913040161133e+00,2.603663682937622070e+00,2.603318214416503906e+00,2.602972984313964844e+00,2.602627754211425781e+00,2.602282762527465820e+00,2.601937770843505859e+00,2.601592779159545898e+00,2.601247787475585938e+00,2.600903272628784180e+00,2.600558519363403320e+00,2.600214004516601562e+00,2.599869489669799805e+00,2.599525213241577148e+00,2.599180936813354492e+00,2.598836660385131836e+00,2.598492383956909180e+00,2.598148584365844727e+00,2.597804546356201172e+00,2.597460746765136719e+00,2.597116947174072266e+00,2.596773386001586914e+00,2.596429824829101562e+00,2.596086263656616211e+00,2.595743179321289062e+00,2.595399856567382812e+00,2.595056533813476562e+00,2.594713449478149414e+00,2.594370603561401367e+00,2.594027519226074219e+00,2.593684673309326172e+00,2.593341827392578125e+00,2.592999458312988281e+00,2.592656850814819336e+00,2.592314243316650391e+00,2.591971874237060547e+00,2.591629743576049805e+00,2.591287612915039062e+00,2.590945243835449219e+00,2.590603351593017578e+00,2.590261459350585938e+00,2.589919567108154297e+00,2.589577913284301758e+00,2.589236021041870117e+00,2.588894844055175781e+00,2.588553190231323242e+00,2.588211774826049805e+00,2.587870359420776367e+00,2.587529420852661133e+00,2.587188243865966797e+00,2.586847066879272461e+00,2.586506128311157227e+00,2.586165428161621094e+00,2.585824728012084961e+00,2.585484027862548828e+00,2.585143327713012695e+00,2.584803104400634766e+00,2.584462642669677734e+00,2.584122180938720703e+00,2.583781957626342773e+00,2.583441972732543945e+00,2.583101987838745117e+00,2.582762002944946289e+00,2.582422256469726562e+00,2.573895931243896484e+00,2.522029876708984375e+00,2.472212791442871094e+00,2.424325704574584961e+00,2.378258466720581055e+00,2.333909511566162109e+00,2.291183948516845703e+00,2.249994993209838867e+00,2.210260391235351562e+00,2.171905279159545898e+00,2.134858369827270508e+00,2.099054098129272461e+00,2.064430952072143555e+00,2.030931472778320312e+00
2.254926443099975586e+00,2.254667520523071289e+00,2.254408359527587891e+00,2.254149675369262695e+00,2.253890752792358398e+00,2.253631830215454102e+00,2.253372907638549805e+00,2.253114461898803711e+00,2.252855777740478516e+00,2.252597093582153320e+00,2.252338647842407227e+00,2.252080202102661133e+00,2.251821756362915039e+00,2.251563310623168945e+00,2.251305103302001953e+00,2.251046895980834961e+00,2.250788688659667969e+00,2.250530719757080078e+00,2.250272512435913086e+00,2.250014781951904297e+00,2.249756813049316406e+00,2.249498844146728516e+00,2.249240875244140625e+00,2.248983383178710938e+00,2.248725652694702148e+00,2.248467922210693359e+00,2.248210430145263672e+00,2.247952938079833984e+00,2.247695446014404297e+00,2.247437953948974609e+00,2.247180700302124023e+00,2.246923446655273438e+00,2.246666193008422852e+00,2.246408939361572266e+00,2.246151924133300781e+00,2.245894908905029297e+00,2.245637893676757812e+00,2.245380878448486328e+00,2.245124101638793945e+00,2.244867324829101562e+00,2.244610548019409180e+00,2.244353771209716797e+00,2.244097232818603516e+00,2.243840694427490234e+00,2.243584156036376953e+00,2.243327617645263672e+00,2.243071317672729492e+00,2.242814779281616211e+00,2.242558479309082031e+00,2.242302179336547852e+00,2.242046356201171875e+00,2.241790056228637695e+00,2.241533994674682617e+00,2.241277933120727539e+00,2.241022109985351562e+00,2.240766286849975586e+00,2.240510463714599609e+00,2.240254640579223633e+00,2.239999055862426758e+00,2.239743232727050781e+00,2.239487648010253906e+00,2.239232063293457031e+00,2.238976716995239258e+00,2.238721370697021484e+00,2.238466024398803711e+00,2.238210678100585938e+00,2.237955570220947266e+00,2.237700223922729492e+00,2.237445116043090820e+00,2.237190246582031250e+00,2.236935138702392578e+00,2.236680269241333008e+00,2.236425399780273438e+00,2.236170530319213867e+00,2.210289716720581055e+00,2.171933412551879883e+00,2.134885311126708984e+00,2.099080324172973633e+00,2.064456462860107422e+00,2.030956268310546875e+00
1.987970590591430664e+00,1.987769246101379395e+00,1.987567901611328125e+00,1.987366795539855957e+00,1.987165570259094238e+00,1.986964344978332520e+00,1.986763238906860352e+00,1.986562013626098633e+00,1.986360907554626465e+00,1.986159920692443848e+00,1.985958933830261230e+00,1.985758185386657715e+00,1.985557198524475098e+00,1.985356330871582031e+00,1.985155463218688965e+00,1.984954714775085449e+00,1.984753966331481934e+00,1.984553217887878418e+00,1.984352469444274902e+00,1.984152078628540039e+00,1.983951449394226074e+00,1.983750939369201660e+00,1.983550310134887695e+00,1.983349919319152832e+00,1.983149409294128418e+00,1.982949018478393555e+00,1.982748866081237793e+00,1.982548594474792480e+00,1.982348322868347168e+00,1.982148051261901855e+00,1.981947898864746094e+00,1.981747627258300781e+00,1.981547594070434570e+00,1.981347441673278809e+00,1.981147646903991699e+00,1.980947613716125488e+00,1.980747699737548828e+00,1.980547785758972168e+00,1.980347871780395508e+00,1.980148077011108398e+00,1.979948282241821289e+00,1.979748487472534180e+00,1.979549050331115723e+00,1.979349255561828613e+00,1.979149699211120605e+00,1.978950023651123047e+00,1.978750467300415039e+00,1.978551030158996582e+00,1.978351473808288574e+00,1.978152036666870117e+00,1.977952837944030762e+00,1.977753520011901855e+00,1.977554202079772949e+00,1.977354884147644043e+00,1.977155685424804688e+00,1.976956486701965332e+00,1.976757287979125977e+00,1.976558208465576172e+00,1.976359367370605469e+00,1.976160287857055664e+00,1.975961327552795410e+00,1.975762367248535156e+00,1.975563406944274902e+00,1.975364565849304199e+00,1.975165724754333496e+00,1.974967122077941895e+00,1.974768400192260742e+00,1.974569678306579590e+00,1.974370956420898438e+00,1.974172353744506836e+00,1.973973751068115234e+00,1.973775267601013184e+00,1.973576664924621582e+00,1.973378419876098633e+00,1.973180055618286133e+00,1.972981572151184082e+00,1.972783207893371582e+00,1.972584962844848633e+00,1.972386717796325684e+00,1.972188472747802734e+00
1.777532577514648438e+00,1.777371525764465332e+00,1.777210593223571777e+00,1.777049660682678223e+00,1.776888728141784668e+00,1.776727795600891113e+00,1.776566982269287109e+00,1.776406288146972656e+00,1.776245474815368652e+00,1.776084780693054199e+00,1.775923967361450195e+00,1.775763273239135742e+00,1.775602579116821289e+00,1.775442004203796387e+00,1.775281310081481934e+00,1.775120854377746582e+00,1.774960398674011230e+00,1.774799823760986328e+00,1.774639248847961426e+00,1.774478793144226074e+00,1.774318337440490723e+00,1.774157881736755371e+00,1.773997545242309570e+00,1.773837327957153320e+00,1.773676991462707520e+00,1.773516654968261719e+00,1.773356437683105469e+00,1.773196220397949219e+00,1.773036003112792969e+00,1.772875785827636719e+00,1.772715806961059570e+00,1.772555589675903320e+00,1.772395491600036621e+00,1.772235512733459473e+00,1.772075414657592773e+00,1.771915435791015625e+00,1.771755337715148926e+00,1.771595478057861328e+00,1.771435618400573730e+00,1.771275758743286133e+00,1.771115899085998535e+00,1.770956039428710938e+00,1.770796179771423340e+00,1.770636439323425293e+00,1.770476698875427246e+00,1.770316958427429199e+00,1.770157456398010254e+00,1.769997715950012207e+00,1.769838094711303711e+00,1.769678473472595215e+00,1.769518852233886719e+00,1.769359350204467773e+00,1.769199848175048828e+00,1.769040346145629883e+00,1.768881082534790039e+00,1.768721580505371094e+00,1.768562197685241699e+00,1.768402814865112305e+00,1.768243432044982910e+00,1.768084049224853516e+00,1.767924785614013672e+00,1.767765522003173828e+00,1.767606496810913086e+00,1.767447233200073242e+00,1.767288088798522949e+00,1.767128944396972656e+00,1.766969799995422363e+00,1.766810655593872070e+00,1.766651630401611328e+00,1.766492724418640137e+00,1.766333699226379395e+00,1.766174793243408203e+00,1.766015768051147461e+00,1.765856862068176270e+00,1.765697956085205078e+00,1.765539169311523438e+00,1.765380382537841797e+00,1.765221714973449707e+00,1.765062928199768066e+00,1.764904141426086426e+00
1.607381820678710938e+00,1.607250094413757324e+00,1.607118487358093262e+00,1.606986999511718750e+00,1.606855392456054688e+00,1.606723904609680176e+00,1.606592297554016113e+00,1.606460809707641602e+00,1.606329321861267090e+00,1.606197834014892578e+00,1.606066346168518066e+00,1.605935096740722656e+00,1.605803608894348145e+00,1.605672240257263184e+00,1.605540871620178223e+00,1.605409502983093262e+00,1.605278134346008301e+00,1.605146884918212891e+00,1.605015516281127930e+00,1.604884386062622070e+00,1.604753136634826660e+00,1.604622006416320801e+00,1.604490756988525391e+00,1.604359507560729980e+00,1.604228377342224121e+00,1.604097247123718262e+00,1.603966236114501953e+00,1.603835225105285645e+00,1.603704094886779785e+00,1.603573083877563477e+00,1.603441953659057617e+00,1.603310942649841309e+00,1.603180050849914551e+00,1.603049039840698242e+00,1.602918267250061035e+00,1.602787256240844727e+00,1.602656364440917969e+00,1.602525472640991211e+00,1.602394700050354004e+00,1.602263808250427246e+00,1.602133035659790039e+00,1.602002143859863281e+00,1.601871609687805176e+00,1.601740837097167969e+00,1.601610064506530762e+00,1.601479411125183105e+00,1.601348638534545898e+00,1.601217985153198242e+00,1.601087331771850586e+00,1.600956678390502930e+00,1.600826263427734375e+00,1.600695729255676270e+00,1.600565075874328613e+00,1.600434541702270508e+00,1.600304007530212402e+00,1.600173592567443848e+00,1.600043058395385742e+00,1.599912524223327637e+00,1.599782347679138184e+00,1.599651932716369629e+00,1.599521517753601074e+00,1.599391102790832520e+00,1.599260807037353516e+00,1.599130392074584961e+00,1.599000096321105957e+00,1.598870038986206055e+00,1.598739743232727051e+00,1.598609447479248047e+00,1.598479270935058594e+00,1.598349094390869141e+00,1.598218917846679688e+00,1.598088741302490234e+00,1.597958564758300781e+00,1.597828626632690430e+00,1.597698450088500977e+00,1.597568392753601074e+00,1.597438335418701172e+00,1.597308278083801270e+00,1.597178339958190918e+00,1.597048282623291016e+00
1.466960072517395020e+00,1.466850399971008301e+00,1.466740846633911133e+00,1.466631174087524414e+00,1.466521501541137695e+00,1.466411948204040527e+00,1.466302394866943359e+00,1.466192960739135742e+00,1.466083407402038574e+00,1.465973854064941406e+00,1.465864300727844238e+00,1.465754866600036621e+00,1.465645313262939453e+00,1.465535879135131836e+00,1.465426445007324219e+00,1.465317130088806152e+00,1.465207695960998535e+00,1.465098381042480469e+00,1.464988946914672852e+00,1.464879631996154785e+00,1.464770197868347168e+00,1.464660882949829102e+00,1.464551568031311035e+00,1.464442372322082520e+00,1.464333176612854004e+00,1.464223861694335938e+00,1.464114546775817871e+00,1.464005351066589355e+00,1.463896155357360840e+00,1.463786959648132324e+00,1.463677883148193359e+00,1.463568687438964844e+00,1.463459491729736328e+00,1.463350415229797363e+00,1.463241338729858398e+00,1.463132143020629883e+00,1.463023066520690918e+00,1.462913990020751953e+00,1.462805151939392090e+00,1.462696075439453125e+00,1.462586998939514160e+00,1.462478041648864746e+00,1.462369084358215332e+00,1.462260127067565918e+00,1.462151169776916504e+00,1.462042212486267090e+00,1.461933374404907227e+00,1.461824417114257812e+00,1.461715579032897949e+00,1.461606740951538086e+00,1.461497783660888672e+00,1.461388945579528809e+00,1.461280107498168945e+00,1.461171388626098633e+00,1.461062669754028320e+00,1.460953950881958008e+00,1.460845112800598145e+00,1.460736393928527832e+00,1.460627675056457520e+00,1.460518956184387207e+00,1.460410237312316895e+00,1.460301518440246582e+00,1.460193037986755371e+00,1.460084319114685059e+00,1.459975719451904297e+00,1.459867119789123535e+00,1.459758520126342773e+00,1.459649920463562012e+00,1.459541320800781250e+00,1.459432959556579590e+00,1.459324359893798828e+00,1.459215879440307617e+00,1.459107398986816406e+00,1.458998918533325195e+00,1.458890438079833984e+00,1.458781957626342773e+00,1.458673477172851562e+00,1.458565235137939453e+00,1.458456754684448242e+00,1.458348393440246582e+00
1.349101781845092773e+00,1.349008917808532715e+00,1.348916292190551758e+00,1.348823666572570801e+00,1.348730921745300293e+00,1.348638176918029785e+00,1.348545551300048828e+00,1.348452806472778320e+00,1.348360180854797363e+00,1.348267555236816406e+00,1.348174929618835449e+00,1.348082423210144043e+00,1.347989797592163086e+00,1.347897171974182129e+00,1.347804665565490723e+00,1.347712039947509766e+00,1.347619533538818359e+00,1.347526907920837402e+00,1.347434401512145996e+00,1.347342014312744141e+00,1.347249507904052734e+00,1.347157001495361328e+00,1.347064614295959473e+00,1.346972107887268066e+00,1.346879601478576660e+00,1.346787214279174805e+00,1.346694946289062500e+00,1.346602439880371094e+00,1.346510052680969238e+00,1.346417665481567383e+00,1.346325278282165527e+00,1.346232891082763672e+00,1.346140623092651367e+00,1.346048235893249512e+00,1.345955967903137207e+00,1.345863699913024902e+00,1.345771431922912598e+00,1.345679163932800293e+00,1.345586776733398438e+00,1.345494508743286133e+00,1.345402359962463379e+00,1.345310091972351074e+00,1.345217943191528320e+00,1.345125675201416016e+00,1.345033526420593262e+00,1.344941377639770508e+00,1.344849109649658203e+00,1.344756960868835449e+00,1.344664812088012695e+00,1.344572663307189941e+00,1.344480633735656738e+00,1.344388604164123535e+00,1.344296455383300781e+00,1.344204425811767578e+00,1.344112277030944824e+00,1.344020247459411621e+00,1.343928217887878418e+00,1.343836188316345215e+00,1.343744277954101562e+00,1.343652248382568359e+00,1.343560218811035156e+00,1.343468189239501953e+00,1.343376278877258301e+00,1.343284249305725098e+00,1.343192338943481445e+00,1.343100547790527344e+00,1.343008518218994141e+00,1.342916607856750488e+00,1.342824697494506836e+00,1.342732906341552734e+00,1.342640995979309082e+00,1.342549085617065430e+00,1.342457294464111328e+00,1.342365503311157227e+00,1.342273712158203125e+00,1.342181921005249023e+00,1.342090129852294922e+00,1.341998338699340820e+00,1.341906547546386719e+00,1.341814756393432617e+00
1.248773097991943359e+00,1.248693585395812988e+00,1.248614192008972168e+00,1.248534679412841797e+00,1.248455286026000977e+00,1.248375773429870605e+00,1.248296380043029785e+00,1.248217105865478516e+00,1.248137712478637695e+00,1.248058319091796875e+00,1.247978925704956055e+00,1.247899532318115234e+00,1.247820258140563965e+00,1.247740864753723145e+00,1.247661590576171875e+00,1.247582316398620605e+00,1.247503042221069336e+00,1.247423648834228516e+00,1.247344374656677246e+00,1.247265100479125977e+00,1.247185826301574707e+00,1.247106552124023438e+00,1.247027277946472168e+00,1.246948122978210449e+00,1.246868968009948730e+00,1.246789693832397461e+00,1.246710419654846191e+00,1.246631264686584473e+00,1.246552109718322754e+00,1.246472835540771484e+00,1.246393799781799316e+00,1.246314644813537598e+00,1.246235489845275879e+00,1.246156334877014160e+00,1.246077179908752441e+00,1.245998144149780273e+00,1.245918989181518555e+00,1.245839834213256836e+00,1.245760917663574219e+00,1.245681762695312500e+00,1.245602726936340332e+00,1.245523691177368164e+00,1.245444536209106445e+00,1.245365500450134277e+00,1.245286464691162109e+00,1.245207428932189941e+00,1.245128512382507324e+00,1.245049595832824707e+00,1.244970560073852539e+00,1.244891643524169922e+00,1.244812607765197754e+00,1.244733691215515137e+00,1.244654655456542969e+00,1.244575738906860352e+00,1.244496941566467285e+00,1.244418025016784668e+00,1.244339108467102051e+00,1.244260191917419434e+00,1.244181275367736816e+00,1.244102358818054199e+00,1.244023561477661133e+00,1.243944644927978516e+00,1.243865847587585449e+00,1.243787050247192383e+00,1.243708252906799316e+00,1.243629455566406250e+00,1.243550539016723633e+00,1.243471741676330566e+00,1.243392944335937500e+00,1.243314266204833984e+00,1.243235588073730469e+00,1.243156790733337402e+00,1.243077993392944336e+00,1.242999315261840820e+00,1.242920517921447754e+00,1.242841839790344238e+00,1.242763161659240723e+00,1.242684483528137207e+00,1.242605805397033691e+00,1.242527127265930176e+00
1.162333726882934570e+00,1.162264823913574219e+00,1.162196040153503418e+00,1.162127256393432617e+00,1.162058472633361816e+00,1.161989569664001465e+00,1.161920785903930664e+00,1.161852002143859863e+00,1.161783218383789062e+00,1.161714434623718262e+00,1.161645650863647461e+00,1.161576986312866211e+00,1.161508202552795410e+00,1.161439538002014160e+00,1.161370754241943359e+00,1.161301970481872559e+00,1.161233305931091309e+00,1.161164522171020508e+00,1.161095857620239258e+00,1.161027193069458008e+00,1.160958528518676758e+00,1.160889863967895508e+00,1.160821199417114258e+00,1.160752534866333008e+00,1.160683870315551758e+00,1.160615205764770508e+00,1.160546660423278809e+00,1.160477995872497559e+00,1.160409331321716309e+00,1.160340785980224609e+00,1.160272121429443359e+00,1.160203576087951660e+00,1.160134911537170410e+00,1.160066366195678711e+00,1.159997820854187012e+00,1.159929275512695312e+00,1.159860730171203613e+00,1.159792184829711914e+00,1.159723639488220215e+00,1.159655094146728516e+00,1.159586548805236816e+00,1.159518003463745117e+00,1.159449577331542969e+00,1.159381031990051270e+00,1.159312605857849121e+00,1.159244060516357422e+00,1.159175634384155273e+00,1.159107089042663574e+00,1.159038662910461426e+00,1.158970236778259277e+00,1.158901810646057129e+00,1.158833384513854980e+00,1.158764958381652832e+00,1.158696532249450684e+00,1.158628106117248535e+00,1.158559679985046387e+00,1.158491253852844238e+00,1.158422946929931641e+00,1.158354640007019043e+00,1.158286213874816895e+00,1.158217906951904297e+00,1.158149600028991699e+00,1.158081173896789551e+00,1.158012866973876953e+00,1.157944560050964355e+00,1.157876253128051758e+00,1.157807946205139160e+00,1.157739639282226562e+00,1.157671332359313965e+00,1.157603025436401367e+00,1.157534718513488770e+00,1.157466530799865723e+00,1.157398223876953125e+00,1.157330036163330078e+00,1.157261729240417480e+00,1.157193541526794434e+00,1.157125234603881836e+00,1.157057046890258789e+00,1.156988859176635742e+00,1.156920552253723145e+00
1.087086200714111328e+00,1.087026000022888184e+00,1.086965799331665039e+00,1.086905598640441895e+00,1.086845397949218750e+00,1.086785197257995605e+00,1.086724996566772461e+00,1.086664915084838867e+00,1.086604714393615723e+00,1.086544513702392578e+00,1.086484432220458984e+00,1.086424231529235840e+00,1.086364150047302246e+00,1.086303949356079102e+00,1.086243867874145508e+00,1.086183786392211914e+00,1.086123585700988770e+00,1.086063504219055176e+00,1.086003422737121582e+00,1.085943341255187988e+00,1.085883259773254395e+00,1.085823178291320801e+00,1.085763096809387207e+00,1.085703015327453613e+00,1.085642933845520020e+00,1.085582971572875977e+00,1.085522890090942383e+00,1.085462808609008789e+00,1.085402727127075195e+00,1.085342764854431152e+00,1.085282802581787109e+00,1.085222721099853516e+00,1.085162758827209473e+00,1.085102796554565430e+00,1.085042715072631836e+00,1.084982752799987793e+00,1.084922790527343750e+00,1.084862828254699707e+00,1.084802865982055664e+00,1.084742903709411621e+00,1.084682941436767578e+00,1.084622979164123535e+00,1.084563016891479492e+00,1.084503054618835449e+00,1.084443211555480957e+00,1.084383249282836914e+00,1.084323406219482422e+00,1.084263443946838379e+00,1.084203600883483887e+00,1.084143638610839844e+00,1.084083795547485352e+00,1.084023833274841309e+00,1.083963990211486816e+00,1.083904147148132324e+00,1.083844304084777832e+00,1.083784461021423340e+00,1.083724617958068848e+00,1.083664774894714355e+00,1.083604931831359863e+00,1.083545088768005371e+00,1.083485245704650879e+00,1.083425402641296387e+00,1.083365678787231445e+00,1.083305835723876953e+00,1.083246111869812012e+00,1.083186268806457520e+00,1.083126425743103027e+00,1.083066701889038086e+00,1.083006858825683594e+00,1.082947254180908203e+00,1.082887411117553711e+00,1.082827687263488770e+00,1.082767963409423828e+00,1.082708239555358887e+00,1.082648515701293945e+00,1.082588672637939453e+00,1.082528948783874512e+00,1.082469344139099121e+00,1.082409620285034180e+00,1.082349896430969238e+00
1.020989179611206055e+00,1.020936012268066406e+00,1.020882844924926758e+00,1.020829796791076660e+00,1.020776748657226562e+00,1.020723700523376465e+00,1.020670533180236816e+00,1.020617485046386719e+00,1.020564436912536621e+00,1.020511269569396973e+00,1.020458221435546875e+00,1.020405173301696777e+00,1.020352125167846680e+00,1.020299077033996582e+00,1.020246028900146484e+00,1.020192980766296387e+00,1.020139932632446289e+00,1.020087003707885742e+00,1.020033955574035645e+00,1.019980907440185547e+00,1.019927978515625000e+00,1.019874930381774902e+00,1.019821882247924805e+00,1.019768953323364258e+00,1.019715905189514160e+00,1.019662976264953613e+00,1.019610047340393066e+00,1.019557118415832520e+00,1.019504070281982422e+00,1.019451141357421875e+00,1.019398212432861328e+00,1.019345164299011230e+00,1.019292235374450684e+00,1.019239306449890137e+00,1.019186496734619141e+00,1.019133448600769043e+00,1.019080519676208496e+00,1.019027709960937500e+00,1.018974781036376953e+00,1.018921852111816406e+00,1.018868923187255859e+00,1.018815994262695312e+00,1.018763184547424316e+00,1.018710255622863770e+00,1.018657445907592773e+00,1.018604516983032227e+00,1.018551707267761230e+00,1.018498778343200684e+00,1.018445968627929688e+00,1.018393039703369141e+00,1.018340229988098145e+00,1.018287420272827148e+00,1.018234610557556152e+00,1.018181800842285156e+00,1.018128991127014160e+00,1.018076062202453613e+00,1.018023252487182617e+00,1.017970442771911621e+00,1.017917752265930176e+00,1.017864942550659180e+00,1.017812132835388184e+00,1.017759323120117188e+00,1.017706513404846191e+00,1.017653822898864746e+00,1.017601013183593750e+00,1.017548322677612305e+00,1.017495512962341309e+00,1.017442822456359863e+00,1.017390012741088867e+00,1.017337322235107422e+00,1.017284512519836426e+00,1.017231822013854980e+00,1.017179131507873535e+00,1.017126441001892090e+00,1.017073750495910645e+00,1.017020940780639648e+00,1.016968250274658203e+00,1.016915559768676758e+00,1.016862869262695312e+00,1.016810178756713867e+00
9.624691009521484375e-01,9.624219536781311035e-01,9.623746275901794434e-01,9.623275399208068848e-01,9.622802734375000000e-01,9.622331261634826660e-01,9.621859192848205566e-01,9.621387720108032227e-01,9.620916843414306641e-01,9.620444178581237793e-01,9.619973301887512207e-01,9.619501233100891113e-01,9.619030356407165527e-01,9.618558287620544434e-01,9.618087410926818848e-01,9.617616534233093262e-01,9.617144465446472168e-01,9.616673588752746582e-01,9.616202116012573242e-01,9.615731239318847656e-01,9.615259766578674316e-01,9.614788889884948730e-01,9.614317417144775391e-01,9.613846540451049805e-01,9.613376259803771973e-01,9.612904787063598633e-01,9.612434506416320801e-01,9.611963033676147461e-01,9.611492753028869629e-01,9.611021280288696289e-01,9.610551595687866211e-01,9.610081315040588379e-01,9.609609842300415039e-01,9.609140157699584961e-01,9.608668684959411621e-01,9.608199000358581543e-01,9.607728123664855957e-01,9.607258439064025879e-01,9.606788158416748047e-01,9.606317281723022461e-01,9.605847597122192383e-01,9.605377316474914551e-01,9.604907631874084473e-01,9.604436755180358887e-01,9.603967070579528809e-01,9.603496789932250977e-01,9.603027105331420898e-01,9.602558016777038574e-01,9.602087140083312988e-01,9.601618051528930664e-01,9.601147770881652832e-01,9.600678682327270508e-01,9.600208401679992676e-01,9.599739313125610352e-01,9.599270224571228027e-01,9.598799943923950195e-01,9.598330855369567871e-01,9.597861170768737793e-01,9.597392082214355469e-01,9.596922397613525391e-01,9.596453309059143066e-01,9.595983624458312988e-01,9.595514535903930664e-01,9.595046043395996094e-01,9.594576358795166016e-01,9.594107866287231445e-01,9.593638181686401367e-01,9.593169689178466797e-01,9.592700004577636719e-01,9.592231512069702148e-01,9.591763615608215332e-01,9.591293931007385254e-01,9.590826034545898438e-01,9.590356349945068359e-01,9.589888453483581543e-01,9.589419364929199219e-01,9.588950872421264648e-01,9.588482975959777832e-01,9.588013887405395508e-01,9.587545990943908691e-01
9.102937579154968262e-01,9.102514386177062988e-01,9.102092981338500977e-01,9.101670980453491211e-01,9.101248383522033691e-01,9.100826978683471680e-01,9.100404381752014160e-01,9.099982976913452148e-01,9.099560379981994629e-01,9.099138975143432617e-01,9.098716378211975098e-01,9.098294973373413086e-01,9.097873568534851074e-01,9.097451567649841309e-01,9.097030162811279297e-01,9.096608161926269531e-01,9.096186757087707520e-01,9.095764756202697754e-01,9.095343351364135742e-01,9.094922542572021484e-01,9.094500541687011719e-01,9.094079136848449707e-01,9.093657732009887695e-01,9.093236327171325684e-01,9.092814922332763672e-01,9.092393517494201660e-01,9.091973304748535156e-01,9.091551303863525391e-01,9.091130495071411133e-01,9.090709090232849121e-01,9.090288281440734863e-01,9.089866876602172852e-01,9.089446067810058594e-01,9.089024662971496582e-01,9.088603854179382324e-01,9.088183641433715820e-01,9.087762236595153809e-01,9.087342023849487305e-01,9.086920619010925293e-01,9.086500406265258789e-01,9.086079001426696777e-01,9.085658788681030273e-01,9.085238575935363770e-01,9.084817767143249512e-01,9.084397554397583008e-01,9.083976149559020996e-01,9.083556532859802246e-01,9.083135724067687988e-01,9.082715511322021484e-01,9.082294702529907227e-01,9.081875085830688477e-01,9.081454873085021973e-01,9.081034064292907715e-01,9.080614447593688965e-01,9.080193638801574707e-01,9.079774022102355957e-01,9.079353809356689453e-01,9.078934192657470703e-01,9.078514575958251953e-01,9.078093767166137695e-01,9.077674150466918945e-01,9.077253937721252441e-01,9.076834321022033691e-01,9.076414108276367188e-01,9.075995087623596191e-01,9.075575470924377441e-01,9.075155258178710938e-01,9.074736237525939941e-01,9.074316024780273438e-01,9.073897004127502441e-01,9.073476791381835938e-01,9.073057770729064941e-01,9.072637557983398438e-01,9.072219133377075195e-01,9.071800112724304199e-01,9.071379899978637695e-01,9.070961475372314453e-01,9.070541262626647949e-01,9.070122838020324707e-01,9.069703221321105957e-01
8.634843230247497559e-01,8.634462952613830566e-01,8.634083867073059082e-01,8.633702993392944336e-01,8.633323907852172852e-01,8.632943630218505859e-01,8.632564544677734375e-01,8.632184863090515137e-01,8.631804585456848145e-01,8.631425499916076660e-01,8.631045222282409668e-01,8.630666136741638184e-01,8.630286455154418945e-01,8.629907369613647461e-01,8.629527091979980469e-01,8.629148006439208984e-01,8.628768920898437500e-01,8.628389239311218262e-01,8.628010153770446777e-01,8.627630472183227539e-01,8.627251386642456055e-01,8.626871705055236816e-01,8.626493215560913086e-01,8.626114130020141602e-01,8.625734448432922363e-01,8.625355958938598633e-01,8.624976277351379395e-01,8.624597787857055664e-01,8.624218106269836426e-01,8.623839616775512695e-01,8.623461127281188965e-01,8.623081445693969727e-01,8.622702956199645996e-01,8.622323870658874512e-01,8.621945381164550781e-01,8.621566295623779297e-01,8.621187806129455566e-01,8.620808720588684082e-01,8.620430231094360352e-01,8.620051741600036621e-01,8.619672656059265137e-01,8.619294762611389160e-01,8.618915677070617676e-01,8.618537783622741699e-01,8.618158698081970215e-01,8.617780804634094238e-01,8.617402315139770508e-01,8.617023825645446777e-01,8.616645932197570801e-01,8.616266846656799316e-01,8.615888953208923340e-01,8.615510463714599609e-01,8.615132570266723633e-01,8.614754080772399902e-01,8.614376187324523926e-01,8.613998293876647949e-01,8.613619804382324219e-01,8.613241910934448242e-01,8.612863421440124512e-01,8.612486124038696289e-01,8.612107634544372559e-01,8.611730337142944336e-01,8.611352443695068359e-01,8.610974550247192383e-01,8.610596656799316406e-01,8.610218763351440430e-01,8.609841465950012207e-01,8.609462976455688477e-01,8.609085679054260254e-01,8.608708381652832031e-01,8.608330488204956055e-01,8.607953190803527832e-01,8.607575297355651855e-01,8.607197999954223633e-01,8.606820106506347656e-01,8.606442809104919434e-01,8.606064915657043457e-01,8.605688214302062988e-01,8.605310916900634766e-01,8.604933619499206543e-01
8.212535381317138672e-01,8.212192058563232422e-01,8.211848139762878418e-01,8.211504817008972168e-01,8.211161494255065918e-01,8.210817575454711914e-01,8.210474252700805664e-01,8.210130333900451660e-01,8.209787607192993164e-01,8.209443688392639160e-01,8.209100365638732910e-01,8.208757638931274414e-01,8.208413720130920410e-01,8.208070397377014160e-01,8.207727074623107910e-01,8.207384347915649414e-01,8.207040429115295410e-01,8.206697702407836914e-01,8.206353783607482910e-01,8.206011056900024414e-01,8.205668330192565918e-01,8.205325007438659668e-01,8.204982280731201172e-01,8.204638957977294922e-01,8.204296231269836426e-01,8.203952908515930176e-01,8.203610181808471680e-01,8.203267455101013184e-01,8.202924132347106934e-01,8.202582001686096191e-01,8.202238678932189941e-01,8.201895952224731445e-01,8.201552629470825195e-01,8.201210498809814453e-01,8.200868368148803711e-01,8.200525045394897461e-01,8.200182914733886719e-01,8.199839591979980469e-01,8.199497461318969727e-01,8.199154138565063477e-01,8.198812007904052734e-01,8.198469281196594238e-01,8.198127150535583496e-01,8.197785019874572754e-01,8.197442293167114258e-01,8.197100162506103516e-01,8.196757435798645020e-01,8.196415305137634277e-01,8.196072578430175781e-01,8.195730447769165039e-01,8.195388913154602051e-01,8.195046186447143555e-01,8.194704055786132812e-01,8.194361925125122070e-01,8.194019794464111328e-01,8.193677067756652832e-01,8.193335533142089844e-01,8.192992806434631348e-01,8.192651271820068359e-01,8.192309737205505371e-01,8.191967606544494629e-01,8.191625475883483887e-01,8.191283345222473145e-01,8.190941810607910156e-01,8.190599679946899414e-01,8.190258145332336426e-01,8.189916610717773438e-01,8.189574480056762695e-01,8.189232945442199707e-01,8.188890814781188965e-01,8.188549280166625977e-01,8.188207745552062988e-01,8.187866210937500000e-01,8.187524676322937012e-01,8.187183141708374023e-01,8.186841607093811035e-01,8.186500072479248047e-01,8.186158537864685059e-01,8.185817003250122070e-01,8.185475468635559082e-01
7.829610109329223633e-01,7.829297780990600586e-01,7.828985452651977539e-01,7.828673124313354492e-01,7.828360795974731445e-01,7.828048467636108398e-01,7.827736139297485352e-01,7.827423810958862305e-01,7.827112078666687012e-01,7.826799750328063965e-01,7.826488018035888672e-01,7.826175093650817871e-01,7.825863361358642578e-01,7.825551033020019531e-01,7.825239300727844238e-01,7.824927568435668945e-01,7.824615240097045898e-01,7.824303507804870605e-01,7.823991179466247559e-01,7.823679447174072266e-01,7.823367714881896973e-01,7.823055982589721680e-01,7.822743654251098633e-01,7.822431921958923340e-01,7.822120785713195801e-01,7.821808457374572754e-01,7.821497321128845215e-01,7.821184992790222168e-01,7.820873856544494629e-01,7.820561528205871582e-01,7.820250391960144043e-01,7.819938659667968750e-01,7.819626927375793457e-01,7.819315791130065918e-01,7.819003462791442871e-01,7.818692326545715332e-01,7.818380594253540039e-01,7.818069458007812500e-01,7.817758321762084961e-01,7.817446589469909668e-01,7.817135453224182129e-01,7.816823720932006836e-01,7.816512584686279297e-01,7.816200852394104004e-01,7.815890312194824219e-01,7.815578579902648926e-01,7.815267443656921387e-01,7.814956307411193848e-01,7.814645171165466309e-01,7.814334034919738770e-01,7.814022302627563477e-01,7.813711762428283691e-01,7.813400030136108398e-01,7.813089489936828613e-01,7.812778949737548828e-01,7.812467217445373535e-01,7.812156677246093750e-01,7.811845541000366211e-01,7.811534404754638672e-01,7.811223268508911133e-01,7.810912728309631348e-01,7.810601592063903809e-01,7.810291051864624023e-01,7.809980511665344238e-01,7.809669375419616699e-01,7.809358835220336914e-01,7.809047698974609375e-01,7.808737158775329590e-01,7.808426022529602051e-01,7.808116078376770020e-01,7.807805538177490234e-01,7.807494401931762695e-01,7.807184457778930664e-01,7.806873321533203125e-01,7.806562781333923340e-01,7.806252241134643555e-01,7.805941700935363770e-01,7.805631756782531738e-01,7.805320620536804199e-01,7.805010676383972168e-01
7.480803132057189941e-01,7.480517625808715820e-01,7.480232715606689453e-01,7.479947805404663086e-01,7.479662299156188965e-01,7.479377388954162598e-01,7.479092478752136230e-01,7.478807568550109863e-01,7.478522062301635742e-01,7.478237152099609375e-01,7.477952241897583008e-01,7.477667331695556641e-01,7.477383017539978027e-01,7.477097511291503906e-01,7.476813197135925293e-01,7.476527690887451172e-01,7.476243376731872559e-01,7.475957870483398438e-01,7.475673556327819824e-01,7.475389242172241211e-01,7.475104331970214844e-01,7.474819421768188477e-01,7.474534511566162109e-01,7.474250197410583496e-01,7.473965287208557129e-01,7.473680973052978516e-01,7.473396658897399902e-01,7.473111748695373535e-01,7.472827434539794922e-01,7.472542524337768555e-01,7.472258210182189941e-01,7.471973299980163574e-01,7.471688985824584961e-01,7.471404075622558594e-01,7.471120357513427734e-01,7.470836043357849121e-01,7.470551133155822754e-01,7.470267415046691895e-01,7.469982504844665527e-01,7.469698190689086914e-01,7.469413876533508301e-01,7.469129562377929688e-01,7.468845844268798828e-01,7.468560934066772461e-01,7.468277215957641602e-01,7.467992901802062988e-01,7.467708587646484375e-01,7.467424273490905762e-01,7.467140555381774902e-01,7.466856241226196289e-01,7.466572523117065430e-01,7.466288208961486816e-01,7.466003894805908203e-01,7.465720176696777344e-01,7.465435862541198730e-01,7.465152144432067871e-01,7.464867830276489258e-01,7.464584112167358398e-01,7.464300394058227539e-01,7.464016675949096680e-01,7.463732957839965820e-01,7.463448643684387207e-01,7.463164925575256348e-01,7.462880611419677734e-01,7.462597489356994629e-01,7.462313771247863770e-01,7.462030053138732910e-01,7.461746335029602051e-01,7.461462616920471191e-01,7.461178898811340332e-01,7.460895180702209473e-01,7.460611462593078613e-01,7.460327744483947754e-01,7.460044026374816895e-01,7.459760904312133789e-01,7.459477186203002930e-01,7.459194064140319824e-01,7.458909749984741211e-01,7.458626627922058105e-01,7.458342909812927246e-01
7.161749005317687988e-01,7.161487340927124023e-01,7.161226272583007812e-01,7.160964608192443848e-01,7.160703539848327637e-01,7.160441875457763672e-01,7.160180807113647461e-01,7.159919738769531250e-01,7.159658670425415039e-01,7.159397602081298828e-01,7.159135937690734863e-01,7.158874869346618652e-01,7.158613801002502441e-01,7.158352732658386230e-01,7.158091068267822266e-01,7.157830595970153809e-01,7.157569527626037598e-01,7.157308459281921387e-01,7.157047390937805176e-01,7.156786322593688965e-01,7.156525850296020508e-01,7.156264185905456543e-01,7.156003713607788086e-01,7.155743241310119629e-01,7.155481576919555664e-01,7.155221104621887207e-01,7.154960036277770996e-01,7.154699563980102539e-01,7.154437899589538574e-01,7.154177427291870117e-01,7.153916954994201660e-01,7.153655886650085449e-01,7.153395414352416992e-01,7.153134346008300781e-01,7.152873873710632324e-01,7.152612805366516113e-01,7.152352333068847656e-01,7.152091860771179199e-01,7.151831388473510742e-01,7.151570916175842285e-01,7.151309847831726074e-01,7.151049375534057617e-01,7.150788903236389160e-01,7.150528430938720703e-01,7.150267362594604492e-01,7.150007486343383789e-01,7.149747014045715332e-01,7.149486541748046875e-01,7.149226069450378418e-01,7.148965597152709961e-01,7.148705124855041504e-01,7.148444652557373047e-01,7.148184180259704590e-01,7.147923707962036133e-01,7.147663831710815430e-01,7.147403359413146973e-01,7.147142887115478516e-01,7.146883010864257812e-01,7.146622538566589355e-01,7.146362662315368652e-01,7.146101593971252441e-01,7.145841717720031738e-01,7.145581841468811035e-01,7.145321369171142578e-01,7.145061492919921875e-01,7.144801020622253418e-01,7.144541144371032715e-01,7.144280672073364258e-01,7.144021391868591309e-01,7.143761515617370605e-01,7.143501043319702148e-01,7.143241167068481445e-01,7.142980694770812988e-01,7.142721414566040039e-01,7.142460942268371582e-01,7.142201066017150879e-01,7.141941189765930176e-01,7.141681313514709473e-01,7.141421437263488770e-01,7.141161561012268066e-01
6.868796348571777344e-01,6.868556141853332520e-01,6.868315339088439941e-01,6.868075132369995117e-01,6.867835521697998047e-01,6.867594718933105469e-01,6.867354512214660645e-01,6.867113709449768066e-01,6.866874098777770996e-01,6.866633296012878418e-01,6.866393089294433594e-01,6.866153478622436523e-01,6.865912675857543945e-01,6.865673065185546875e-01,6.865432262420654297e-01,6.865192651748657227e-01,6.864951848983764648e-01,6.864712238311767578e-01,6.864471435546875000e-01,6.864231824874877930e-01,6.863992214202880859e-01,6.863751411437988281e-01,6.863511800765991211e-01,6.863271594047546387e-01,6.863031387329101562e-01,6.862791180610656738e-01,6.862551569938659668e-01,6.862311959266662598e-01,6.862071752548217773e-01,6.861832141876220703e-01,6.861591935157775879e-01,6.861352324485778809e-01,6.861112117767333984e-01,6.860872507095336914e-01,6.860632896423339844e-01,6.860392689704895020e-01,6.860153079032897949e-01,6.859912872314453125e-01,6.859673261642456055e-01,6.859433054924011230e-01,6.859194040298461914e-01,6.858953833580017090e-01,6.858714222908020020e-01,6.858474612236022949e-01,6.858235001564025879e-01,6.857995390892028809e-01,6.857755184173583984e-01,6.857516169548034668e-01,6.857275962829589844e-01,6.857036948204040527e-01,6.856797337532043457e-01,6.856557726860046387e-01,6.856318116188049316e-01,6.856078505516052246e-01,6.855839490890502930e-01,6.855599284172058105e-01,6.855360269546508789e-01,6.855120658874511719e-01,6.854881048202514648e-01,6.854642033576965332e-01,6.854402422904968262e-01,6.854163408279418945e-01,6.853923201560974121e-01,6.853684186935424805e-01,6.853444576263427734e-01,6.853205561637878418e-01,6.852966547012329102e-01,6.852726936340332031e-01,6.852487921714782715e-01,6.852248311042785645e-01,6.852009296417236328e-01,6.851769685745239258e-01,6.851530671119689941e-01,6.851291656494140625e-01,6.851052641868591309e-01,6.850813627243041992e-01,6.850574016571044922e-01,6.850335001945495605e-01,6.850095987319946289e-01,6.849856972694396973e-01
6.598868966102600098e-01,6.598647236824035645e-01,6.598424911499023438e-01,6.598203182220458984e-01,6.597981452941894531e-01,6.597759723663330078e-01,6.597537398338317871e-01,6.597316265106201172e-01,6.597094535827636719e-01,6.596872806549072266e-01,6.596651077270507812e-01,6.596428751945495605e-01,6.596207618713378906e-01,6.595985293388366699e-01,6.595764160156250000e-01,6.595542430877685547e-01,6.595320701599121094e-01,6.595099568367004395e-01,6.594877243041992188e-01,6.594656109809875488e-01,6.594434380531311035e-01,6.594212651252746582e-01,6.593990921974182129e-01,6.593769788742065430e-01,6.593548059463500977e-01,6.593326330184936523e-01,6.593105196952819824e-01,6.592883467674255371e-01,6.592662334442138672e-01,6.592440605163574219e-01,6.592219471931457520e-01,6.591998338699340820e-01,6.591776609420776367e-01,6.591555476188659668e-01,6.591333746910095215e-01,6.591112613677978516e-01,6.590890884399414062e-01,6.590669751167297363e-01,6.590448617935180664e-01,6.590226888656616211e-01,6.590005755424499512e-01,6.589784026145935059e-01,6.589563488960266113e-01,6.589341759681701660e-01,6.589120626449584961e-01,6.588899493217468262e-01,6.588678359985351562e-01,6.588457226753234863e-01,6.588236093521118164e-01,6.588014960289001465e-01,6.587793231010437012e-01,6.587572693824768066e-01,6.587350964546203613e-01,6.587130427360534668e-01,6.586909294128417969e-01,6.586688160896301270e-01,6.586467027664184570e-01,6.586245894432067871e-01,6.586024761199951172e-01,6.585803627967834473e-01,6.585583090782165527e-01,6.585361957550048828e-01,6.585140824317932129e-01,6.584920287132263184e-01,6.584699153900146484e-01,6.584478020668029785e-01,6.584256887435913086e-01,6.584036350250244141e-01,6.583815217018127441e-01,6.583594679832458496e-01,6.583374142646789551e-01,6.583153009414672852e-01,6.582932472229003906e-01,6.582711338996887207e-01,6.582490801811218262e-01,6.582269668579101562e-01,6.582049131393432617e-01,6.581828594207763672e-01,6.581607460975646973e-01,6.581386923789978027e-01
6.349354386329650879e-01,6.349148750305175781e-01,6.348943114280700684e-01,6.348738074302673340e-01,6.348532438278198242e-01,6.348327398300170898e-01,6.348121762275695801e-01,6.347916722297668457e-01,6.347711086273193359e-01,6.347506046295166016e-01,6.347300410270690918e-01,6.347095370292663574e-01,6.346890330314636230e-01,6.346684694290161133e-01,6.346479654312133789e-01,6.346274018287658691e-01,6.346068978309631348e-01,6.345863938331604004e-01,6.345658898353576660e-01,6.345453858375549316e-01,6.345248222351074219e-01,6.345043182373046875e-01,6.344838142395019531e-01,6.344633102416992188e-01,6.344427466392517090e-01,6.344223022460937500e-01,6.344017982482910156e-01,6.343812346458435059e-01,6.343607902526855469e-01,6.343402266502380371e-01,6.343197822570800781e-01,6.342992186546325684e-01,6.342787742614746094e-01,6.342582106590270996e-01,6.342377662658691406e-01,6.342172622680664062e-01,6.341967582702636719e-01,6.341762542724609375e-01,6.341557502746582031e-01,6.341353058815002441e-01,6.341148018836975098e-01,6.340942978858947754e-01,6.340738534927368164e-01,6.340533494949340820e-01,6.340328454971313477e-01,6.340123414993286133e-01,6.339918971061706543e-01,6.339713931083679199e-01,6.339509487152099609e-01,6.339304447174072266e-01,6.339100003242492676e-01,6.338894963264465332e-01,6.338689923286437988e-01,6.338485479354858398e-01,6.338280439376831055e-01,6.338075995445251465e-01,6.337871551513671875e-01,6.337667107582092285e-01,6.337462663650512695e-01,6.337257623672485352e-01,6.337053179740905762e-01,6.336848139762878418e-01,6.336643695831298828e-01,6.336438655853271484e-01,6.336234211921691895e-01,6.336030364036560059e-01,6.335825324058532715e-01,6.335620880126953125e-01,6.335415840148925781e-01,6.335211992263793945e-01,6.335006952285766602e-01,6.334802508354187012e-01,6.334598064422607422e-01,6.334393620491027832e-01,6.334189772605895996e-01,6.333984732627868652e-01,6.333780884742736816e-01,6.333575844764709473e-01,6.333371996879577637e-01,6.333166956901550293e-01
6.118021607398986816e-01,6.117830276489257812e-01,6.117640137672424316e-01,6.117448806762695312e-01,6.117258667945861816e-01,6.117067337036132812e-01,6.116877198219299316e-01,6.116686463356018066e-01,6.116495728492736816e-01,6.116305589675903320e-01,6.116114258766174316e-01,6.115924119949340820e-01,6.115733385086059570e-01,6.115542650222778320e-01,6.115351915359497070e-01,6.115161776542663574e-01,6.114971637725830078e-01,6.114780306816101074e-01,6.114590167999267578e-01,6.114399433135986328e-01,6.114209294319152832e-01,6.114018559455871582e-01,6.113828420639038086e-01,6.113637685775756836e-01,6.113446950912475586e-01,6.113256812095642090e-01,6.113066077232360840e-01,6.112875938415527344e-01,6.112685203552246094e-01,6.112495064735412598e-01,6.112304925918579102e-01,6.112114191055297852e-01,6.111924052238464355e-01,6.111733913421630859e-01,6.111543774604797363e-01,6.111353039741516113e-01,6.111162900924682617e-01,6.110972166061401367e-01,6.110782027244567871e-01,6.110592484474182129e-01,6.110401749610900879e-01,6.110211610794067383e-01,6.110020875930786133e-01,6.109831333160400391e-01,6.109640598297119141e-01,6.109450459480285645e-01,6.109260916709899902e-01,6.109070181846618652e-01,6.108880043029785156e-01,6.108689904212951660e-01,6.108499765396118164e-01,6.108309626579284668e-01,6.108119487762451172e-01,6.107929348945617676e-01,6.107739210128784180e-01,6.107549667358398438e-01,6.107358932495117188e-01,6.107169389724731445e-01,6.106979250907897949e-01,6.106789112091064453e-01,6.106598973274230957e-01,6.106408834457397461e-01,6.106219291687011719e-01,6.106029152870178223e-01,6.105839610099792480e-01,6.105648875236511230e-01,6.105459332466125488e-01,6.105269193649291992e-01,6.105079650878906250e-01,6.104889512062072754e-01,6.104699373245239258e-01,6.104509830474853516e-01,6.104319691658020020e-01,6.104130148887634277e-01,6.103940010070800781e-01,6.103750467300415039e-01,6.103560328483581543e-01,6.103370785713195801e-01,6.103181242942810059e-01,6.102991104125976562e-01
5.902951955795288086e-01,5.902774930000305176e-01,5.902597308158874512e-01,5.902419686317443848e-01,5.902242064476013184e-01,5.902064442634582520e-01,5.901887416839599609e-01,5.901709794998168945e-01,5.901532173156738281e-01,5.901354551315307617e-01,5.901177525520324707e-01,5.900999903678894043e-01,5.900822281837463379e-01,5.900645256042480469e-01,5.900467634201049805e-01,5.900290608406066895e-01,5.900112986564636230e-01,5.899935364723205566e-01,5.899757742881774902e-01,5.899580717086791992e-01,5.899403691291809082e-01,5.899226069450378418e-01,5.899049043655395508e-01,5.898871421813964844e-01,5.898694396018981934e-01,5.898516774177551270e-01,5.898339748382568359e-01,5.898162722587585449e-01,5.897985100746154785e-01,5.897808074951171875e-01,5.897630453109741211e-01,5.897453427314758301e-01,5.897276401519775391e-01,5.897099375724792480e-01,5.896922349929809570e-01,5.896744728088378906e-01,5.896567702293395996e-01,5.896390676498413086e-01,5.896213650703430176e-01,5.896036028861999512e-01,5.895859003067016602e-01,5.895681977272033691e-01,5.895504951477050781e-01,5.895327925682067871e-01,5.895150899887084961e-01,5.894973874092102051e-01,5.894796252250671387e-01,5.894619822502136230e-01,5.894442200660705566e-01,5.894265174865722656e-01,5.894088745117187500e-01,5.893911123275756836e-01,5.893734693527221680e-01,5.893557071685791016e-01,5.893380641937255859e-01,5.893203020095825195e-01,5.893026590347290039e-01,5.892849564552307129e-01,5.892672538757324219e-01,5.892496109008789062e-01,5.892318487167358398e-01,5.892142057418823242e-01,5.891965031623840332e-01,5.891788005828857422e-01,5.891610980033874512e-01,5.891434550285339355e-01,5.891257524490356445e-01,5.891080498695373535e-01,5.890904068946838379e-01,5.890727043151855469e-01,5.890550017356872559e-01,5.890372991561889648e-01,5.890196561813354492e-01,5.890020132064819336e-01,5.889843106269836426e-01,5.889666676521301270e-01,5.889489650726318359e-01,5.889312624931335449e-01,5.889136195182800293e-01,5.888959169387817383e-01
5.702490806579589844e-01,5.702325105667114258e-01,5.702159404754638672e-01,5.701993703842163086e-01,5.701828002929687500e-01,5.701662302017211914e-01,5.701496601104736328e-01,5.701331496238708496e-01,5.701165795326232910e-01,5.701000094413757324e-01,5.700834393501281738e-01,5.700668692588806152e-01,5.700502991676330566e-01,5.700337290763854980e-01,5.700172185897827148e-01,5.700006484985351562e-01,5.699840784072875977e-01,5.699675679206848145e-01,5.699509978294372559e-01,5.699344277381896973e-01,5.699178576469421387e-01,5.699013471603393555e-01,5.698847770690917969e-01,5.698682069778442383e-01,5.698516964912414551e-01,5.698351263999938965e-01,5.698186159133911133e-01,5.698020458221435547e-01,5.697855353355407715e-01,5.697689652442932129e-01,5.697524547576904297e-01,5.697358846664428711e-01,5.697193145751953125e-01,5.697028040885925293e-01,5.696862339973449707e-01,5.696697235107421875e-01,5.696532130241394043e-01,5.696366429328918457e-01,5.696201324462890625e-01,5.696036219596862793e-01,5.695870518684387207e-01,5.695705413818359375e-01,5.695540308952331543e-01,5.695374608039855957e-01,5.695209503173828125e-01,5.695043802261352539e-01,5.694878697395324707e-01,5.694713592529296875e-01,5.694548487663269043e-01,5.694383382797241211e-01,5.694217681884765625e-01,5.694052577018737793e-01,5.693887472152709961e-01,5.693722367286682129e-01,5.693557262420654297e-01,5.693392157554626465e-01,5.693227052688598633e-01,5.693061351776123047e-01,5.692896842956542969e-01,5.692731142044067383e-01,5.692566633224487305e-01,5.692400932312011719e-01,5.692235827445983887e-01,5.692071318626403809e-01,5.691905617713928223e-01,5.691741108894348145e-01,5.691575407981872559e-01,5.691410899162292480e-01,5.691245198249816895e-01,5.691080689430236816e-01,5.690915584564208984e-01,5.690750479698181152e-01,5.690585374832153320e-01,5.690420269966125488e-01,5.690255761146545410e-01,5.690090656280517578e-01,5.689925551414489746e-01,5.689761042594909668e-01,5.689595937728881836e-01,5.689430832862854004e-01
