5.000000000000000000e+00,5.000000000000000000e+00,5.000000000000000000e+00,5.000000000000000000e+00,5.000000000000000000e+00,5.000000000000000000e+00,5.000000000000000000e+00,5.000000000000000000e+00,5.000000000000000000e+00,5.000000000000000000e+00,5.000000000000000000e+00,5.000000000000000000e+00,5.000000000000000000e+00,5.000000000000000000e+00,5.000000000000000000e+00,5.000000000000000000e+00,5.000000000000000000e+00,5.000000000000000000e+00,5.000000000000000000e+00,5.000000000000000000e+00,5.000000000000000000e+00,5.000000000000000000e+00,5.000000000000000000e+00,5.000000000000000000e+00,5.000000000000000000e+00,5.000000000000000000e+00,5.000000000000000000e+00,5.000000000000000000e+00,5.000000000000000000e+00,5.000000000000000000e+00,5.000000000000000000e+00,5.000000000000000000e+00,5.000000000000000000e+00,5.000000000000000000e+00,5.000000000000000000e+00,5.000000000000000000e+00,5.000000000000000000e+00,5.000000000000000000e+00,5.000000000000000000e+00,5.000000000000000000e+00,5.000000000000000000e+00,5.000000000000000000e+00,5.000000000000000000e+00,5.000000000000000000e+00,5.000000000000000000e+00,1.172218441963195801e+00,9.276400804519653320e-01,8.912104368209838867e-01,1.101292371749877930e+00,1.099842786788940430e+00,1.098541021347045898e+00,1.097242355346679688e+00,1.095946669578552246e+00,1.124098062515258789e+00,1.164844393730163574e+00,1.130500555038452148e+00,1.097670316696166992e+00,1.075958847999572754e+00,1.057257294654846191e+00,1.038996815681457520e+00,1.021356463432312012e+00,1.012670993804931641e+00,1.010173320770263672e+00,1.007687926292419434e+00,1.005214810371398926e+00,3.393594741821289062e+00,3.317449569702148438e+00,3.244646310806274414e+00,3.174969673156738281e+00,3.108222961425781250e+00,3.044224739074707031e+00,2.982808828353881836e+00,2.923821926116943359e+00,2.867115259170532227e+00,2.812566041946411133e+00,2.760054111480712891e+00,2.709466695785522461e+00,2.660700559616088867e+00,2.613658666610717773e+00,2.568251371383666992e+00
5.000000000000000000e+00,5.000000000000000000e+00,5.000000000000000000e+00,5.000000000000000000e+00,5.000000000000000000e+00,5.000000000000000000e+00,5.000000000000000000e+00,5.000000000000000000e+00,5.000000000000000000e+00,5.000000000000000000e+00,5.000000000000000000e+00,5.000000000000000000e+00,5.000000000000000000e+00,5.000000000000000000e+00,5.000000000000000000e+00,5.000000000000000000e+00,5.000000000000000000e+00,5.000000000000000000e+00,5.000000000000000000e+00,5.000000000000000000e+00,5.000000000000000000e+00,5.000000000000000000e+00,5.000000000000000000e+00,5.000000000000000000e+00,5.000000000000000000e+00,5.000000000000000000e+00,5.000000000000000000e+00,5.000000000000000000e+00,5.000000000000000000e+00,5.000000000000000000e+00,5.000000000000000000e+00,5.000000000000000000e+00,5.000000000000000000e+00,5.000000000000000000e+00,5.000000000000000000e+00,5.000000000000000000e+00,5.000000000000000000e+00,5.000000000000000000e+00,5.000000000000000000e+00,5.000000000000000000e+00,5.000000000000000000e+00,5.000000000000000000e+00,5.000000000000000000e+00,5.000000000000000000e+00,5.000000000000000000e+00,1.181774497032165527e+00,1.143901705741882324e+00,1.120051026344299316e+00,1.106592893600463867e+00,1.104634881019592285e+00,1.103321671485900879e+00,1.102011680603027344e+00,1.100704789161682129e+00,1.133130908012390137e+00,1.171269536018371582e+00,1.135831356048583984e+00,1.102710008621215820e+00,1.075629830360412598e+00,1.056920289993286133e+00,1.038671493530273438e+00,1.020624279975891113e+00,1.004604578018188477e+00,1.002688407897949219e+00,1.000239729881286621e+00,9.978030920028686523e-01,9.953780770301818848e-01,3.317537784576416016e+00,3.244730710983276367e+00,3.175050735473632812e+00,3.108298540115356445e+00,3.044288873672485352e+00,2.982861995697021484e+00,2.923865079879760742e+00,2.867156505584716797e+00,2.812605857849121094e+00,2.760092258453369141e+00,2.709503412246704102e+00,2.660736083984375000e+00,2.613692998886108398e+00,2.568284511566162109e+00
5.000000000000000000e+00,5.000000000000000000e+00,5.000000000000000000e+00,5.000000000000000000e+00,5.000000000000000000e+00,5.000000000000000000e+00,5.000000000000000000e+00,5.000000000000000000e+00,5.000000000000000000e+00,5.000000000000000000e+00,5.000000000000000000e+00,5.000000000000000000e+00,5.000000000000000000e+00,5.000000000000000000e+00,5.000000000000000000e+00,5.000000000000000000e+00,5.000000000000000000e+00,5.000000000000000000e+00,5.000000000000000000e+00,5.000000000000000000e+00,5.000000000000000000e+00,5.000000000000000000e+00,5.000000000000000000e+00,5.000000000000000000e+00,5.000000000000000000e+00,5.000000000000000000e+00,5.000000000000000000e+00,5.000000000000000000e+00,5.000000000000000000e+00,5.000000000000000000e+00,5.000000000000000000e+00,5.000000000000000000e+00,5.000000000000000000e+00,5.000000000000000000e+00,5.000000000000000000e+00,5.000000000000000000e+00,5.000000000000000000e+00,5.000000000000000000e+00,5.000000000000000000e+00,5.000000000000000000e+00,5.000000000000000000e+00,5.000000000000000000e+00,5.000000000000000000e+00,5.000000000000000000e+00,5.000000000000000000e+00,1.191487550735473633e+00,1.151415228843688965e+00,1.126831173896789551e+00,1.111944675445556641e+00,1.109647393226623535e+00,1.108144283294677734e+00,1.106822848320007324e+00,1.109917759895324707e+00,1.142920374870300293e+00,4.540174484252929688e+00,1.141228318214416504e+00,1.107796192169189453e+00,1.076267123222351074e+00,1.056583642959594727e+00,1.037866830825805664e+00,1.019110560417175293e+00,1.003255605697631836e+00,9.917263388633728027e-01,9.916599988937377930e-01,9.904997348785400391e-01,9.881100058555603027e-01,9.972548484802246094e-01,3.244801521301269531e+00,3.175109148025512695e+00,3.108347177505493164e+00,3.044335365295410156e+00,2.982906579971313477e+00,2.923907756805419922e+00,2.867197751998901367e+00,2.812645673751831055e+00,2.760130405426025391e+00,2.709540367126464844e+00,2.660771608352661133e+00,2.613727331161499023e+00,2.568317651748657227e+00
5.000000000000000000e+00,5.000000000000000000e+00,5.000000000000000000e+00,5.000000000000000000e+00,5.000000000000000000e+00,5.000000000000000000e+00,5.000000000000000000e+00,5.000000000000000000e+00,5.000000000000000000e+00,5.000000000000000000e+00,5.000000000000000000e+00,5.000000000000000000e+00,5.000000000000000000e+00,5.000000000000000000e+00,5.000000000000000000e+00,5.000000000000000000e+00,5.000000000000000000e+00,5.000000000000000000e+00,5.000000000000000000e+00,5.000000000000000000e+00,5.000000000000000000e+00,5.000000000000000000e+00,5.000000000000000000e+00,5.000000000000000000e+00,5.000000000000000000e+00,5.000000000000000000e+00,5.000000000000000000e+00,5.000000000000000000e+00,5.000000000000000000e+00,5.000000000000000000e+00,5.000000000000000000e+00,5.000000000000000000e+00,5.000000000000000000e+00,5.000000000000000000e+00,5.000000000000000000e+00,5.000000000000000000e+00,5.000000000000000000e+00,5.000000000000000000e+00,5.000000000000000000e+00,5.000000000000000000e+00,5.000000000000000000e+00,5.000000000000000000e+00,5.000000000000000000e+00,5.000000000000000000e+00,5.000000000000000000e+00,1.200777649879455566e+00,1.159028053283691406e+00,1.133693933486938477e+00,1.117348432540893555e+00,1.115028738975524902e+00,1.113009095191955566e+00,1.111676096916198730e+00,1.119308471679687500e+00,1.150760173797607422e+00,4.540316581726074219e+00,4.405042171478271484e+00,1.115035891532897949e+00,1.081752538681030273e+00,1.055701971054077148e+00,1.036301493644714355e+00,1.017601251602172852e+00,1.001910209655761719e+00,9.883656501770019531e-01,9.806591868400573730e-01,9.805941581726074219e-01,9.805291295051574707e-01,9.786034822463989258e-01,3.244854450225830078e+00,3.175159692764282227e+00,3.108395576477050781e+00,3.044381856918334961e+00,2.982951402664184570e+00,2.923950910568237305e+00,2.867238998413085938e+00,2.812685251235961914e+00,2.760168552398681641e+00,2.709577560424804688e+00,2.660807132720947266e+00,2.613761663436889648e+00,2.568350791931152344e+00
5.000000000000000000e+00,5.000000000000000000e+00,5.000000000000000000e+00,5.000000000000000000e+00,5.000000000000000000e+00,5.000000000000000000e+00,5.000000000000000000e+00,5.000000000000000000e+00,5.000000000000000000e+00,5.000000000000000000e+00,5.000000000000000000e+00,5.000000000000000000e+00,5.000000000000000000e+00,5.000000000000000000e+00,5.000000000000000000e+00,5.000000000000000000e+00,5.000000000000000000e+00,5.000000000000000000e+00,5.000000000000000000e+00,5.000000000000000000e+00,5.000000000000000000e+00,5.000000000000000000e+00,5.000000000000000000e+00,5.000000000000000000e+00,5.000000000000000000e+00,5.000000000000000000e+00,5.000000000000000000e+00,5.000000000000000000e+00,5.000000000000000000e+00,5.000000000000000000e+00,5.000000000000000000e+00,5.000000000000000000e+00,5.000000000000000000e+00,5.000000000000000000e+00,5.000000000000000000e+00,5.000000000000000000e+00,5.000000000000000000e+00,5.000000000000000000e+00,5.000000000000000000e+00,5.000000000000000000e+00,5.000000000000000000e+00,5.000000000000000000e+00,5.000000000000000000e+00,5.000000000000000000e+00,5.000000000000000000e+00,1.209659814834594727e+00,1.166742205619812012e+00,1.140640974044799805e+00,1.122804999351501465e+00,1.120462656021118164e+00,1.118129968643188477e+00,1.116572022438049316e+00,1.128859519958496094e+00,1.158252954483032227e+00,4.540481567382812500e+00,4.405198097229003906e+00,1.123848080635070801e+00,1.090044498443603516e+00,1.056700468063354492e+00,1.034740924835205078e+00,1.016096472740173340e+00,1.000568628311157227e+00,9.870599508285522461e-01,9.739112257957458496e-01,9.698361754417419434e-01,9.697725176811218262e-01,9.697089791297912598e-01,9.692782163619995117e-01,3.175210237503051758e+00,3.108444213867187500e+00,3.044428348541259766e+00,2.982995748519897461e+00,2.923993587493896484e+00,2.867280483245849609e+00,2.812725067138671875e+00,2.760206937789916992e+00,2.709614276885986328e+00,2.660842657089233398e+00,2.613795995712280273e+00,2.568383932113647461e+00
5.000000000000000000e+00,5.000000000000000000e+00,5.000000000000000000e+00,5.000000000000000000e+00,5.000000000000000000e+00,5.000000000000000000e+00,5.000000000000000000e+00,5.000000000000000000e+00,5.000000000000000000e+00,5.000000000000000000e+00,5.000000000000000000e+00,5.000000000000000000e+00,5.000000000000000000e+00,5.000000000000000000e+00,5.000000000000000000e+00,5.000000000000000000e+00,5.000000000000000000e+00,5.000000000000000000e+00,5.000000000000000000e+00,5.000000000000000000e+00,5.000000000000000000e+00,5.000000000000000000e+00,5.000000000000000000e+00,5.000000000000000000e+00,5.000000000000000000e+00,5.000000000000000000e+00,5.000000000000000000e+00,5.000000000000000000e+00,5.000000000000000000e+00,5.000000000000000000e+00,5.000000000000000000e+00,5.000000000000000000e+00,5.000000000000000000e+00,5.000000000000000000e+00,5.000000000000000000e+00,5.000000000000000000e+00,5.000000000000000000e+00,5.000000000000000000e+00,5.000000000000000000e+00,5.000000000000000000e+00,5.000000000000000000e+00,5.000000000000000000e+00,5.000000000000000000e+00,5.000000000000000000e+00,5.000000000000000000e+00,1.218674421310424805e+00,1.174559831619262695e+00,1.147673487663269043e+00,1.128315091133117676e+00,1.125949740409851074e+00,1.123594164848327637e+00,1.121511340141296387e+00,1.137379407882690430e+00,1.165843963623046875e+00,4.540647029876708984e+00,4.405353546142578125e+00,4.277888774871826172e+00,1.098232507705688477e+00,1.063971519470214844e+00,1.033185005187988281e+00,1.014595985412597656e+00,9.992305040359497070e-01,9.857577085494995117e-01,9.726433157920837402e-01,9.598733782768249512e-01,9.597751498222351074e-01,9.605303406715393066e-01,9.612868428230285645e-01,3.175260782241821289e+00,3.108492612838745117e+00,3.044475078582763672e+00,2.983040571212768555e+00,2.924036741256713867e+00,2.867321491241455078e+00,2.812764644622802734e+00,2.760245084762573242e+00,2.709651231765747070e+00,2.660878419876098633e+00,2.613830327987670898e+00,2.568417072296142578e+00
5.000000000000000000e+00,5.000000000000000000e+00,5.000000000000000000e+00,5.000000000000000000e+00,5.000000000000000000e+00,5.000000000000000000e+00,5.000000000000000000e+00,5.000000000000000000e+00,5.000000000000000000e+00,5.000000000000000000e+00,5.000000000000000000e+00,5.000000000000000000e+00,5.000000000000000000e+00,5.000000000000000000e+00,5.000000000000000000e+00,5.000000000000000000e+00,5.000000000000000000e+00,5.000000000000000000e+00,5.000000000000000000e+00,5.000000000000000000e+00,5.000000000000000000e+00,5.000000000000000000e+00,5.000000000000000000e+00,5.000000000000000000e+00,5.000000000000000000e+00,5.000000000000000000e+00,5.000000000000000000e+00,5.000000000000000000e+00,5.000000000000000000e+00,5.000000000000000000e+00,5.000000000000000000e+00,5.000000000000000000e+00,5.000000000000000000e+00,5.000000000000000000e+00,5.000000000000000000e+00,5.000000000000000000e+00,5.000000000000000000e+00,5.000000000000000000e+00,5.000000000000000000e+00,5.000000000000000000e+00,5.000000000000000000e+00,5.000000000000000000e+00,5.000000000000000000e+00,5.000000000000000000e+00,5.000000000000000000e+00,1.227824330329895020e+00,1.183343648910522461e+00,1.155076384544372559e+00,1.133160948753356934e+00,1.131065607070922852e+00,1.128978013992309570e+00,1.126743316650390625e+00,1.144698381423950195e+00,1.173534989356994629e+00,4.540791034698486328e+00,4.405470371246337891e+00,4.277982234954833984e+00,4.157665252685546875e+00,1.071343302726745605e+00,1.038714528083801270e+00,1.013100028038024902e+00,9.978959560394287109e-01,9.844588041305541992e-01,9.710676670074462891e-01,9.588670730590820312e-01,9.526355266571044922e-01,9.539152979850769043e-01,9.551984667778015137e-01,9.560436606407165527e-01,3.108541250228881836e+00,3.044521570205688477e+00,2.983085155487060547e+00,2.924079418182373047e+00,2.867362976074218750e+00,2.812804460525512695e+00,2.760283470153808594e+00,2.709687948226928711e+00,2.660913705825805664e+00,2.613864660263061523e+00,2.568450212478637695e+00
5.000000000000000000e+00,5.000000000000000000e+00,5.000000000000000000e+00,5.000000000000000000e+00,5.000000000000000000e+00,5.000000000000000000e+00,5.000000000000000000e+00,5.000000000000000000e+00,5.000000000000000000e+00,5.000000000000000000e+00,5.000000000000000000e+00,5.000000000000000000e+00,5.000000000000000000e+00,5.000000000000000000e+00,5.000000000000000000e+00,5.000000000000000000e+00,5.000000000000000000e+00,5.000000000000000000e+00,5.000000000000000000e+00,5.000000000000000000e+00,5.000000000000000000e+00,5.000000000000000000e+00,5.000000000000000000e+00,5.000000000000000000e+00,5.000000000000000000e+00,5.000000000000000000e+00,5.000000000000000000e+00,5.000000000000000000e+00,5.000000000000000000e+00,5.000000000000000000e+00,5.000000000000000000e+00,5.000000000000000000e+00,5.000000000000000000e+00,5.000000000000000000e+00,5.000000000000000000e+00,5.000000000000000000e+00,5.000000000000000000e+00,5.000000000000000000e+00,5.000000000000000000e+00,5.000000000000000000e+00,5.000000000000000000e+00,5.000000000000000000e+00,5.000000000000000000e+00,5.000000000000000000e+00,5.000000000000000000e+00,5.000000000000000000e+00,1.193955659866333008e+00,1.163117170333862305e+00,1.138531208038330078e+00,1.134717702865600586e+00,1.132616519927978516e+00,1.130523324012756348e+00,1.152409195899963379e+00,4.684798240661621094e+00,4.540894508361816406e+00,4.405568122863769531e+00,4.278074264526367188e+00,4.157752037048339844e+00,1.086880922317504883e+00,1.049749732017517090e+00,1.015071868896484375e+00,9.963006973266601562e-01,9.824444651603698730e-01,9.699451923370361328e-01,9.579344391822814941e-01,9.473593235015869141e-01,9.492139220237731934e-01,9.514026045799255371e-01,9.536013603210449219e-01,3.108590126037597656e+00,3.044568061828613281e+00,2.983129978179931641e+00,2.924122571945190430e+00,2.867404222488403320e+00,2.812844038009643555e+00,2.760321617126464844e+00,2.709724903106689453e+00,2.660949468612670898e+00,2.613898992538452148e+00,2.568483352661132812e+00
5.000000000000000000e+00,5.000000000000000000e+00,5.000000000000000000e+00,5.000000000000000000e+00,5.000000000000000000e+00,5.000000000000000000e+00,5.000000000000000000e+00,5.000000000000000000e+00,5.000000000000000000e+00,5.000000000000000000e+00,5.000000000000000000e+00,5.000000000000000000e+00,5.000000000000000000e+00,5.000000000000000000e+00,5.000000000000000000e+00,5.000000000000000000e+00,5.000000000000000000e+00,5.000000000000000000e+00,5.000000000000000000e+00,5.000000000000000000e+00,5.000000000000000000e+00,5.000000000000000000e+00,5.000000000000000000e+00,5.000000000000000000e+00,5.000000000000000000e+00,5.000000000000000000e+00,5.000000000000000000e+00,5.000000000000000000e+00,5.000000000000000000e+00,5.000000000000000000e+00,5.000000000000000000e+00,5.000000000000000000e+00,5.000000000000000000e+00,5.000000000000000000e+00,5.000000000000000000e+00,5.000000000000000000e+00,5.000000000000000000e+00,5.000000000000000000e+00,5.000000000000000000e+00,5.000000000000000000e+00,5.000000000000000000e+00,5.000000000000000000e+00,5.000000000000000000e+00,5.000000000000000000e+00,5.000000000000000000e+00,5.000000000000000000e+00,1.204759836196899414e+00,1.171270608901977539e+00,1.144472837448120117e+00,1.138393402099609375e+00,1.136278629302978516e+00,1.134171843528747559e+00,1.160374879837036133e+00,4.684908390045166016e+00,4.540998458862304688e+00,4.405665397644042969e+00,4.278166294097900391e+00,4.157838821411132812e+00,4.044094562530517578e+00,1.065295696258544922e+00,1.029600501060485840e+00,9.940909743309020996e-01,9.819025993347167969e-01,9.708179831504821777e-01,9.594192504882812500e-01,9.489368200302124023e-01,9.504453539848327637e-01,9.519587159156799316e-01,9.537993669509887695e-01,3.108638286590576172e+00,3.044614553451538086e+00,2.983174562454223633e+00,2.924165487289428711e+00,2.867445468902587891e+00,2.812884092330932617e+00,2.760360002517700195e+00,2.709761619567871094e+00,2.660984992980957031e+00,2.613933086395263672e+00,2.568516492843627930e+00
5.000000000000000000e+00,5.000000000000000000e+00,5.000000000000000000e+00,5.000000000000000000e+00,5.000000000000000000e+00,5.000000000000000000e+00,5.000000000000000000e+00,5.000000000000000000e+00,5.000000000000000000e+00,5.000000000000000000e+00,5.000000000000000000e+00,5.000000000000000000e+00,5.000000000000000000e+00,5.000000000000000000e+00,5.000000000000000000e+00,5.000000000000000000e+00,5.000000000000000000e+00,5.000000000000000000e+00,5.000000000000000000e+00,5.000000000000000000e+00,5.000000000000000000e+00,5.000000000000000000e+00,5.000000000000000000e+00,5.000000000000000000e+00,5.000000000000000000e+00,5.000000000000000000e+00,5.000000000000000000e+00,5.000000000000000000e+00,5.000000000000000000e+00,5.000000000000000000e+00,5.000000000000000000e+00,5.000000000000000000e+00,5.000000000000000000e+00,5.000000000000000000e+00,5.000000000000000000e+00,5.000000000000000000e+00,5.000000000000000000e+00,5.000000000000000000e+00,5.000000000000000000e+00,5.000000000000000000e+00,5.000000000000000000e+00,5.000000000000000000e+00,5.000000000000000000e+00,5.000000000000000000e+00,5.000000000000000000e+00,5.000000000000000000e+00,1.215761303901672363e+00,1.179539203643798828e+00,1.150476694107055664e+00,1.142630457878112793e+00,1.139964461326599121e+00,1.139991044998168945e+00,1.167891621589660645e+00,4.685018539428710938e+00,4.541101932525634766e+00,4.405763149261474609e+00,4.278258323669433594e+00,4.157925605773925781e+00,4.044177055358886719e+00,3.936486244201660156e+00,1.044360518455505371e+00,9.979482293128967285e-01,9.843809604644775391e-01,9.724202752113342285e-01,9.610638618469238281e-01,9.516428112983703613e-01,9.531356096267700195e-01,9.547661542892456055e-01,9.564023017883300781e-01,3.108687162399291992e+00,3.044661283493041992e+00,2.983219385147094727e+00,2.924208402633666992e+00,2.867486715316772461e+00,2.812923669815063477e+00,2.760398149490356445e+00,2.709798574447631836e+00,2.661020517349243164e+00,2.613967657089233398e+00,2.568549633026123047e+00
5.000000000000000000e+00,5.000000000000000000e+00,5.000000000000000000e+00,5.000000000000000000e+00,5.000000000000000000e+00,5.000000000000000000e+00,5.000000000000000000e+00,5.000000000000000000e+00,5.000000000000000000e+00,5.000000000000000000e+00,5.000000000000000000e+00,5.000000000000000000e+00,5.000000000000000000e+00,5.000000000000000000e+00,5.000000000000000000e+00,5.000000000000000000e+00,5.000000000000000000e+00,5.000000000000000000e+00,5.000000000000000000e+00,5.000000000000000000e+00,5.000000000000000000e+00,5.000000000000000000e+00,5.000000000000000000e+00,5.000000000000000000e+00,5.000000000000000000e+00,5.000000000000000000e+00,5.000000000000000000e+00,5.000000000000000000e+00,5.000000000000000000e+00,5.000000000000000000e+00,5.000000000000000000e+00,5.000000000000000000e+00,5.000000000000000000e+00,5.000000000000000000e+00,5.000000000000000000e+00,5.000000000000000000e+00,5.000000000000000000e+00,5.000000000000000000e+00,5.000000000000000000e+00,5.000000000000000000e+00,5.000000000000000000e+00,5.000000000000000000e+00,5.000000000000000000e+00,5.000000000000000000e+00,5.000000000000000000e+00,5.000000000000000000e+00,1.224887251853942871e+00,1.187925338745117188e+00,1.157576560974121094e+00,1.148614883422851562e+00,1.143674254417419434e+00,1.147785425186157227e+00,1.172860741615295410e+00,4.685129165649414062e+00,4.541205406188964844e+00,4.405860424041748047e+00,4.278350353240966797e+00,4.158012390136718750e+00,4.044259071350097656e+00,3.936564445495605469e+00,1.058094501495361328e+00,1.004237413406372070e+00,9.873440861701965332e-01,9.762023091316223145e-01,9.653092622756958008e-01,9.569050073623657227e-01,9.570180177688598633e-01,9.586618542671203613e-01,3.175514221191406250e+00,3.108735561370849609e+00,3.044707775115966797e+00,2.983263969421386719e+00,2.924251556396484375e+00,2.867528200149536133e+00,2.812963485717773438e+00,2.760436534881591797e+00,2.709835529327392578e+00,2.661056041717529297e+00,2.614001750946044922e+00,2.568582773208618164e+00
5.000000000000000000e+00,5.000000000000000000e+00,5.000000000000000000e+00,5.000000000000000000e+00,5.000000000000000000e+00,5.000000000000000000e+00,5.000000000000000000e+00,5.000000000000000000e+00,5.000000000000000000e+00,5.000000000000000000e+00,5.000000000000000000e+00,5.000000000000000000e+00,5.000000000000000000e+00,5.000000000000000000e+00,5.000000000000000000e+00,5.000000000000000000e+00,5.000000000000000000e+00,5.000000000000000000e+00,5.000000000000000000e+00,5.000000000000000000e+00,5.000000000000000000e+00,5.000000000000000000e+00,5.000000000000000000e+00,5.000000000000000000e+00,5.000000000000000000e+00,5.000000000000000000e+00,5.000000000000000000e+00,5.000000000000000000e+00,5.000000000000000000e+00,5.000000000000000000e+00,5.000000000000000000e+00,5.000000000000000000e+00,5.000000000000000000e+00,5.000000000000000000e+00,5.000000000000000000e+00,5.000000000000000000e+00,5.000000000000000000e+00,5.000000000000000000e+00,5.000000000000000000e+00,5.000000000000000000e+00,5.000000000000000000e+00,5.000000000000000000e+00,5.000000000000000000e+00,5.000000000000000000e+00,5.000000000000000000e+00,5.000000000000000000e+00,1.232795476913452148e+00,1.196431636810302734e+00,1.165271401405334473e+00,1.154662370681762695e+00,1.147408366203308105e+00,1.155687093734741211e+00,1.177872419357299805e+00,4.685239315032958984e+00,4.541308879852294922e+00,4.405958175659179688e+00,4.278441905975341797e+00,4.158099174499511719e+00,4.044341087341308594e+00,3.936641931533813477e+00,3.834529876708984375e+00,1.003527164459228516e+00,9.918254613876342773e-01,9.805830121040344238e-01,9.679479002952575684e-01,9.622259140014648438e-01,9.609320759773254395e-01,9.625895023345947266e-01,3.175564527511596680e+00,3.108784198760986328e+00,3.044754266738891602e+00,2.983308792114257812e+00,2.924294233322143555e+00,2.867569208145141602e+00,2.813003063201904297e+00,2.760474920272827148e+00,2.709872484207153320e+00,2.661091566085815430e+00,2.614036321640014648e+00,2.568615913391113281e+00
5.000000000000000000e+00,5.000000000000000000e+00,5.000000000000000000e+00,5.000000000000000000e+00,5.000000000000000000e+00,5.000000000000000000e+00,5.000000000000000000e+00,5.000000000000000000e+00,5.000000000000000000e+00,5.000000000000000000e+00,5.000000000000000000e+00,5.000000000000000000e+00,5.000000000000000000e+00,5.000000000000000000e+00,5.000000000000000000e+00,5.000000000000000000e+00,5.000000000000000000e+00,5.000000000000000000e+00,5.000000000000000000e+00,5.000000000000000000e+00,5.000000000000000000e+00,5.000000000000000000e+00,5.000000000000000000e+00,5.000000000000000000e+00,5.000000000000000000e+00,5.000000000000000000e+00,5.000000000000000000e+00,5.000000000000000000e+00,5.000000000000000000e+00,5.000000000000000000e+00,5.000000000000000000e+00,5.000000000000000000e+00,5.000000000000000000e+00,5.000000000000000000e+00,5.000000000000000000e+00,5.000000000000000000e+00,5.000000000000000000e+00,5.000000000000000000e+00,5.000000000000000000e+00,5.000000000000000000e+00,5.000000000000000000e+00,5.000000000000000000e+00,5.000000000000000000e+00,5.000000000000000000e+00,5.000000000000000000e+00,5.000000000000000000e+00,1.240806460380554199e+00,1.205060601234436035e+00,1.173069477081298828e+00,1.160774111747741699e+00,1.152787208557128906e+00,1.161123752593994141e+00,1.182926893234252930e+00,4.685351848602294922e+00,4.541413784027099609e+00,4.406055927276611328e+00,4.278533935546875000e+00,4.158185958862304688e+00,4.044423103332519531e+00,3.936720132827758789e+00,3.834603786468505859e+00,1.007956743240356445e+00,9.963476657867431641e-01,9.847636818885803223e-01,9.710749387741088867e-01,9.676061868667602539e-01,9.648783206939697266e-01,9.665493965148925781e-01,3.175615549087524414e+00,3.108832597732543945e+00,3.044800758361816406e+00,2.983353376388549805e+00,2.924337387084960938e+00,2.867610692977905273e+00,2.813042879104614258e+00,2.760513067245483398e+00,2.709909200668334961e+00,2.661127090454101562e+00,2.614070653915405273e+00,2.568649053573608398e+00
5.000000000000000000e+00,5.000000000000000000e+00,5.000000000000000000e+00,5.000000000000000000e+00,5.000000000000000000e+00,5.000000000000000000e+00,5.000000000000000000e+00,5.000000000000000000e+00,5.000000000000000000e+00,5.000000000000000000e+00,5.000000000000000000e+00,5.000000000000000000e+00,5.000000000000000000e+00,5.000000000000000000e+00,5.000000000000000000e+00,5.000000000000000000e+00,5.000000000000000000e+00,5.000000000000000000e+00,5.000000000000000000e+00,5.000000000000000000e+00,5.000000000000000000e+00,5.000000000000000000e+00,5.000000000000000000e+00,5.000000000000000000e+00,5.000000000000000000e+00,5.000000000000000000e+00,5.000000000000000000e+00,5.000000000000000000e+00,5.000000000000000000e+00,5.000000000000000000e+00,5.000000000000000000e+00,5.000000000000000000e+00,5.000000000000000000e+00,5.000000000000000000e+00,5.000000000000000000e+00,5.000000000000000000e+00,5.000000000000000000e+00,5.000000000000000000e+00,5.000000000000000000e+00,5.000000000000000000e+00,5.000000000000000000e+00,5.000000000000000000e+00,5.000000000000000000e+00,5.000000000000000000e+00,5.000000000000000000e+00,5.000000000000000000e+00,1.250488042831420898e+00,1.214123845100402832e+00,1.181777834892272949e+00,1.165846228599548340e+00,1.157839298248291016e+00,1.168620228767395020e+00,1.189524531364440918e+00,4.685472011566162109e+00,4.541526317596435547e+00,4.406161785125732422e+00,4.278633117675781250e+00,4.158278942108154297e+00,4.044510364532470703e+00,3.936801433563232422e+00,1.069647669792175293e+00,1.012627601623535156e+00,1.000911355018615723e+00,9.872286915779113770e-01,9.765549898147583008e-01,9.730470180511474609e-01,9.695640206336975098e-01,9.705420732498168945e-01,3.175665855407714844e+00,3.108881235122680664e+00,3.044847488403320312e+00,2.983398199081420898e+00,2.924380302429199219e+00,2.867651939392089844e+00,2.813082456588745117e+00,2.760551452636718750e+00,2.709946155548095703e+00,2.661162853240966797e+00,2.614104747772216797e+00,2.568682193756103516e+00
5.000000000000000000e+00,5.000000000000000000e+00,5.000000000000000000e+00,5.000000000000000000e+00,5.000000000000000000e+00,5.000000000000000000e+00,5.000000000000000000e+00,5.000000000000000000e+00,5.000000000000000000e+00,5.000000000000000000e+00,5.000000000000000000e+00,5.000000000000000000e+00,5.000000000000000000e+00,5.000000000000000000e+00,5.000000000000000000e+00,5.000000000000000000e+00,5.000000000000000000e+00,5.000000000000000000e+00,5.000000000000000000e+00,5.000000000000000000e+00,5.000000000000000000e+00,5.000000000000000000e+00,5.000000000000000000e+00,5.000000000000000000e+00,5.000000000000000000e+00,5.000000000000000000e+00,5.000000000000000000e+00,5.000000000000000000e+00,5.000000000000000000e+00,5.000000000000000000e+00,5.000000000000000000e+00,5.000000000000000000e+00,5.000000000000000000e+00,5.000000000000000000e+00,5.000000000000000000e+00,5.000000000000000000e+00,5.000000000000000000e+00,5.000000000000000000e+00,5.000000000000000000e+00,5.000000000000000000e+00,5.000000000000000000e+00,5.000000000000000000e+00,5.000000000000000000e+00,5.000000000000000000e+00,5.000000000000000000e+00,5.000000000000000000e+00,1.253004670143127441e+00,1.220416307449340820e+00,1.189767122268676758e+00,1.174540996551513672e+00,1.162739038467407227e+00,1.177219033241271973e+00,1.199524998664855957e+00,4.685591697692871094e+00,4.541638851165771484e+00,4.406267642974853516e+00,4.278733253479003906e+00,4.158373355865478516e+00,4.044599533081054688e+00,3.936885833740234375e+00,1.067551255226135254e+00,1.017342090606689453e+00,1.004727363586425781e+00,9.897062182426452637e-01,9.820972084999084473e-01,9.785493612289428711e-01,9.750270247459411621e-01,9.745678901672363281e-01,3.175718784332275391e+00,3.108931064605712891e+00,3.044894695281982422e+00,2.983443260192871094e+00,2.924423217773437500e+00,2.867693424224853516e+00,2.813122510910034180e+00,2.760589599609375000e+00,2.709982872009277344e+00,2.661198377609252930e+00,2.614139318466186523e+00,2.568715333938598633e+00
5.000000000000000000e+00,5.000000000000000000e+00,5.000000000000000000e+00,5.000000000000000000e+00,5.000000000000000000e+00,5.000000000000000000e+00,5.000000000000000000e+00,5.000000000000000000e+00,5.000000000000000000e+00,5.000000000000000000e+00,5.000000000000000000e+00,5.000000000000000000e+00,5.000000000000000000e+00,5.000000000000000000e+00,5.000000000000000000e+00,5.000000000000000000e+00,5.000000000000000000e+00,5.000000000000000000e+00,5.000000000000000000e+00,5.000000000000000000e+00,5.000000000000000000e+00,5.000000000000000000e+00,5.000000000000000000e+00,5.000000000000000000e+00,5.000000000000000000e+00,5.000000000000000000e+00,5.000000000000000000e+00,5.000000000000000000e+00,5.000000000000000000e+00,5.000000000000000000e+00,5.000000000000000000e+00,5.000000000000000000e+00,5.000000000000000000e+00,5.000000000000000000e+00,5.000000000000000000e+00,5.000000000000000000e+00,5.000000000000000000e+00,5.000000000000000000e+00,5.000000000000000000e+00,5.000000000000000000e+00,5.000000000000000000e+00,5.000000000000000000e+00,5.000000000000000000e+00,5.000000000000000000e+00,5.000000000000000000e+00,5.000000000000000000e+00,1.251996397972106934e+00,1.221475601196289062e+00,1.198943376541137695e+00,1.184460282325744629e+00,1.177157163619995117e+00,1.200742959976196289e+00,4.839096546173095703e+00,4.685711383819580078e+00,4.541751861572265625e+00,4.406373500823974609e+00,4.278832912445068359e+00,4.158467769622802734e+00,4.044689178466796875e+00,3.936970472335815430e+00,1.065462946891784668e+00,1.022100448608398438e+00,1.007293462753295898e+00,9.921960830688476562e-01,9.877025485038757324e-01,9.841142296791076660e-01,9.805517792701721191e-01,9.923106431961059570e-01,3.175773859024047852e+00,3.108983755111694336e+00,3.044945478439331055e+00,2.983491897583007812e+00,2.924469709396362305e+00,2.867737770080566406e+00,2.813164710998535156e+00,2.760629892349243164e+00,2.710021495819091797e+00,2.661235094070434570e+00,2.614174365997314453e+00,2.568748712539672852e+00
5.000000000000000000e+00,5.000000000000000000e+00,5.000000000000000000e+00,5.000000000000000000e+00,5.000000000000000000e+00,5.000000000000000000e+00,5.000000000000000000e+00,5.000000000000000000e+00,5.000000000000000000e+00,5.000000000000000000e+00,5.000000000000000000e+00,5.000000000000000000e+00,5.000000000000000000e+00,5.000000000000000000e+00,5.000000000000000000e+00,5.000000000000000000e+00,5.000000000000000000e+00,5.000000000000000000e+00,5.000000000000000000e+00,5.000000000000000000e+00,5.000000000000000000e+00,5.000000000000000000e+00,5.000000000000000000e+00,5.000000000000000000e+00,5.000000000000000000e+00,5.000000000000000000e+00,5.000000000000000000e+00,5.000000000000000000e+00,5.000000000000000000e+00,5.000000000000000000e+00,5.000000000000000000e+00,5.000000000000000000e+00,5.000000000000000000e+00,5.000000000000000000e+00,5.000000000000000000e+00,5.000000000000000000e+00,5.000000000000000000e+00,5.000000000000000000e+00,5.000000000000000000e+00,5.000000000000000000e+00,5.000000000000000000e+00,5.000000000000000000e+00,5.000000000000000000e+00,5.000000000000000000e+00,5.000000000000000000e+00,1.290828466415405273e+00,1.249469161033630371e+00,1.224454760551452637e+00,1.212198257446289062e+00,1.198179364204406738e+00,1.201543092727661133e+00,1.232341527938842773e+00,4.839224338531494141e+00,4.685831546783447266e+00,4.541864395141601562e+00,4.406479835510253906e+00,4.278933048248291016e+00,4.158562183380126953e+00,4.044778347015380859e+00,3.937055349349975586e+00,1.063382863998413086e+00,1.025517106056213379e+00,1.009064435958862305e+00,9.931833148002624512e-01,9.886237978935241699e-01,9.850552678108215332e-01,9.815123677253723145e-01,9.879382252693176270e-01,3.175828933715820312e+00,3.109036445617675781e+00,3.044996023178100586e+00,2.983540296554565430e+00,2.924516677856445312e+00,2.867782592773437500e+00,2.813207864761352539e+00,2.760671615600585938e+00,2.710061550140380859e+00,2.661273717880249023e+00,2.614211559295654297e+00,2.568784713745117188e+00
5.000000000000000000e+00,5.000000000000000000e+00,5.000000000000000000e+00,5.000000000000000000e+00,5.000000000000000000e+00,5.000000000000000000e+00,5.000000000000000000e+00,5.000000000000000000e+00,5.000000000000000000e+00,5.000000000000000000e+00,5.000000000000000000e+00,5.000000000000000000e+00,5.000000000000000000e+00,5.000000000000000000e+00,5.000000000000000000e+00,5.000000000000000000e+00,5.000000000000000000e+00,5.000000000000000000e+00,5.000000000000000000e+00,5.000000000000000000e+00,5.000000000000000000e+00,5.000000000000000000e+00,5.000000000000000000e+00,5.000000000000000000e+00,5.000000000000000000e+00,5.000000000000000000e+00,5.000000000000000000e+00,5.000000000000000000e+00,5.000000000000000000e+00,5.000000000000000000e+00,5.000000000000000000e+00,5.000000000000000000e+00,5.000000000000000000e+00,5.000000000000000000e+00,5.000000000000000000e+00,5.000000000000000000e+00,5.000000000000000000e+00,5.000000000000000000e+00,5.000000000000000000e+00,5.000000000000000000e+00,5.000000000000000000e+00,5.000000000000000000e+00,5.000000000000000000e+00,5.000000000000000000e+00,5.000000000000000000e+00,1.284772753715515137e+00,1.252586722373962402e+00,1.233261466026306152e+00,1.225237727165222168e+00,1.212547898292541504e+00,1.227200269699096680e+00,5.000000000000000000e+00,4.839352130889892578e+00,4.685951232910156250e+00,4.541976928710937500e+00,4.406585693359375000e+00,4.279033184051513672e+00,4.158656597137451172e+00,4.044867515563964844e+00,3.937139987945556641e+00,1.065965056419372559e+00,1.025889039039611816e+00,1.009341955184936523e+00,9.936371445655822754e-01,9.877274036407470703e-01,9.842721223831176758e-01,9.807348251342773438e-01,9.772228598594665527e-01,3.175883769989013672e+00,3.109089374542236328e+00,3.045046806335449219e+00,2.983588933944702148e+00,2.924563169479370117e+00,2.867827415466308594e+00,2.813251018524169922e+00,2.760713338851928711e+00,2.710101604461669922e+00,2.661312341690063477e+00,2.614248752593994141e+00,2.568820714950561523e+00
5.000000000000000000e+00,5.000000000000000000e+00,5.000000000000000000e+00,5.000000000000000000e+00,5.000000000000000000e+00,5.000000000000000000e+00,5.000000000000000000e+00,5.000000000000000000e+00,5.000000000000000000e+00,5.000000000000000000e+00,5.000000000000000000e+00,5.000000000000000000e+00,5.000000000000000000e+00,5.000000000000000000e+00,5.000000000000000000e+00,5.000000000000000000e+00,5.000000000000000000e+00,5.000000000000000000e+00,5.000000000000000000e+00,5.000000000000000000e+00,5.000000000000000000e+00,5.000000000000000000e+00,5.000000000000000000e+00,5.000000000000000000e+00,5.000000000000000000e+00,5.000000000000000000e+00,5.000000000000000000e+00,5.000000000000000000e+00,5.000000000000000000e+00,5.000000000000000000e+00,5.000000000000000000e+00,5.000000000000000000e+00,5.000000000000000000e+00,5.000000000000000000e+00,5.000000000000000000e+00,5.000000000000000000e+00,5.000000000000000000e+00,5.000000000000000000e+00,5.000000000000000000e+00,5.000000000000000000e+00,5.000000000000000000e+00,5.000000000000000000e+00,5.000000000000000000e+00,5.000000000000000000e+00,5.000000000000000000e+00,1.282084107398986816e+00,1.260800242424011230e+00,1.243374824523925781e+00,1.238560676574707031e+00,1.228036165237426758e+00,1.284810066223144531e+00,5.000000000000000000e+00,4.839479923248291016e+00,4.686071395874023438e+00,4.542089462280273438e+00,4.406691551208496094e+00,4.279132843017578125e+00,4.158751010894775391e+00,4.044956684112548828e+00,3.937224388122558594e+00,1.073426008224487305e+00,1.026175856590270996e+00,1.009619712829589844e+00,9.940914511680603027e-01,9.863672852516174316e-01,9.834901690483093262e-01,9.799584746360778809e-01,9.764520525932312012e-01,3.175938844680786133e+00,3.109142303466796875e+00,3.045097351074218750e+00,2.983637571334838867e+00,2.924609899520874023e+00,2.867872238159179688e+00,2.813294410705566406e+00,2.760754823684692383e+00,2.710141658782958984e+00,2.661350965499877930e+00,2.614286184310913086e+00,2.568856716156005859e+00
5.000000000000000000e+00,5.000000000000000000e+00,5.000000000000000000e+00,5.000000000000000000e+00,5.000000000000000000e+00,5.000000000000000000e+00,5.000000000000000000e+00,5.000000000000000000e+00,5.000000000000000000e+00,5.000000000000000000e+00,5.000000000000000000e+00,5.000000000000000000e+00,5.000000000000000000e+00,5.000000000000000000e+00,5.000000000000000000e+00,5.000000000000000000e+00,5.000000000000000000e+00,5.000000000000000000e+00,5.000000000000000000e+00,5.000000000000000000e+00,5.000000000000000000e+00,5.000000000000000000e+00,5.000000000000000000e+00,5.000000000000000000e+00,5.000000000000000000e+00,5.000000000000000000e+00,5.000000000000000000e+00,5.000000000000000000e+00,5.000000000000000000e+00,5.000000000000000000e+00,5.000000000000000000e+00,5.000000000000000000e+00,5.000000000000000000e+00,5.000000000000000000e+00,5.000000000000000000e+00,5.000000000000000000e+00,5.000000000000000000e+00,5.000000000000000000e+00,5.000000000000000000e+00,5.000000000000000000e+00,5.000000000000000000e+00,5.000000000000000000e+00,5.000000000000000000e+00,5.000000000000000000e+00,5.000000000000000000e+00,1.289485812187194824e+00,1.270237565040588379e+00,1.257097482681274414e+00,1.252176642417907715e+00,1.264946579933166504e+00,5.000000000000000000e+00,5.000000000000000000e+00,4.839607715606689453e+00,4.686191082000732422e+00,4.542201995849609375e+00,4.406797885894775391e+00,4.279232501983642578e+00,4.158845424652099609e+00,4.045046329498291016e+00,3.937309026718139648e+00,3.835161685943603516e+00,1.027684807777404785e+00,1.009897470474243164e+00,9.945461153984069824e-01,9.850108027458190918e-01,9.823516607284545898e-01,9.791833758354187012e-01,9.756825566291809082e-01,3.175993919372558594e+00,3.109194993972778320e+00,3.045147895812988281e+00,2.983686208724975586e+00,2.924656629562377930e+00,2.867917060852050781e+00,2.813337564468383789e+00,2.760796308517456055e+00,2.710181713104248047e+00,2.661389827728271484e+00,2.614323377609252930e+00,2.568892955780029297e+00
5.000000000000000000e+00,5.000000000000000000e+00,5.000000000000000000e+00,5.000000000000000000e+00,5.000000000000000000e+00,5.000000000000000000e+00,5.000000000000000000e+00,5.000000000000000000e+00,5.000000000000000000e+00,5.000000000000000000e+00,5.000000000000000000e+00,5.000000000000000000e+00,5.000000000000000000e+00,5.000000000000000000e+00,5.000000000000000000e+00,5.000000000000000000e+00,5.000000000000000000e+00,5.000000000000000000e+00,5.000000000000000000e+00,5.000000000000000000e+00,5.000000000000000000e+00,5.000000000000000000e+00,5.000000000000000000e+00,5.000000000000000000e+00,5.000000000000000000e+00,5.000000000000000000e+00,5.000000000000000000e+00,5.000000000000000000e+00,5.000000000000000000e+00,5.000000000000000000e+00,5.000000000000000000e+00,5.000000000000000000e+00,5.000000000000000000e+00,5.000000000000000000e+00,5.000000000000000000e+00,5.000000000000000000e+00,5.000000000000000000e+00,5.000000000000000000e+00,5.000000000000000000e+00,5.000000000000000000e+00,5.000000000000000000e+00,5.000000000000000000e+00,5.000000000000000000e+00,5.000000000000000000e+00,5.000000000000000000e+00,1.298529505729675293e+00,1.279049515724182129e+00,1.265994310379028320e+00,1.261579632759094238e+00,1.281732916831970215e+00,5.000000000000000000e+00,5.000000000000000000e+00,4.839735984802246094e+00,4.686310768127441406e+00,4.542314529418945312e+00,4.406903743743896484e+00,4.279332637786865234e+00,4.158939361572265625e+00,4.045135498046875000e+00,3.937393665313720703e+00,3.835242509841918945e+00,1.034606695175170898e+00,1.010175466537475586e+00,9.950012564659118652e-01,9.836580157279968262e-01,9.810061454772949219e-01,9.783685207366943359e-01,9.749142527580261230e-01,3.176049232482910156e+00,3.109247684478759766e+00,3.045198440551757812e+00,2.983734846115112305e+00,2.924703121185302734e+00,2.867961883544921875e+00,2.813380718231201172e+00,2.760838031768798828e+00,2.710222005844116211e+00,2.661428451538085938e+00,2.614360570907592773e+00,2.568928956985473633e+00
5.000000000000000000e+00,5.000000000000000000e+00,5.000000000000000000e+00,5.000000000000000000e+00,5.000000000000000000e+00,5.000000000000000000e+00,5.000000000000000000e+00,5.000000000000000000e+00,5.000000000000000000e+00,5.000000000000000000e+00,5.000000000000000000e+00,5.000000000000000000e+00,5.000000000000000000e+00,5.000000000000000000e+00,5.000000000000000000e+00,5.000000000000000000e+00,5.000000000000000000e+00,5.000000000000000000e+00,5.000000000000000000e+00,5.000000000000000000e+00,5.000000000000000000e+00,5.000000000000000000e+00,5.000000000000000000e+00,5.000000000000000000e+00,5.000000000000000000e+00,5.000000000000000000e+00,5.000000000000000000e+00,5.000000000000000000e+00,5.000000000000000000e+00,5.000000000000000000e+00,5.000000000000000000e+00,5.000000000000000000e+00,5.000000000000000000e+00,5.000000000000000000e+00,5.000000000000000000e+00,5.000000000000000000e+00,5.000000000000000000e+00,5.000000000000000000e+00,5.000000000000000000e+00,5.000000000000000000e+00,5.000000000000000000e+00,5.000000000000000000e+00,5.000000000000000000e+00,5.000000000000000000e+00,5.000000000000000000e+00,1.307701110839843750e+00,1.288058638572692871e+00,1.273826003074645996e+00,1.269356608390808105e+00,1.296884417533874512e+00,5.000000000000000000e+00,5.000000000000000000e+00,4.839863777160644531e+00,4.686430931091308594e+00,4.542427062988281250e+00,4.407009601593017578e+00,4.279432773590087891e+00,4.159034252166748047e+00,4.045224666595458984e+00,3.937478065490722656e+00,3.835322618484497070e+00,1.041637420654296875e+00,1.010453701019287109e+00,9.954568147659301758e-01,9.823091030120849609e-01,9.796644449234008789e-01,9.770339131355285645e-01,9.741472005844116211e-01,3.176104307174682617e+00,3.109300374984741211e+00,3.045248985290527344e+00,2.983783483505249023e+00,2.924749851226806641e+00,2.868007183074951172e+00,2.813423871994018555e+00,2.760879516601562500e+00,2.710262060165405273e+00,2.661467075347900391e+00,2.614398002624511719e+00,2.568964958190917969e+00
5.000000000000000000e+00,5.000000000000000000e+00,5.000000000000000000e+00,5.000000000000000000e+00,5.000000000000000000e+00,5.000000000000000000e+00,5.000000000000000000e+00,5.000000000000000000e+00,5.000000000000000000e+00,5.000000000000000000e+00,5.000000000000000000e+00,5.000000000000000000e+00,5.000000000000000000e+00,5.000000000000000000e+00,5.000000000000000000e+00,5.000000000000000000e+00,5.000000000000000000e+00,5.000000000000000000e+00,5.000000000000000000e+00,5.000000000000000000e+00,5.000000000000000000e+00,5.000000000000000000e+00,5.000000000000000000e+00,5.000000000000000000e+00,5.000000000000000000e+00,5.000000000000000000e+00,5.000000000000000000e+00,5.000000000000000000e+00,5.000000000000000000e+00,5.000000000000000000e+00,5.000000000000000000e+00,5.000000000000000000e+00,5.000000000000000000e+00,5.000000000000000000e+00,5.000000000000000000e+00,5.000000000000000000e+00,5.000000000000000000e+00,5.000000000000000000e+00,5.000000000000000000e+00,5.000000000000000000e+00,5.000000000000000000e+00,5.000000000000000000e+00,5.000000000000000000e+00,5.000000000000000000e+00,5.000000000000000000e+00,1.317002892494201660e+00,1.297321081161499023e+00,1.282642483711242676e+00,1.277230262756347656e+00,1.310429096221923828e+00,5.000000000000000000e+00,5.000000000000000000e+00,4.839991092681884766e+00,4.686550617218017578e+00,4.542540073394775391e+00,4.407115936279296875e+00,4.279532432556152344e+00,4.159128665924072266e+00,4.045314311981201172e+00,3.937563180923461914e+00,3.835402965545654297e+00,1.048789262771606445e+00,1.010776877403259277e+00,9.959127306938171387e-01,9.814795255661010742e-01,9.783262610435485840e-01,9.757030606269836426e-01,9.730937480926513672e-01,3.176159143447875977e+00,3.109353065490722656e+00,3.045299768447875977e+00,2.983831882476806641e+00,2.924796581268310547e+00,2.868052005767822266e+00,2.813467025756835938e+00,2.760921239852905273e+00,2.710302114486694336e+00,2.661505699157714844e+00,2.614435434341430664e+00,2.569000959396362305e+00
5.000000000000000000e+00,5.000000000000000000e+00,5.000000000000000000e+00,5.000000000000000000e+00,5.000000000000000000e+00,5.000000000000000000e+00,5.000000000000000000e+00,5.000000000000000000e+00,5.000000000000000000e+00,5.000000000000000000e+00,5.000000000000000000e+00,5.000000000000000000e+00,5.000000000000000000e+00,5.000000000000000000e+00,5.000000000000000000e+00,5.000000000000000000e+00,5.000000000000000000e+00,5.000000000000000000e+00,5.000000000000000000e+00,5.000000000000000000e+00,5.000000000000000000e+00,5.000000000000000000e+00,5.000000000000000000e+00,5.000000000000000000e+00,5.000000000000000000e+00,5.000000000000000000e+00,5.000000000000000000e+00,5.000000000000000000e+00,5.000000000000000000e+00,5.000000000000000000e+00,5.000000000000000000e+00,5.000000000000000000e+00,5.000000000000000000e+00,5.000000000000000000e+00,5.000000000000000000e+00,5.000000000000000000e+00,5.000000000000000000e+00,5.000000000000000000e+00,5.000000000000000000e+00,5.000000000000000000e+00,5.000000000000000000e+00,5.000000000000000000e+00,5.000000000000000000e+00,5.000000000000000000e+00,5.000000000000000000e+00,1.326438069343566895e+00,1.306717634201049805e+00,1.291714787483215332e+00,1.285202026367187500e+00,1.324007153511047363e+00,5.000000000000000000e+00,5.000000000000000000e+00,4.840119361877441406e+00,4.686670303344726562e+00,4.542652606964111328e+00,4.407221794128417969e+00,4.279632568359375000e+00,4.159223079681396484e+00,4.045403480529785156e+00,3.937647581100463867e+00,3.835483074188232422e+00,1.056039929389953613e+00,1.011288166046142578e+00,9.964919686317443848e-01,9.821226596832275391e-01,9.770551919937133789e-01,9.744120240211486816e-01,9.717831015586853027e-01,3.176214218139648438e+00,3.109405755996704102e+00,3.045350313186645508e+00,2.983880519866943359e+00,2.924843311309814453e+00,2.868096828460693359e+00,2.813510179519653320e+00,2.760962963104248047e+00,2.710342168807983398e+00,2.661544322967529297e+00,2.614472627639770508e+00,2.569036960601806641e+00
5.000000000000000000e+00,5.000000000000000000e+00,5.000000000000000000e+00,5.000000000000000000e+00,5.000000000000000000e+00,5.000000000000000000e+00,5.000000000000000000e+00,5.000000000000000000e+00,5.000000000000000000e+00,5.000000000000000000e+00,5.000000000000000000e+00,5.000000000000000000e+00,5.000000000000000000e+00,5.000000000000000000e+00,5.000000000000000000e+00,5.000000000000000000e+00,5.000000000000000000e+00,5.000000000000000000e+00,5.000000000000000000e+00,5.000000000000000000e+00,5.000000000000000000e+00,5.000000000000000000e+00,5.000000000000000000e+00,5.000000000000000000e+00,5.000000000000000000e+00,5.000000000000000000e+00,5.000000000000000000e+00,5.000000000000000000e+00,5.000000000000000000e+00,5.000000000000000000e+00,5.000000000000000000e+00,5.000000000000000000e+00,5.000000000000000000e+00,5.000000000000000000e+00,5.000000000000000000e+00,5.000000000000000000e+00,5.000000000000000000e+00,5.000000000000000000e+00,5.000000000000000000e+00,5.000000000000000000e+00,5.000000000000000000e+00,5.000000000000000000e+00,5.000000000000000000e+00,5.000000000000000000e+00,5.000000000000000000e+00,1.336240768432617188e+00,1.316251397132873535e+00,1.300916314125061035e+00,1.293606042861938477e+00,1.338018894195556641e+00,5.000000000000000000e+00,5.000000000000000000e+00,4.840247154235839844e+00,4.686790466308593750e+00,4.542765140533447266e+00,4.407327651977539062e+00,4.279732704162597656e+00,4.159317493438720703e+00,4.045492649078369141e+00,3.937732219696044922e+00,3.835563421249389648e+00,1.063600420951843262e+00,1.013050913810729980e+00,9.982036352157592773e-01,9.837851524353027344e-01,9.762101769447326660e-01,9.735714197158813477e-01,9.709470868110656738e-01,3.176269292831420898e+00,3.109458923339843750e+00,3.045401096343994141e+00,2.983929157257080078e+00,2.924890041351318359e+00,2.868141651153564453e+00,2.813553333282470703e+00,2.761004447937011719e+00,2.710382223129272461e+00,2.661583185195922852e+00,2.614510059356689453e+00,2.569072961807250977e+00
5.000000000000000000e+00,5.000000000000000000e+00,5.000000000000000000e+00,5.000000000000000000e+00,5.000000000000000000e+00,5.000000000000000000e+00,5.000000000000000000e+00,5.000000000000000000e+00,5.000000000000000000e+00,5.000000000000000000e+00,5.000000000000000000e+00,5.000000000000000000e+00,5.000000000000000000e+00,5.000000000000000000e+00,5.000000000000000000e+00,5.000000000000000000e+00,5.000000000000000000e+00,5.000000000000000000e+00,5.000000000000000000e+00,5.000000000000000000e+00,5.000000000000000000e+00,5.000000000000000000e+00,5.000000000000000000e+00,5.000000000000000000e+00,5.000000000000000000e+00,5.000000000000000000e+00,5.000000000000000000e+00,5.000000000000000000e+00,5.000000000000000000e+00,5.000000000000000000e+00,5.000000000000000000e+00,5.000000000000000000e+00,5.000000000000000000e+00,5.000000000000000000e+00,5.000000000000000000e+00,5.000000000000000000e+00,5.000000000000000000e+00,5.000000000000000000e+00,5.000000000000000000e+00,5.000000000000000000e+00,5.000000000000000000e+00,5.000000000000000000e+00,5.000000000000000000e+00,5.000000000000000000e+00,5.000000000000000000e+00,1.346775412559509277e+00,1.326346397399902344e+00,1.311478137969970703e+00,1.308379292488098145e+00,5.000000000000000000e+00,5.000000000000000000e+00,5.000000000000000000e+00,4.840374946594238281e+00,4.686910152435302734e+00,4.542878150939941406e+00,4.407433509826660156e+00,4.279832363128662109e+00,4.159411907196044922e+00,4.045582294464111328e+00,3.937816858291625977e+00,3.835643529891967773e+00,3.738638877868652344e+00,1.019786953926086426e+00,9.999210834503173828e-01,9.854353070259094238e-01,9.753664731979370117e-01,9.727323055267333984e-01,9.701124429702758789e-01,3.176324367523193359e+00,3.109511613845825195e+00,3.045451641082763672e+00,2.983977556228637695e+00,2.924936771392822266e+00,2.868186473846435547e+00,2.813596725463867188e+00,2.761045932769775391e+00,2.710422277450561523e+00,2.661621809005737305e+00,2.614547252655029297e+00,2.569108963012695312e+00
4.874388694763183594e+00,4.873181819915771484e+00,4.871975898742675781e+00,4.870769977569580078e+00,4.869565010070800781e+00,4.868360996246337891e+00,4.867156982421875000e+00,4.865953922271728516e+00,4.864751815795898438e+00,4.863549709320068359e+00,4.862348556518554688e+00,4.861147880554199219e+00,4.859947681427001953e+00,4.858747959136962891e+00,4.857549190521240234e+00,4.856350898742675781e+00,4.855153083801269531e+00,4.853955745697021484e+00,4.852759361267089844e+00,4.851563453674316406e+00,4.850368022918701172e+00,4.849173069000244141e+00,4.847979068756103516e+00,4.846785545349121094e+00,4.845592498779296875e+00,4.844399929046630859e+00,4.843207836151123047e+00,4.842016696929931641e+00,4.840826034545898438e+00,4.839635848999023438e+00,4.838446140289306641e+00,4.837257385253906250e+00,4.836068630218505859e+00,4.834880828857421875e+00,4.833693981170654297e+00,4.832507133483886719e+00,4.831321239471435547e+00,4.830135822296142578e+00,4.828950881958007812e+00,4.827766895294189453e+00,4.826582908630371094e+00,4.825399875640869141e+00,4.824217319488525391e+00,4.823035240173339844e+00,4.821854114532470703e+00,1.357968926429748535e+00,1.337211608886718750e+00,1.325661897659301758e+00,1.324324846267700195e+00,4.815955638885498047e+00,4.814777851104736328e+00,4.813600540161132812e+00,4.812423706054687500e+00,4.687030315399169922e+00,4.542990684509277344e+00,4.407539844512939453e+00,4.279932498931884766e+00,4.159506320953369141e+00,4.045671463012695312e+00,3.937901258468627930e+00,3.835723876953125000e+00,3.738714933395385742e+00,1.027275204658508301e+00,1.001644372940063477e+00,9.870752692222595215e-01,9.752599596977233887e-01,9.718945622444152832e-01,9.692792296409606934e-01,3.176379203796386719e+00,3.109564304351806641e+00,3.045502185821533203e+00,2.984026432037353516e+00,2.924983263015747070e+00,2.868231296539306641e+00,2.813639879226684570e+00,2.761087656021118164e+00,2.710462331771850586e+00,2.661660432815551758e+00,2.614584445953369141e+00,2.569144964218139648e+00
3.777764320373535156e+00,3.777039289474487305e+00,3.776314973831176758e+00,3.775590419769287109e+00,3.774866819381713867e+00,3.774142742156982422e+00,3.773419618606567383e+00,3.772696256637573242e+00,3.771973609924316406e+00,3.771250724792480469e+00,3.770528078079223633e+00,3.769806385040283203e+00,3.769084215164184570e+00,3.768362998962402344e+00,3.767641544342041016e+00,3.766920804977416992e+00,3.766200065612792969e+00,3.765479803085327148e+00,3.764759540557861328e+00,3.764039754867553711e+00,3.763319969177246094e+00,3.762600898742675781e+00,3.761881828308105469e+00,3.761162757873535156e+00,3.760444641113281250e+00,3.759726047515869141e+00,3.759008407592773438e+00,3.758290529251098633e+00,3.757573366165161133e+00,3.756856203079223633e+00,3.756139516830444336e+00,3.755422830581665039e+00,3.754706621170043945e+00,3.753990411758422852e+00,3.753274917602539062e+00,3.752559185028076172e+00,3.751843929290771484e+00,3.751129150390625000e+00,3.750414371490478516e+00,3.749700069427490234e+00,3.748985767364501953e+00,3.748272180557250977e+00,3.747558355331420898e+00,3.746845245361328125e+00,3.746132135391235352e+00,1.369350075721740723e+00,1.348494529724121094e+00,1.338714122772216797e+00,1.340664029121398926e+00,3.742570877075195312e+00,3.741859912872314453e+00,3.741148471832275391e+00,3.740437746047973633e+00,3.739727020263671875e+00,3.739017009735107422e+00,3.738306760787963867e+00,3.737597227096557617e+00,3.736887454986572266e+00,3.736178398132324219e+00,3.735469341278076172e+00,3.734760761260986328e+00,3.734052181243896484e+00,1.034874200820922852e+00,1.003373622894287109e+00,9.887207150459289551e-01,9.753834605216979980e-01,9.710584282875061035e-01,9.684475064277648926e-01,3.176434516906738281e+00,3.109616994857788086e+00,3.045552730560302734e+00,2.984075069427490234e+00,2.925029993057250977e+00,2.868276357650756836e+00,2.813683032989501953e+00,2.761129140853881836e+00,2.710502624511718750e+00,2.661699056625366211e+00,2.614621877670288086e+00,2.569180965423583984e+00
3.083947896957397461e+00,3.083464622497558594e+00,3.082981824874877930e+00,3.082499027252197266e+00,3.082016229629516602e+00,3.081533908843994141e+00,3.081051588058471680e+00,3.080569505691528320e+00,3.080087423324584961e+00,3.079605817794799805e+00,3.079123973846435547e+00,3.078642606735229492e+00,3.078161001205444336e+00,3.077679872512817383e+00,3.077198743820190430e+00,3.076717853546142578e+00,3.076236963272094727e+00,3.075756072998046875e+00,3.075275659561157227e+00,3.074795246124267578e+00,3.074315309524536133e+00,3.073835134506225586e+00,3.073355197906494141e+00,3.072875499725341797e+00,3.072396039962768555e+00,3.071916341781616211e+00,3.071437120437622070e+00,3.070957899093627930e+00,3.070479154586791992e+00,3.070000171661376953e+00,3.069521188735961914e+00,3.069042921066284180e+00,3.068564414978027344e+00,3.068086147308349609e+00,3.067607879638671875e+00,3.067130088806152344e+00,3.066652297973632812e+00,3.066174745559692383e+00,3.065697193145751953e+00,3.065219879150390625e+00,3.064742565155029297e+00,3.064265727996826172e+00,3.063788652420043945e+00,3.063311815261840820e+00,3.062835216522216797e+00,1.380923628807067871e+00,1.359969735145568848e+00,1.350212812423706055e+00,1.357411503791809082e+00,3.060454368591308594e+00,3.059978723526000977e+00,3.059503078460693359e+00,3.059027671813964844e+00,3.058552265167236328e+00,3.058077335357666016e+00,3.057602167129516602e+00,3.057127237319946289e+00,3.056652784347534180e+00,3.056178092956542969e+00,3.055703639984130859e+00,3.055229425430297852e+00,3.054755449295043945e+00,1.045665740966796875e+00,1.005108952522277832e+00,9.903716444969177246e-01,9.758616089820861816e-01,9.702236652374267578e-01,9.676171541213989258e-01,9.860818982124328613e-01,3.050967693328857422e+00,3.045603275299072266e+00,2.984123706817626953e+00,2.925076723098754883e+00,2.868321418762207031e+00,2.813726186752319336e+00,2.761170864105224609e+00,2.710542678833007812e+00,2.661737680435180664e+00,2.614659070968627930e+00,2.569216966629028320e+00
2.605438232421875000e+00,2.605093479156494141e+00,2.604748725891113281e+00,2.604404211044311523e+00,2.604059457778930664e+00,2.603715181350708008e+00,2.603370666503906250e+00,2.603026628494262695e+00,2.602682352066040039e+00,2.602338552474975586e+00,2.601994276046752930e+00,2.601650476455688477e+00,2.601306676864624023e+00,2.600962877273559570e+00,2.600619316101074219e+00,2.600275754928588867e+00,2.599932432174682617e+00,2.599589109420776367e+00,2.599245786666870117e+00,2.598902702331542969e+00,2.598559617996215820e+00,2.598216533660888672e+00,2.597873687744140625e+00,2.597530841827392578e+00,2.597188234329223633e+00,2.596845626831054688e+00,2.596503019332885742e+00,2.596160650253295898e+00,2.595818281173706055e+00,2.595476150512695312e+00,2.595133781433105469e+00,2.594791889190673828e+00,2.594449758529663086e+00,2.594108104705810547e+00,2.593766212463378906e+00,2.593424558639526367e+00,2.593082904815673828e+00,2.592741250991821289e+00,2.592399835586547852e+00,2.592058420181274414e+00,2.591717243194580078e+00,2.591376066207885742e+00,2.591034889221191406e+00,2.590693950653076172e+00,2.590353012084960938e+00,1.392928957939147949e+00,1.371641635894775391e+00,1.361910939216613770e+00,1.379187464714050293e+00,2.588649749755859375e+00,2.588309526443481445e+00,2.587969303131103516e+00,2.587629079818725586e+00,2.587289094924926758e+00,2.586948871612548828e+00,2.586609125137329102e+00,2.586269140243530273e+00,2.585929632186889648e+00,2.585589885711669922e+00,2.585250377655029297e+00,2.584910869598388672e+00,2.584571599960327148e+00,1.059025764465332031e+00,1.006850242614746094e+00,9.920280575752258301e-01,9.774698019027709961e-01,9.701999425888061523e-01,9.667883515357971191e-01,9.838854670524597168e-01,2.581859588623046875e+00,2.581521034240722656e+00,2.581182479858398438e+00,2.580844163894653320e+00,2.580505847930908203e+00,2.580167531967163086e+00,2.579829454421997070e+00,2.579491138458251953e+00,2.579153299331665039e+00,2.578815460205078125e+00,2.569252967834472656e+00
2.255475521087646484e+00,2.255217313766479492e+00,2.254958868026733398e+00,2.254700422286987305e+00,2.254442214965820312e+00,2.254184007644653320e+00,2.253926038742065430e+00,2.253668069839477539e+00,2.253410100936889648e+00,2.253152132034301758e+00,2.252894401550292969e+00,2.252636432647705078e+00,2.252378702163696289e+00,2.252120971679687500e+00,2.251863479614257812e+00,2.251605987548828125e+00,2.251348257064819336e+00,2.251091003417968750e+00,2.250833511352539062e+00,2.250576257705688477e+00,2.250318765640258789e+00,2.250061750411987305e+00,2.249804496765136719e+00,2.249547481536865234e+00,2.249290466308593750e+00,2.249033451080322266e+00,2.248776435852050781e+00,2.248519659042358398e+00,2.248262882232666016e+00,2.248006105422973633e+00,2.247749567031860352e+00,2.247492790222167969e+00,2.247236251831054688e+00,2.246979713439941406e+00,2.246723413467407227e+00,2.246466875076293945e+00,2.246210575103759766e+00,2.245954275131225586e+00,2.245698213577270508e+00,2.245441913604736328e+00,2.245185852050781250e+00,2.244929790496826172e+00,2.244673728942871094e+00,2.244417905807495117e+00,2.244161844253540039e+00,1.421754240989685059e+00,1.396573066711425781e+00,1.389319419860839844e+00,2.243139028549194336e+00,2.242883443832397461e+00,2.242627859115600586e+00,2.242372512817382812e+00,2.242117166519165039e+00,2.241861820220947266e+00,2.241606473922729492e+00,2.241351366043090820e+00,2.241096019744873047e+00,2.240840911865234375e+00,2.240586042404174805e+00,2.240330934524536133e+00,2.240076065063476562e+00,2.239820957183837891e+00,2.239566326141357422e+00,1.008597731590270996e+00,9.936900138854980469e-01,9.790833592414855957e-01,9.703221917152404785e-01,9.659608602523803711e-01,9.816988110542297363e-01,2.237784147262573242e+00,2.237529754638671875e+00,2.237275600433349609e+00,2.237021207809448242e+00,2.236767053604125977e+00,2.236512899398803711e+00,2.236258983612060547e+00,2.236004829406738281e+00,2.235750913619995117e+00,2.235496997833251953e+00,2.235243320465087891e+00
1.988394260406494141e+00,1.988193511962890625e+00,1.987992763519287109e+00,1.987791895866394043e+00,1.987591266632080078e+00,1.987390637397766113e+00,1.987190008163452148e+00,1.986989259719848633e+00,1.986788868904113770e+00,1.986588358879089355e+00,1.986387729644775391e+00,1.986187458038330078e+00,1.985987067222595215e+00,1.985786795616149902e+00,1.985586404800415039e+00,1.985386252403259277e+00,1.985186100006103516e+00,1.984985947608947754e+00,1.984785676002502441e+00,1.984585642814636230e+00,1.984385609626770020e+00,1.984185576438903809e+00,1.983985424041748047e+00,1.983785629272460938e+00,1.983585834503173828e+00,1.983385801315307617e+00,1.983186006546020508e+00,1.982986330986022949e+00,1.982786655426025391e+00,1.982586741447448730e+00,1.982387185096740723e+00,1.982187628746032715e+00,1.981988072395324707e+00,1.981788396835327148e+00,1.981588959693908691e+00,1.981389641761779785e+00,1.981189966201782227e+00,1.980990648269653320e+00,1.980791449546813965e+00,1.980592250823974609e+00,1.980392813682556152e+00,1.980193614959716797e+00,1.979994535446166992e+00,1.979795455932617188e+00,1.979596138000488281e+00,1.427075624465942383e+00,1.399728775024414062e+00,1.390105724334716797e+00,1.978800177574157715e+00,1.978601336479187012e+00,1.978402614593505859e+00,1.978203654289245605e+00,1.978004932403564453e+00,1.977806210517883301e+00,1.977607607841491699e+00,1.977408766746520996e+00,1.977210164070129395e+00,1.977011680603027344e+00,1.976813197135925293e+00,1.976614594459533691e+00,1.976416230201721191e+00,1.976217865943908691e+00,1.976019263267517090e+00,1.015862584114074707e+00,9.953575730323791504e-01,9.807022213935852051e-01,9.704444408416748047e-01,9.651347994804382324e-01,9.795217514038085938e-01,1.974632024765014648e+00,1.974433779716491699e+00,1.974235773086547852e+00,1.974037885665893555e+00,1.973839998245239258e+00,1.973641872406005859e+00,1.973444104194641113e+00,1.973246335983276367e+00,1.973048448562622070e+00,1.972850799560546875e+00,1.972653150558471680e+00
1.777871847152709961e+00,1.777710914611816406e+00,1.777549862861633301e+00,1.777389049530029297e+00,1.777228236198425293e+00,1.777067542076110840e+00,1.776906728744506836e+00,1.776745915412902832e+00,1.776585221290588379e+00,1.776424765586853027e+00,1.776264548301696777e+00,1.776104331016540527e+00,1.775943875312805176e+00,1.775783777236938477e+00,1.775623679161071777e+00,1.775463581085205078e+00,1.775303244590759277e+00,1.775143265724182129e+00,1.774983286857604980e+00,1.774823069572448730e+00,1.774663090705871582e+00,1.774503231048583984e+00,1.774343252182006836e+00,1.774183273315429688e+00,1.774023413658142090e+00,1.773863554000854492e+00,1.773703813552856445e+00,1.773543834686279297e+00,1.773384213447570801e+00,1.773224472999572754e+00,1.773064613342285156e+00,1.772904992103576660e+00,1.772745370864868164e+00,1.772585749626159668e+00,1.772426009178161621e+00,1.772266507148742676e+00,1.772107005119323730e+00,1.771947622299194336e+00,1.771788001060485840e+00,1.771628499031066895e+00,1.771469116210937500e+00,1.771309852600097656e+00,1.771150350570678711e+00,1.770990967750549316e+00,1.770831704139709473e+00,1.429208159446716309e+00,1.388004660606384277e+00,1.370441555976867676e+00,1.367270946502685547e+00,1.770035505294799805e+00,1.769876360893249512e+00,1.769717335700988770e+00,1.769558310508728027e+00,1.769399046897888184e+00,1.769240140914916992e+00,1.769081115722656250e+00,1.768922090530395508e+00,1.768763184547424316e+00,1.768604278564453125e+00,1.768445491790771484e+00,1.768286466598510742e+00,1.768127679824829102e+00,1.767968893051147461e+00,1.767810225486755371e+00,1.006032824516296387e+00,9.907658100128173828e-01,9.824663400650024414e-01,9.797542095184326172e-01,1.767016649246215820e+00,1.766858100891113281e+00,1.766699671745300293e+00,1.766540884971618652e+00,1.766382455825805664e+00,1.766224026679992676e+00,1.766065597534179688e+00,1.765907049179077148e+00,1.765748739242553711e+00,1.765590429306030273e+00,1.765432119369506836e+00,1.765273690223693848e+00
1.607659816741943359e+00,1.607528090476989746e+00,1.607396602630615234e+00,1.607265114784240723e+00,1.607133626937866211e+00,1.607002139091491699e+00,1.606870532035827637e+00,1.606739163398742676e+00,1.606607675552368164e+00,1.606476306915283203e+00,1.606344819068908691e+00,1.606213450431823730e+00,1.606082201004028320e+00,1.605950832366943359e+00,1.605819582939147949e+00,1.605688214302062988e+00,1.605556964874267578e+00,1.605425715446472168e+00,1.605294942855834961e+00,1.605164051055908203e+00,1.605033159255981445e+00,1.604902267456054688e+00,1.604771494865417480e+00,1.604640722274780273e+00,1.604509830474853516e+00,1.604379057884216309e+00,1.604248285293579102e+00,1.604117631912231445e+00,1.603986859321594238e+00,1.603856205940246582e+00,1.603725552558898926e+00,1.603595018386840820e+00,1.603464245796203613e+00,1.603333711624145508e+00,1.603203177452087402e+00,1.603072643280029297e+00,1.602941989898681641e+00,1.602811455726623535e+00,1.602681040763854980e+00,1.602550506591796875e+00,1.602420091629028320e+00,1.602289676666259766e+00,1.602159261703491211e+00,1.602028846740722656e+00,1.601898431777954102e+00,1.601768136024475098e+00,1.373833298683166504e+00,1.356416583061218262e+00,1.346784353256225586e+00,1.345880627632141113e+00,1.601116657257080078e+00,1.600986480712890625e+00,1.600856304168701172e+00,1.600726246833801270e+00,1.600595951080322266e+00,1.600465893745422363e+00,1.600335836410522461e+00,1.600205779075622559e+00,1.600075602531433105e+00,1.599945545196533203e+00,1.599815487861633301e+00,1.599685549736022949e+00,1.599555492401123047e+00,1.047519207000732422e+00,1.002059817314147949e+00,9.884366989135742188e-01,9.774391651153564453e-01,9.703906774520874023e-01,1.598776102066040039e+00,1.598646163940429688e+00,1.598516464233398438e+00,1.598386645317077637e+00,1.598256945610046387e+00,1.598127126693725586e+00,1.597997426986694336e+00,1.597867727279663086e+00,1.597737908363342285e+00,1.597608327865600586e+00,1.597478628158569336e+00,1.597349047660827637e+00
1.467191934585571289e+00,1.467082381248474121e+00,1.466972827911376953e+00,1.466863274574279785e+00,1.466753721237182617e+00,1.466644167900085449e+00,1.466534614562988281e+00,1.466425180435180664e+00,1.466315746307373047e+00,1.466206192970275879e+00,1.466096758842468262e+00,1.465987324714660645e+00,1.465877890586853027e+00,1.465768575668334961e+00,1.465659022331237793e+00,1.465549707412719727e+00,1.465440392494201660e+00,1.465331077575683594e+00,1.465221643447875977e+00,1.465112447738647461e+00,1.465003132820129395e+00,1.464893937110900879e+00,1.464784741401672363e+00,1.464675307273864746e+00,1.464566111564636230e+00,1.464456915855407715e+00,1.464347958564758301e+00,1.464239001274108887e+00,1.464130163192749023e+00,1.464021325111389160e+00,1.463912367820739746e+00,1.463803529739379883e+00,1.463694691658020020e+00,1.463585853576660156e+00,1.463477015495300293e+00,1.463368296623229980e+00,1.463259577751159668e+00,1.463150739669799805e+00,1.463042020797729492e+00,1.462933301925659180e+00,1.462824583053588867e+00,1.462715864181518555e+00,1.462607145309448242e+00,1.462498545646667480e+00,1.462389826774597168e+00,1.462281227111816406e+00,1.351642370223999023e+00,1.335036873817443848e+00,1.327047109603881836e+00,1.323407888412475586e+00,1.316713094711303711e+00,1.461629867553710938e+00,1.461521267890930176e+00,1.461412787437438965e+00,1.461304306983947754e+00,1.461195945739746094e+00,1.461087346076965332e+00,1.460978984832763672e+00,1.460870623588562012e+00,1.460762143135070801e+00,1.460653781890869141e+00,1.460545420646667480e+00,1.460437059402465820e+00,1.033232212066650391e+00,1.003914833068847656e+00,9.837821125984191895e-01,9.720400571823120117e-01,9.595063924789428711e-01,9.518001079559326172e-01,9.597534537315368652e-01,1.459570646286010742e+00,1.459462523460388184e+00,1.459354400634765625e+00,1.459246158599853516e+00,1.459137916564941406e+00,1.459029793739318848e+00,1.458921790122985840e+00,1.458813667297363281e+00,1.458705425262451172e+00,1.458597421646118164e+00
1.349298238754272461e+00,1.349205493927001953e+00,1.349112868309020996e+00,1.349020123481750488e+00,1.348927497863769531e+00,1.348834872245788574e+00,1.348742246627807617e+00,1.348649740219116211e+00,1.348556995391845703e+00,1.348464488983154297e+00,1.348371863365173340e+00,1.348279356956481934e+00,1.348186731338500977e+00,1.348094224929809570e+00,1.348001718521118164e+00,1.347909212112426758e+00,1.347816705703735352e+00,1.347724199295043945e+00,1.347631692886352539e+00,1.347539305686950684e+00,1.347446918487548828e+00,1.347354531288146973e+00,1.347262024879455566e+00,1.347169637680053711e+00,1.347077250480651855e+00,1.346984863281250000e+00,1.346892356872558594e+00,1.346800088882446289e+00,1.346707701683044434e+00,1.346615433692932129e+00,1.346523165702819824e+00,1.346430778503417969e+00,1.346338510513305664e+00,1.346246242523193359e+00,1.346154093742370605e+00,1.346061944961547852e+00,1.345969915390014648e+00,1.345878005027770996e+00,1.345785856246948242e+00,1.345693945884704590e+00,1.345601916313171387e+00,1.345510005950927734e+00,1.345417976379394531e+00,1.345326066017150879e+00,1.345234155654907227e+00,1.345142245292663574e+00,1.345050215721130371e+00,1.313809514045715332e+00,1.300814032554626465e+00,1.291520714759826660e+00,1.291048169136047363e+00,1.281436204910278320e+00,1.344499111175537109e+00,1.344407200813293457e+00,1.344315409660339355e+00,1.344223618507385254e+00,1.344131946563720703e+00,1.344040036201477051e+00,1.343948364257812500e+00,1.343856573104858398e+00,1.343764901161193848e+00,1.343673110008239746e+00,1.343581438064575195e+00,1.033270955085754395e+00,1.005725979804992676e+00,9.819252490997314453e-01,9.658222198486328125e-01,9.514622688293457031e-01,9.363357424736022949e-01,9.257151484489440918e-01,9.225515127182006836e-01,1.342756628990173340e+00,1.342664957046508789e+00,1.342573404312133789e+00,1.342481851577758789e+00,1.342390298843383789e+00,1.342298746109008789e+00,1.342207193374633789e+00,1.342115759849548340e+00,1.342024207115173340e+00
1.248941659927368164e+00,1.248862266540527344e+00,1.248782753944396973e+00,1.248703479766845703e+00,1.248624086380004883e+00,1.248544692993164062e+00,1.248465418815612793e+00,1.248385906219482422e+00,1.248306632041931152e+00,1.248227357864379883e+00,1.248147964477539062e+00,1.248068571090698242e+00,1.247989296913146973e+00,1.247910022735595703e+00,1.247830748558044434e+00,1.247751593589782715e+00,1.247672200202941895e+00,1.247592926025390625e+00,1.247513771057128906e+00,1.247434496879577637e+00,1.247355222702026367e+00,1.247276067733764648e+00,1.247196912765502930e+00,1.247117638587951660e+00,1.247038483619689941e+00,1.246959328651428223e+00,1.246880173683166504e+00,1.246801018714904785e+00,1.246721863746643066e+00,1.246642708778381348e+00,1.246563553810119629e+00,1.246484518051147461e+00,1.246405363082885742e+00,1.246326327323913574e+00,1.246247172355651855e+00,1.246168136596679688e+00,1.246089100837707520e+00,1.246010065078735352e+00,1.245931029319763184e+00,1.245851874351501465e+00,1.245772838592529297e+00,1.245693922042846680e+00,1.245614886283874512e+00,1.245536088943481445e+00,1.245457291603088379e+00,1.245378494262695312e+00,1.245299696922302246e+00,1.245220899581909180e+00,1.245142102241516113e+00,1.245063424110412598e+00,1.244984745979309082e+00,1.244905948638916016e+00,1.244827151298522949e+00,1.244748473167419434e+00,1.244669795036315918e+00,1.244591116905212402e+00,1.244512438774108887e+00,1.244433760643005371e+00,1.244355082511901855e+00,1.244276404380798340e+00,1.244197845458984375e+00,1.244119167327880859e+00,1.244040489196777344e+00,1.029546737670898438e+00,1.005296587944030762e+00,9.862288236618041992e-01,9.665099382400512695e-01,9.479074478149414062e-01,9.291689395904541016e-01,9.137831926345825195e-01,9.002637267112731934e-01,8.906956315040588379e-01,8.982699513435363770e-01,1.243176341056823730e+00,1.243097782135009766e+00,1.243019342422485352e+00,1.242940902709960938e+00,1.242862343788146973e+00,1.242783904075622559e+00,1.242705464363098145e+00
1.162480115890502930e+00,1.162411212921142578e+00,1.162342429161071777e+00,1.162273764610290527e+00,1.162204980850219727e+00,1.162136197090148926e+00,1.162067413330078125e+00,1.161998629570007324e+00,1.161929965019226074e+00,1.161861181259155273e+00,1.161792397499084473e+00,1.161723732948303223e+00,1.161655068397521973e+00,1.161586284637451172e+00,1.161517620086669922e+00,1.161448836326599121e+00,1.161380171775817871e+00,1.161311626434326172e+00,1.161242961883544922e+00,1.161174178123474121e+00,1.161105632781982422e+00,1.161036968231201172e+00,1.160968303680419922e+00,1.160899758338928223e+00,1.160831093788146973e+00,1.160762429237365723e+00,1.160693883895874023e+00,1.160625338554382324e+00,1.160556674003601074e+00,1.160488128662109375e+00,1.160419583320617676e+00,1.160351037979125977e+00,1.160282492637634277e+00,1.160213947296142578e+00,1.160145401954650879e+00,1.160076856613159180e+00,1.160008311271667480e+00,1.159939765930175781e+00,1.159871339797973633e+00,1.159802794456481934e+00,1.159734368324279785e+00,1.159665942192077637e+00,1.159597396850585938e+00,1.159528970718383789e+00,1.159460544586181641e+00,1.159392118453979492e+00,1.159323692321777344e+00,1.159255146980285645e+00,1.159186720848083496e+00,1.159118294715881348e+00,1.159049987792968750e+00,1.158981680870056152e+00,1.158913373947143555e+00,1.158845186233520508e+00,1.158776998519897461e+00,1.158708810806274414e+00,1.158640503883361816e+00,1.158572316169738770e+00,1.158504247665405273e+00,1.158436059951782227e+00,1.158367872238159180e+00,1.158299684524536133e+00,1.158231616020202637e+00,1.030641078948974609e+00,1.007075428962707520e+00,9.892548322677612305e-01,9.724504947662353516e-01,9.545235633850097656e-01,9.359324574470520020e-01,9.071941375732421875e-01,8.907530903816223145e-01,8.785868883132934570e-01,8.660041093826293945e-01,8.506999611854553223e-01,8.393140435218811035e-01,8.268908262252807617e-01,8.250373005867004395e-01,1.157210230827331543e+00,1.157142162322998047e+00,1.157074213027954102e+00
1.087214469909667969e+00,1.087154269218444824e+00,1.087094068527221680e+00,1.087033987045288086e+00,1.086973786354064941e+00,1.086913585662841797e+00,1.086853504180908203e+00,1.086793422698974609e+00,1.086733222007751465e+00,1.086673021316528320e+00,1.086612939834594727e+00,1.086552858352661133e+00,1.086492776870727539e+00,1.086432695388793945e+00,1.086372494697570801e+00,1.086312413215637207e+00,1.086252450942993164e+00,1.086192369461059570e+00,1.086132168769836426e+00,1.086072206497192383e+00,1.086012125015258789e+00,1.085952162742614746e+00,1.085892081260681152e+00,1.085831999778747559e+00,1.085772037506103516e+00,1.085711956024169922e+00,1.085651993751525879e+00,1.085591912269592285e+00,1.085531949996948242e+00,1.085471987724304199e+00,1.085412025451660156e+00,1.085352063179016113e+00,1.085291981697082520e+00,1.085232019424438477e+00,1.085172057151794434e+00,1.085112214088439941e+00,1.085052132606506348e+00,1.084992289543151855e+00,1.084932327270507812e+00,1.084872364997863770e+00,1.084812521934509277e+00,1.084752559661865234e+00,1.084692597389221191e+00,1.084632754325866699e+00,1.084572792053222656e+00,1.084512948989868164e+00,1.084452986717224121e+00,1.084393143653869629e+00,1.084333300590515137e+00,1.084273457527160645e+00,1.084213614463806152e+00,1.084153771400451660e+00,1.084093928337097168e+00,1.084034085273742676e+00,1.083974242210388184e+00,1.083914399147033691e+00,1.083854556083679199e+00,1.083794832229614258e+00,1.083734989166259766e+00,1.083675265312194824e+00,1.083615660667419434e+00,1.083555936813354492e+00,1.083496332168579102e+00,1.083436727523803711e+00,1.083377122879028320e+00,1.001435875892639160e+00,1.083257794380187988e+00,1.083198189735412598e+00,1.083138585090637207e+00,1.083078980445861816e+00,8.882998228073120117e-01,8.739920258522033691e-01,8.617605566978454590e-01,8.467606902122497559e-01,8.341794610023498535e-01,8.252664208412170410e-01,8.448342084884643555e-01,1.082602500915527344e+00,1.082543015480041504e+00,1.082483410835266113e+00
1.021102428436279297e+00,1.021049380302429199e+00,1.020996332168579102e+00,1.020943164825439453e+00,1.020890116691589355e+00,1.020837068557739258e+00,1.020784020423889160e+00,1.020730972290039062e+00,1.020677924156188965e+00,1.020624876022338867e+00,1.020571947097778320e+00,1.020518898963928223e+00,1.020465850830078125e+00,1.020412802696228027e+00,1.020359754562377930e+00,1.020306825637817383e+00,1.020253777503967285e+00,1.020200729370117188e+00,1.020147800445556641e+00,1.020094871520996094e+00,1.020041823387145996e+00,1.019988894462585449e+00,1.019935846328735352e+00,1.019882917404174805e+00,1.019829988479614258e+00,1.019777059555053711e+00,1.019724011421203613e+00,1.019671082496643066e+00,1.019618272781372070e+00,1.019565343856811523e+00,1.019512414932250977e+00,1.019459366798400879e+00,1.019406557083129883e+00,1.019353628158569336e+00,1.019300699234008789e+00,1.019247770309448242e+00,1.019194960594177246e+00,1.019142031669616699e+00,1.019089221954345703e+00,1.019036293029785156e+00,1.018983364105224609e+00,1.018930554389953613e+00,1.018877744674682617e+00,1.018824815750122070e+00,1.018772006034851074e+00,1.018719196319580078e+00,1.018666267395019531e+00,1.018613457679748535e+00,1.018560647964477539e+00,1.018507838249206543e+00,1.018455028533935547e+00,1.018402218818664551e+00,1.018349409103393555e+00,1.018296599388122559e+00,1.018243789672851562e+00,1.018190979957580566e+00,1.018138289451599121e+00,1.018085479736328125e+00,1.018032670021057129e+00,1.017979979515075684e+00,1.017927169799804688e+00,1.017874479293823242e+00,1.017821669578552246e+00,1.017768979072570801e+00,1.017716169357299805e+00,1.017663478851318359e+00,1.017610788345336914e+00,1.017557978630065918e+00,1.017505407333374023e+00,1.017452836036682129e+00,1.017400264739990234e+00,8.870134949684143066e-01,8.715974092483520508e-01,1.017242550849914551e+00,1.017189979553222656e+00,1.017137408256530762e+00,1.017084836959838867e+00,1.017032265663146973e+00,1.016979694366455078e+00,1.016927242279052734e+00
9.625700116157531738e-01,9.625228643417358398e-01,9.624755978584289551e-01,9.624284505844116211e-01,9.623813033103942871e-01,9.623341560363769531e-01,9.622870087623596191e-01,9.622398614883422852e-01,9.621927142143249512e-01,9.621456265449523926e-01,9.620984792709350586e-01,9.620512723922729492e-01,9.620041847229003906e-01,9.619570374488830566e-01,9.619099497795104980e-01,9.618628621101379395e-01,9.618157744407653809e-01,9.617686867713928223e-01,9.617215991020202637e-01,9.616745114326477051e-01,9.616273641586303711e-01,9.615802764892578125e-01,9.615332484245300293e-01,9.614861607551574707e-01,9.614391326904296875e-01,9.613920450210571289e-01,9.613450169563293457e-01,9.612979888916015625e-01,9.612509608268737793e-01,9.612039327621459961e-01,9.611567854881286621e-01,9.611097574234008789e-01,9.610627293586730957e-01,9.610157012939453125e-01,9.609687328338623047e-01,9.609217047691345215e-01,9.608747363090515137e-01,9.608277082443237305e-01,9.607807397842407227e-01,9.607336521148681641e-01,9.606866240501403809e-01,9.606396555900573730e-01,9.605926871299743652e-01,9.605457186698913574e-01,9.604987502098083496e-01,9.604517817497253418e-01,9.604048728942871094e-01,9.603579044342041016e-01,9.603108763694763184e-01,9.602639079093933105e-01,9.602169990539550781e-01,9.601700305938720703e-01,9.601231217384338379e-01,9.600762128829956055e-01,9.600293040275573730e-01,9.599823951721191406e-01,9.599354863166809082e-01,9.598884582519531250e-01,9.598415493965148926e-01,9.597946405410766602e-01,9.597477912902832031e-01,9.597008824348449707e-01,9.596539735794067383e-01,9.596071243286132812e-01,9.595602750778198242e-01,9.595133662223815918e-01,9.594663977622985840e-01,9.594195485115051270e-01,9.593726992607116699e-01,9.593258500099182129e-01,9.592790007591247559e-01,9.592321515083312988e-01,9.591853618621826172e-01,9.591385126113891602e-01,9.590916633605957031e-01,9.590447545051574707e-01,9.589980244636535645e-01,9.589513540267944336e-01,9.589046239852905273e-01,9.588578343391418457e-01
9.103841185569763184e-01,9.103419184684753418e-01,9.102997779846191406e-01,9.102575778961181641e-01,9.102154374122619629e-01,9.101732373237609863e-01,9.101309776306152344e-01,9.100888371467590332e-01,9.100466370582580566e-01,9.100044965744018555e-01,9.099623560905456543e-01,9.099202156066894531e-01,9.098780751228332520e-01,9.098359346389770508e-01,9.097937941551208496e-01,9.097515344619750977e-01,9.097094535827636719e-01,9.096673130989074707e-01,9.096251726150512695e-01,9.095830917358398438e-01,9.095409512519836426e-01,9.094988703727722168e-01,9.094567298889160156e-01,9.094146490097045898e-01,9.093724489212036133e-01,9.093303680419921875e-01,9.092882871627807617e-01,9.092462062835693359e-01,9.092041254043579102e-01,9.091620445251464844e-01,9.091199636459350586e-01,9.090778827667236328e-01,9.090358018875122070e-01,9.089936614036560059e-01,9.089515805244445801e-01,9.089095592498779297e-01,9.088674783706665039e-01,9.088254570960998535e-01,9.087834358215332031e-01,9.087413549423217773e-01,9.086993336677551270e-01,9.086573123931884766e-01,9.086151719093322754e-01,9.085731506347656250e-01,9.085311293601989746e-01,9.084891080856323242e-01,9.084471464157104492e-01,9.084051251411437988e-01,9.083631038665771484e-01,9.083211421966552734e-01,9.082791209220886230e-01,9.082370400428771973e-01,9.081950783729553223e-01,9.081530570983886719e-01,9.081110954284667969e-01,9.080691337585449219e-01,9.080271720886230469e-01,9.079851508140563965e-01,9.079431891441345215e-01,9.079012870788574219e-01,9.078592061996459961e-01,9.078172445297241211e-01,9.077752828598022461e-01,9.077333211898803711e-01,9.076914191246032715e-01,9.076494574546813965e-01,9.076075553894042969e-01,9.075655937194824219e-01,9.075236916542053223e-01,9.074816703796386719e-01,9.074397683143615723e-01,9.073978662490844727e-01,9.073559045791625977e-01,9.073140025138854980e-01,9.072721004486083984e-01,9.072301983833312988e-01,9.071883559226989746e-01,9.071464538574218750e-01,9.071044325828552246e-01,9.070625901222229004e-01
8.635657429695129395e-01,8.635278344154357910e-01,8.634898662567138672e-01,8.634518980979919434e-01,8.634139299392700195e-01,8.633760213851928711e-01,8.633380532264709473e-01,8.633001446723937988e-01,8.632621765136718750e-01,8.632242083549499512e-01,8.631862401962280273e-01,8.631483316421508789e-01,8.631104230880737305e-01,8.630724549293518066e-01,8.630345463752746582e-01,8.629966378211975098e-01,8.629587292671203613e-01,8.629208207130432129e-01,8.628828525543212891e-01,8.628449440002441406e-01,8.628070354461669922e-01,8.627691864967346191e-01,8.627312779426574707e-01,8.626933693885803223e-01,8.626555204391479492e-01,8.626176118850708008e-01,8.625797629356384277e-01,8.625417947769165039e-01,8.625039458274841309e-01,8.624660372734069824e-01,8.624281883239746094e-01,8.623903393745422363e-01,8.623524904251098633e-01,8.623146414756774902e-01,8.622767925262451172e-01,8.622389435768127441e-01,8.622010350227355957e-01,8.621631860733032227e-01,8.621253371238708496e-01,8.620874881744384766e-01,8.620496988296508789e-01,8.620118498802185059e-01,8.619740009307861328e-01,8.619362115859985352e-01,8.618983626365661621e-01,8.618605136871337891e-01,8.618226647377014160e-01,8.617848753929138184e-01,8.617470860481262207e-01,8.617092967033386230e-01,8.616715073585510254e-01,8.616336584091186523e-01,8.615958690643310547e-01,8.615581393241882324e-01,8.615203499794006348e-01,8.614824414253234863e-01,8.614447116851806641e-01,8.614069223403930664e-01,8.613691329956054688e-01,8.613314032554626465e-01,8.612936139106750488e-01,8.612558841705322266e-01,8.612180948257446289e-01,8.611803650856018066e-01,8.611425161361694336e-01,8.611047863960266113e-01,8.610669970512390137e-01,8.610292673110961914e-01,8.609915375709533691e-01,8.609538078308105469e-01,8.609160780906677246e-01,8.608783483505249023e-01,8.608406186103820801e-01,8.608028292655944824e-01,8.607650995254516602e-01,8.607274293899536133e-01,8.606896996498107910e-01,8.606519699096679688e-01,8.606142997741699219e-01,8.605765700340270996e-01
8.213274478912353516e-01,8.212931156158447266e-01,8.212587237358093262e-01,8.212243318557739258e-01,8.211899995803833008e-01,8.211556673049926758e-01,8.211213946342468262e-01,8.210870623588562012e-01,8.210527300834655762e-01,8.210183978080749512e-01,8.209841251373291016e-01,8.209497928619384766e-01,8.209154009819030762e-01,8.208811283111572266e-01,8.208468556404113770e-01,8.208125233650207520e-01,8.207782506942749023e-01,8.207439780235290527e-01,8.207096457481384277e-01,8.206753730773925781e-01,8.206411004066467285e-01,8.206068277359008789e-01,8.205724358558654785e-01,8.205382227897644043e-01,8.205039501190185547e-01,8.204696774482727051e-01,8.204354047775268555e-01,8.204011321067810059e-01,8.203668594360351562e-01,8.203326463699340820e-01,8.202983736991882324e-01,8.202640414237976074e-01,8.202297687530517578e-01,8.201955556869506836e-01,8.201612830162048340e-01,8.201270699501037598e-01,8.200928568840026855e-01,8.200585842132568359e-01,8.200243711471557617e-01,8.199901580810546875e-01,8.199558258056640625e-01,8.199216127395629883e-01,8.198873996734619141e-01,8.198531866073608398e-01,8.198189735412597656e-01,8.197847604751586914e-01,8.197505474090576172e-01,8.197163343429565430e-01,8.196821212768554688e-01,8.196478486061096191e-01,8.196136355400085449e-01,8.195794820785522461e-01,8.195452690124511719e-01,8.195111155509948730e-01,8.194769024848937988e-01,8.194427490234375000e-01,8.194085359573364258e-01,8.193743824958801270e-01,8.193401098251342773e-01,8.193059563636779785e-01,8.192718029022216797e-01,8.192375898361206055e-01,8.192034363746643066e-01,8.191692829132080078e-01,8.191351294517517090e-01,8.191009759902954102e-01,8.190668225288391113e-01,8.190326094627380371e-01,8.189984560012817383e-01,8.189643025398254395e-01,8.189302086830139160e-01,8.188960552215576172e-01,8.188619017601013184e-01,8.188278079032897949e-01,8.187936544418334961e-01,8.187595009803771973e-01,8.187253475189208984e-01,8.186911940574645996e-01,8.186571002006530762e-01,8.186229467391967773e-01
7.830282449722290039e-01,7.829970121383666992e-01,7.829658389091491699e-01,7.829346060752868652e-01,7.829034328460693359e-01,7.828722000122070312e-01,7.828410267829895020e-01,7.828097343444824219e-01,7.827785611152648926e-01,7.827473878860473633e-01,7.827162146568298340e-01,7.826849818229675293e-01,7.826538085937500000e-01,7.826226353645324707e-01,7.825914621353149414e-01,7.825602889060974121e-01,7.825290560722351074e-01,7.824978828430175781e-01,7.824667096138000488e-01,7.824355363845825195e-01,7.824043631553649902e-01,7.823732495307922363e-01,7.823420763015747070e-01,7.823109030723571777e-01,7.822797894477844238e-01,7.822485566139221191e-01,7.822173833847045898e-01,7.821862697601318359e-01,7.821550965309143066e-01,7.821239829063415527e-01,7.820928096771240234e-01,7.820616960525512695e-01,7.820305824279785156e-01,7.819994091987609863e-01,7.819682359695434570e-01,7.819371223449707031e-01,7.819060087203979492e-01,7.818748950958251953e-01,7.818437218666076660e-01,7.818126082420349121e-01,7.817814946174621582e-01,7.817504405975341797e-01,7.817193269729614258e-01,7.816881537437438965e-01,7.816570401191711426e-01,7.816259264945983887e-01,7.815948128700256348e-01,7.815637588500976562e-01,7.815326452255249023e-01,7.815015316009521484e-01,7.814704775810241699e-01,7.814393639564514160e-01,7.814082503318786621e-01,7.813771367073059082e-01,7.813460826873779297e-01,7.813149690628051758e-01,7.812839150428771973e-01,7.812528610229492188e-01,7.812218070030212402e-01,7.811906933784484863e-01,7.811596393585205078e-01,7.811285257339477539e-01,7.810974717140197754e-01,7.810664176940917969e-01,7.810353636741638184e-01,7.810043096542358398e-01,7.809732556343078613e-01,7.809422016143798828e-01,7.809111475944519043e-01,7.808801531791687012e-01,7.808490395545959473e-01,7.808179855346679688e-01,7.807869315147399902e-01,7.807559370994567871e-01,7.807248830795288086e-01,7.806938886642456055e-01,7.806628346443176270e-01,7.806318402290344238e-01,7.806007862091064453e-01,7.805697917938232422e-01
7.481418251991271973e-01,7.481132745742797852e-01,7.480847835540771484e-01,7.480562925338745117e-01,7.480278015136718750e-01,7.479993104934692383e-01,7.479708194732666016e-01,7.479423880577087402e-01,7.479138970375061035e-01,7.478854060173034668e-01,7.478568553924560547e-01,7.478284239768981934e-01,7.477999329566955566e-01,7.477715015411376953e-01,7.477430105209350586e-01,7.477145791053771973e-01,7.476860880851745605e-01,7.476576566696166992e-01,7.476291656494140625e-01,7.476006746292114258e-01,7.475722432136535645e-01,7.475437521934509277e-01,7.475153207778930664e-01,7.474868893623352051e-01,7.474584579467773438e-01,7.474300265312194824e-01,7.474015951156616211e-01,7.473731637001037598e-01,7.473446726799011230e-01,7.473162412643432617e-01,7.472878098487854004e-01,7.472593784332275391e-01,7.472309470176696777e-01,7.472025156021118164e-01,7.471740841865539551e-01,7.471457123756408691e-01,7.471172809600830078e-01,7.470887899398803711e-01,7.470603585243225098e-01,7.470319867134094238e-01,7.470035552978515625e-01,7.469751834869384766e-01,7.469467520713806152e-01,7.469183802604675293e-01,7.468899488449096680e-01,7.468615770339965820e-01,7.468332052230834961e-01,7.468047142028808594e-01,7.467763423919677734e-01,7.467479705810546875e-01,7.467195391654968262e-01,7.466911673545837402e-01,7.466627955436706543e-01,7.466344237327575684e-01,7.466060519218444824e-01,7.465776801109313965e-01,7.465492486953735352e-01,7.465208768844604492e-01,7.464925050735473633e-01,7.464641332626342773e-01,7.464357614517211914e-01,7.464073896408081055e-01,7.463790774345397949e-01,7.463507056236267090e-01,7.463223338127136230e-01,7.462939620018005371e-01,7.462655901908874512e-01,7.462372183799743652e-01,7.462089061737060547e-01,7.461805343627929688e-01,7.461522221565246582e-01,7.461238503456115723e-01,7.460955381393432617e-01,7.460672259330749512e-01,7.460387945175170898e-01,7.460104823112487793e-01,7.459821105003356934e-01,7.459537982940673828e-01,7.459254860877990723e-01,7.458971738815307617e-01
7.162313461303710938e-01,7.162052392959594727e-01,7.161791324615478516e-01,7.161530256271362305e-01,7.161269187927246094e-01,7.161007523536682129e-01,7.160746455192565918e-01,7.160485386848449707e-01,7.160224318504333496e-01,7.159963250160217285e-01,7.159702181816101074e-01,7.159441709518432617e-01,7.159180641174316406e-01,7.158919572830200195e-01,7.158658504486083984e-01,7.158397436141967773e-01,7.158136367797851562e-01,7.157875895500183105e-01,7.157614827156066895e-01,7.157354354858398438e-01,7.157093286514282227e-01,7.156832814216613770e-01,7.156571745872497559e-01,7.156310677528381348e-01,7.156050205230712891e-01,7.155789136886596680e-01,7.155528664588928223e-01,7.155268192291259766e-01,7.155007719993591309e-01,7.154746651649475098e-01,7.154486179351806641e-01,7.154225707054138184e-01,7.153964638710021973e-01,7.153704166412353516e-01,7.153443694114685059e-01,7.153183221817016602e-01,7.152922749519348145e-01,7.152662277221679688e-01,7.152401804924011230e-01,7.152141332626342773e-01,7.151881456375122070e-01,7.151620388031005859e-01,7.151359915733337402e-01,7.151099443435668945e-01,7.150839567184448242e-01,7.150579094886779785e-01,7.150318622589111328e-01,7.150058746337890625e-01,7.149798274040222168e-01,7.149538397789001465e-01,7.149277329444885254e-01,7.149017453193664551e-01,7.148756980895996094e-01,7.148497104644775391e-01,7.148236632347106934e-01,7.147976756095886230e-01,7.147716879844665527e-01,7.147456407546997070e-01,7.147196531295776367e-01,7.146936058998107910e-01,7.146676182746887207e-01,7.146415710449218750e-01,7.146155834197998047e-01,7.145895957946777344e-01,7.145636081695556641e-01,7.145376205444335938e-01,7.145116329193115234e-01,7.144856452941894531e-01,7.144595980644226074e-01,7.144336104393005371e-01,7.144076228141784668e-01,7.143816947937011719e-01,7.143557071685791016e-01,7.143297195434570312e-01,7.143037319183349609e-01,7.142777442932128906e-01,7.142518162727355957e-01,7.142257690429687500e-01,7.141998410224914551e-01,7.141738533973693848e-01
