4.882114887237548828e+00,5.000000000000000000e+00,5.000000000000000000e+00,5.000000000000000000e+00,5.000000000000000000e+00,5.000000000000000000e+00,5.000000000000000000e+00,5.000000000000000000e+00,5.000000000000000000e+00,5.000000000000000000e+00,5.000000000000000000e+00,5.000000000000000000e+00,5.000000000000000000e+00,5.000000000000000000e+00,5.000000000000000000e+00,5.000000000000000000e+00,5.000000000000000000e+00,5.000000000000000000e+00,5.000000000000000000e+00,5.000000000000000000e+00,5.000000000000000000e+00,5.000000000000000000e+00,5.000000000000000000e+00,5.000000000000000000e+00,5.000000000000000000e+00,5.000000000000000000e+00,5.000000000000000000e+00,5.000000000000000000e+00,5.000000000000000000e+00,5.000000000000000000e+00,5.000000000000000000e+00,5.000000000000000000e+00,5.000000000000000000e+00,5.000000000000000000e+00,5.000000000000000000e+00,5.000000000000000000e+00,5.000000000000000000e+00,5.000000000000000000e+00,5.000000000000000000e+00,5.000000000000000000e+00,5.000000000000000000e+00,5.000000000000000000e+00,5.000000000000000000e+00,5.000000000000000000e+00,5.000000000000000000e+00,5.000000000000000000e+00,5.000000000000000000e+00,5.000000000000000000e+00,5.000000000000000000e+00,5.000000000000000000e+00,5.000000000000000000e+00,5.000000000000000000e+00,5.000000000000000000e+00,5.000000000000000000e+00,5.000000000000000000e+00,4.999483108520507812e+00,4.798043727874755859e+00,4.612208843231201172e+00,4.440232276916503906e+00,4.280655384063720703e+00,4.132173061370849609e+00,3.993646144866943359e+00,3.864105463027954102e+00,3.742704868316650391e+00,3.628700256347656250e+00,3.521435737609863281e+00,3.420330286026000977e+00,3.324868679046630859e+00,3.234591245651245117e+00,3.149086236953735352e+00,3.067985534667968750e+00,2.990957498550415039e+00,2.917702436447143555e+00,2.847949981689453125e+00,2.781454801559448242e+00,2.717993736267089844e+00,2.657363891601562500e+00,2.599380254745483398e+00,2.543872594833374023e+00,2.490686178207397461e+00
4.881999969482421875e+00,5.000000000000000000e+00,5.000000000000000000e+00,5.000000000000000000e+00,5.000000000000000000e+00,5.000000000000000000e+00,5.000000000000000000e+00,5.000000000000000000e+00,5.000000000000000000e+00,5.000000000000000000e+00,5.000000000000000000e+00,5.000000000000000000e+00,5.000000000000000000e+00,5.000000000000000000e+00,5.000000000000000000e+00,5.000000000000000000e+00,5.000000000000000000e+00,5.000000000000000000e+00,5.000000000000000000e+00,5.000000000000000000e+00,5.000000000000000000e+00,5.000000000000000000e+00,5.000000000000000000e+00,5.000000000000000000e+00,5.000000000000000000e+00,5.000000000000000000e+00,5.000000000000000000e+00,5.000000000000000000e+00,5.000000000000000000e+00,5.000000000000000000e+00,5.000000000000000000e+00,5.000000000000000000e+00,5.000000000000000000e+00,5.000000000000000000e+00,5.000000000000000000e+00,5.000000000000000000e+00,5.000000000000000000e+00,5.000000000000000000e+00,5.000000000000000000e+00,5.000000000000000000e+00,5.000000000000000000e+00,5.000000000000000000e+00,5.000000000000000000e+00,5.000000000000000000e+00,5.000000000000000000e+00,5.000000000000000000e+00,5.000000000000000000e+00,5.000000000000000000e+00,5.000000000000000000e+00,5.000000000000000000e+00,5.000000000000000000e+00,5.000000000000000000e+00,5.000000000000000000e+00,5.000000000000000000e+00,5.000000000000000000e+00,4.999483108520507812e+00,4.798043727874755859e+00,4.612255573272705078e+00,4.440339565277099609e+00,4.280779361724853516e+00,4.132288455963134766e+00,3.993753671646118164e+00,3.864206552505493164e+00,3.742799758911132812e+00,3.628789424896240234e+00,3.521519660949707031e+00,3.420409440994262695e+00,3.324943542480468750e+00,3.234662055969238281e+00,3.149153232574462891e+00,3.068049192428588867e+00,2.991017818450927734e+00,2.917759895324707031e+00,2.848004817962646484e+00,2.781507015228271484e+00,2.718043804168701172e+00,2.657411813735961914e+00,2.599425792694091797e+00,2.543916225433349609e+00,2.490728139877319336e+00
4.881886482238769531e+00,5.000000000000000000e+00,5.000000000000000000e+00,5.000000000000000000e+00,5.000000000000000000e+00,5.000000000000000000e+00,5.000000000000000000e+00,5.000000000000000000e+00,5.000000000000000000e+00,5.000000000000000000e+00,5.000000000000000000e+00,5.000000000000000000e+00,5.000000000000000000e+00,5.000000000000000000e+00,5.000000000000000000e+00,5.000000000000000000e+00,5.000000000000000000e+00,5.000000000000000000e+00,5.000000000000000000e+00,5.000000000000000000e+00,5.000000000000000000e+00,5.000000000000000000e+00,5.000000000000000000e+00,5.000000000000000000e+00,5.000000000000000000e+00,5.000000000000000000e+00,5.000000000000000000e+00,5.000000000000000000e+00,5.000000000000000000e+00,5.000000000000000000e+00,5.000000000000000000e+00,5.000000000000000000e+00,5.000000000000000000e+00,5.000000000000000000e+00,5.000000000000000000e+00,5.000000000000000000e+00,5.000000000000000000e+00,5.000000000000000000e+00,5.000000000000000000e+00,5.000000000000000000e+00,5.000000000000000000e+00,5.000000000000000000e+00,5.000000000000000000e+00,5.000000000000000000e+00,5.000000000000000000e+00,5.000000000000000000e+00,5.000000000000000000e+00,5.000000000000000000e+00,5.000000000000000000e+00,5.000000000000000000e+00,5.000000000000000000e+00,5.000000000000000000e+00,5.000000000000000000e+00,5.000000000000000000e+00,5.000000000000000000e+00,4.999544143676757812e+00,4.798174858093261719e+00,4.612399101257324219e+00,4.440473079681396484e+00,4.280903339385986328e+00,4.132403850555419922e+00,3.993861436843872070e+00,3.864307641983032227e+00,3.742894411087036133e+00,3.628878593444824219e+00,3.521603345870971680e+00,3.420488595962524414e+00,3.325018167495727539e+00,3.234732389450073242e+00,3.149220228195190430e+00,3.068112850189208984e+00,2.991078376770019531e+00,2.917817592620849609e+00,2.848059654235839844e+00,2.781559467315673828e+00,2.718093633651733398e+00,2.657459259033203125e+00,2.599471330642700195e+00,2.543960094451904297e+00,2.490770101547241211e+00
4.881773471832275391e+00,5.000000000000000000e+00,5.000000000000000000e+00,5.000000000000000000e+00,5.000000000000000000e+00,5.000000000000000000e+00,5.000000000000000000e+00,5.000000000000000000e+00,5.000000000000000000e+00,5.000000000000000000e+00,5.000000000000000000e+00,5.000000000000000000e+00,5.000000000000000000e+00,5.000000000000000000e+00,5.000000000000000000e+00,5.000000000000000000e+00,5.000000000000000000e+00,5.000000000000000000e+00,5.000000000000000000e+00,5.000000000000000000e+00,5.000000000000000000e+00,5.000000000000000000e+00,5.000000000000000000e+00,5.000000000000000000e+00,5.000000000000000000e+00,5.000000000000000000e+00,5.000000000000000000e+00,5.000000000000000000e+00,5.000000000000000000e+00,5.000000000000000000e+00,5.000000000000000000e+00,5.000000000000000000e+00,5.000000000000000000e+00,5.000000000000000000e+00,5.000000000000000000e+00,5.000000000000000000e+00,5.000000000000000000e+00,5.000000000000000000e+00,5.000000000000000000e+00,5.000000000000000000e+00,5.000000000000000000e+00,5.000000000000000000e+00,5.000000000000000000e+00,5.000000000000000000e+00,5.000000000000000000e+00,5.000000000000000000e+00,5.000000000000000000e+00,5.000000000000000000e+00,5.000000000000000000e+00,5.000000000000000000e+00,5.000000000000000000e+00,5.000000000000000000e+00,5.000000000000000000e+00,5.000000000000000000e+00,5.000000000000000000e+00,4.999712944030761719e+00,4.798330783843994141e+00,4.612543106079101562e+00,4.440606117248535156e+00,4.281026840209960938e+00,4.132519245147705078e+00,3.993969440460205078e+00,3.864408493041992188e+00,3.742989301681518555e+00,3.628967523574829102e+00,3.521687269210815430e+00,3.420567274093627930e+00,3.325092792510986328e+00,3.234803199768066406e+00,3.149287223815917969e+00,3.068176507949829102e+00,2.991138935089111328e+00,2.917875289916992188e+00,2.848114490509033203e+00,2.781611442565917969e+00,2.718143463134765625e+00,2.657507181167602539e+00,2.599517107009887695e+00,2.544003963470458984e+00,2.490812063217163086e+00
4.881660938262939453e+00,5.000000000000000000e+00,5.000000000000000000e+00,5.000000000000000000e+00,5.000000000000000000e+00,5.000000000000000000e+00,5.000000000000000000e+00,5.000000000000000000e+00,5.000000000000000000e+00,5.000000000000000000e+00,5.000000000000000000e+00,5.000000000000000000e+00,5.000000000000000000e+00,5.000000000000000000e+00,5.000000000000000000e+00,5.000000000000000000e+00,5.000000000000000000e+00,5.000000000000000000e+00,5.000000000000000000e+00,5.000000000000000000e+00,5.000000000000000000e+00,5.000000000000000000e+00,5.000000000000000000e+00,5.000000000000000000e+00,5.000000000000000000e+00,5.000000000000000000e+00,5.000000000000000000e+00,5.000000000000000000e+00,5.000000000000000000e+00,5.000000000000000000e+00,5.000000000000000000e+00,5.000000000000000000e+00,5.000000000000000000e+00,5.000000000000000000e+00,5.000000000000000000e+00,5.000000000000000000e+00,5.000000000000000000e+00,5.000000000000000000e+00,5.000000000000000000e+00,5.000000000000000000e+00,5.000000000000000000e+00,5.000000000000000000e+00,5.000000000000000000e+00,5.000000000000000000e+00,5.000000000000000000e+00,5.000000000000000000e+00,5.000000000000000000e+00,5.000000000000000000e+00,5.000000000000000000e+00,5.000000000000000000e+00,5.000000000000000000e+00,5.000000000000000000e+00,5.000000000000000000e+00,5.000000000000000000e+00,5.000000000000000000e+00,4.999882221221923828e+00,4.798486709594726562e+00,4.612686634063720703e+00,4.440739631652832031e+00,4.281150817871093750e+00,4.132634639739990234e+00,3.994077444076538086e+00,3.864509582519531250e+00,3.743083953857421875e+00,3.629056692123413086e+00,3.521770954132080078e+00,3.420646429061889648e+00,3.325167655944824219e+00,3.234874010086059570e+00,3.149354457855224609e+00,3.068240165710449219e+00,2.991199493408203125e+00,2.917932748794555664e+00,2.848169088363647461e+00,2.781663894653320312e+00,2.718193531036376953e+00,2.657554864883422852e+00,2.599562883377075195e+00,2.544047594070434570e+00,2.490854024887084961e+00
4.881547451019287109e+00,5.000000000000000000e+00,5.000000000000000000e+00,5.000000000000000000e+00,5.000000000000000000e+00,5.000000000000000000e+00,5.000000000000000000e+00,5.000000000000000000e+00,5.000000000000000000e+00,5.000000000000000000e+00,5.000000000000000000e+00,5.000000000000000000e+00,5.000000000000000000e+00,5.000000000000000000e+00,5.000000000000000000e+00,5.000000000000000000e+00,5.000000000000000000e+00,5.000000000000000000e+00,5.000000000000000000e+00,5.000000000000000000e+00,5.000000000000000000e+00,5.000000000000000000e+00,5.000000000000000000e+00,5.000000000000000000e+00,5.000000000000000000e+00,5.000000000000000000e+00,5.000000000000000000e+00,5.000000000000000000e+00,5.000000000000000000e+00,5.000000000000000000e+00,5.000000000000000000e+00,5.000000000000000000e+00,5.000000000000000000e+00,5.000000000000000000e+00,5.000000000000000000e+00,5.000000000000000000e+00,5.000000000000000000e+00,5.000000000000000000e+00,5.000000000000000000e+00,5.000000000000000000e+00,5.000000000000000000e+00,5.000000000000000000e+00,5.000000000000000000e+00,5.000000000000000000e+00,5.000000000000000000e+00,5.000000000000000000e+00,5.000000000000000000e+00,5.000000000000000000e+00,5.000000000000000000e+00,5.000000000000000000e+00,5.000000000000000000e+00,5.000000000000000000e+00,5.000000000000000000e+00,5.000000000000000000e+00,5.000000000000000000e+00,5.000000000000000000e+00,4.798641681671142578e+00,4.612830638885498047e+00,4.440873146057128906e+00,4.281274795532226562e+00,4.132750034332275391e+00,3.994185209274291992e+00,3.864610671997070312e+00,3.743178844451904297e+00,3.629145383834838867e+00,3.521854877471923828e+00,3.420725822448730469e+00,3.325242280960083008e+00,3.234944820404052734e+00,3.149421453475952148e+00,3.068303823471069336e+00,2.991260051727294922e+00,2.917990207672119141e+00,2.848223924636840820e+00,2.781716108322143555e+00,2.718243360519409180e+00,2.657602787017822266e+00,2.599608659744262695e+00,2.544091463088989258e+00,2.490895986557006836e+00
4.881434440612792969e+00,5.000000000000000000e+00,5.000000000000000000e+00,5.000000000000000000e+00,5.000000000000000000e+00,5.000000000000000000e+00,5.000000000000000000e+00,5.000000000000000000e+00,5.000000000000000000e+00,5.000000000000000000e+00,5.000000000000000000e+00,5.000000000000000000e+00,5.000000000000000000e+00,5.000000000000000000e+00,5.000000000000000000e+00,5.000000000000000000e+00,5.000000000000000000e+00,5.000000000000000000e+00,5.000000000000000000e+00,5.000000000000000000e+00,5.000000000000000000e+00,5.000000000000000000e+00,5.000000000000000000e+00,5.000000000000000000e+00,5.000000000000000000e+00,5.000000000000000000e+00,5.000000000000000000e+00,5.000000000000000000e+00,5.000000000000000000e+00,5.000000000000000000e+00,5.000000000000000000e+00,5.000000000000000000e+00,5.000000000000000000e+00,5.000000000000000000e+00,5.000000000000000000e+00,5.000000000000000000e+00,5.000000000000000000e+00,5.000000000000000000e+00,5.000000000000000000e+00,5.000000000000000000e+00,5.000000000000000000e+00,5.000000000000000000e+00,5.000000000000000000e+00,5.000000000000000000e+00,5.000000000000000000e+00,5.000000000000000000e+00,5.000000000000000000e+00,5.000000000000000000e+00,5.000000000000000000e+00,5.000000000000000000e+00,5.000000000000000000e+00,5.000000000000000000e+00,5.000000000000000000e+00,5.000000000000000000e+00,5.000000000000000000e+00,5.000000000000000000e+00,4.798797607421875000e+00,4.612974643707275391e+00,4.441006660461425781e+00,4.281398773193359375e+00,4.132865428924560547e+00,3.994293212890625000e+00,3.864711761474609375e+00,3.743273258209228516e+00,3.629234552383422852e+00,3.521938800811767578e+00,3.420804977416992188e+00,3.325317144393920898e+00,3.235015630722045898e+00,3.149488687515258789e+00,3.068367719650268555e+00,2.991320371627807617e+00,2.918047666549682617e+00,2.848278999328613281e+00,2.781768560409545898e+00,2.718293428421020508e+00,2.657650470733642578e+00,2.599654197692871094e+00,2.544135332107543945e+00,2.490937709808349609e+00
4.881321430206298828e+00,5.000000000000000000e+00,5.000000000000000000e+00,5.000000000000000000e+00,5.000000000000000000e+00,5.000000000000000000e+00,5.000000000000000000e+00,5.000000000000000000e+00,5.000000000000000000e+00,5.000000000000000000e+00,5.000000000000000000e+00,5.000000000000000000e+00,5.000000000000000000e+00,5.000000000000000000e+00,5.000000000000000000e+00,5.000000000000000000e+00,5.000000000000000000e+00,5.000000000000000000e+00,5.000000000000000000e+00,5.000000000000000000e+00,5.000000000000000000e+00,5.000000000000000000e+00,5.000000000000000000e+00,5.000000000000000000e+00,5.000000000000000000e+00,5.000000000000000000e+00,5.000000000000000000e+00,5.000000000000000000e+00,5.000000000000000000e+00,5.000000000000000000e+00,5.000000000000000000e+00,5.000000000000000000e+00,5.000000000000000000e+00,5.000000000000000000e+00,5.000000000000000000e+00,5.000000000000000000e+00,5.000000000000000000e+00,5.000000000000000000e+00,5.000000000000000000e+00,5.000000000000000000e+00,5.000000000000000000e+00,5.000000000000000000e+00,5.000000000000000000e+00,5.000000000000000000e+00,5.000000000000000000e+00,5.000000000000000000e+00,5.000000000000000000e+00,5.000000000000000000e+00,5.000000000000000000e+00,5.000000000000000000e+00,5.000000000000000000e+00,5.000000000000000000e+00,5.000000000000000000e+00,5.000000000000000000e+00,5.000000000000000000e+00,5.000000000000000000e+00,4.798953533172607422e+00,4.613118171691894531e+00,4.441139698028564453e+00,4.281522750854492188e+00,4.132981300354003906e+00,3.994400739669799805e+00,3.864812374114990234e+00,3.743367910385131836e+00,3.629323720932006836e+00,3.522022724151611328e+00,3.420884132385253906e+00,3.325392007827758789e+00,3.235086441040039062e+00,3.149555444717407227e+00,3.068431138992309570e+00,2.991380929946899414e+00,2.918105363845825195e+00,2.848333835601806641e+00,2.781821012496948242e+00,2.718343496322631836e+00,2.657698154449462891e+00,2.599699735641479492e+00,2.544178962707519531e+00,2.490979671478271484e+00
4.881208419799804688e+00,5.000000000000000000e+00,5.000000000000000000e+00,5.000000000000000000e+00,5.000000000000000000e+00,5.000000000000000000e+00,5.000000000000000000e+00,5.000000000000000000e+00,5.000000000000000000e+00,5.000000000000000000e+00,5.000000000000000000e+00,5.000000000000000000e+00,5.000000000000000000e+00,5.000000000000000000e+00,5.000000000000000000e+00,5.000000000000000000e+00,5.000000000000000000e+00,5.000000000000000000e+00,5.000000000000000000e+00,5.000000000000000000e+00,5.000000000000000000e+00,5.000000000000000000e+00,5.000000000000000000e+00,5.000000000000000000e+00,5.000000000000000000e+00,5.000000000000000000e+00,5.000000000000000000e+00,5.000000000000000000e+00,5.000000000000000000e+00,5.000000000000000000e+00,5.000000000000000000e+00,5.000000000000000000e+00,5.000000000000000000e+00,5.000000000000000000e+00,5.000000000000000000e+00,5.000000000000000000e+00,5.000000000000000000e+00,5.000000000000000000e+00,5.000000000000000000e+00,5.000000000000000000e+00,5.000000000000000000e+00,5.000000000000000000e+00,5.000000000000000000e+00,5.000000000000000000e+00,5.000000000000000000e+00,5.000000000000000000e+00,5.000000000000000000e+00,5.000000000000000000e+00,5.000000000000000000e+00,5.000000000000000000e+00,5.000000000000000000e+00,5.000000000000000000e+00,5.000000000000000000e+00,5.000000000000000000e+00,5.000000000000000000e+00,5.000000000000000000e+00,4.799128532409667969e+00,4.613275051116943359e+00,4.441279888153076172e+00,4.281648635864257812e+00,4.133096218109130859e+00,3.994508743286132812e+00,3.864913463592529297e+00,3.743462800979614258e+00,3.629412651062011719e+00,3.522106647491455078e+00,3.420963287353515625e+00,3.325466871261596680e+00,3.235156774520874023e+00,3.149622440338134766e+00,3.068494796752929688e+00,2.991441488265991211e+00,2.918163061141967773e+00,2.848388671875000000e+00,2.781873226165771484e+00,2.718393325805664062e+00,2.657745838165283203e+00,2.599745512008666992e+00,2.544222593307495117e+00,2.491021871566772461e+00
4.881094932556152344e+00,5.000000000000000000e+00,5.000000000000000000e+00,5.000000000000000000e+00,5.000000000000000000e+00,5.000000000000000000e+00,5.000000000000000000e+00,5.000000000000000000e+00,5.000000000000000000e+00,5.000000000000000000e+00,5.000000000000000000e+00,5.000000000000000000e+00,5.000000000000000000e+00,5.000000000000000000e+00,5.000000000000000000e+00,5.000000000000000000e+00,5.000000000000000000e+00,5.000000000000000000e+00,5.000000000000000000e+00,5.000000000000000000e+00,5.000000000000000000e+00,5.000000000000000000e+00,5.000000000000000000e+00,5.000000000000000000e+00,5.000000000000000000e+00,5.000000000000000000e+00,5.000000000000000000e+00,5.000000000000000000e+00,5.000000000000000000e+00,5.000000000000000000e+00,5.000000000000000000e+00,5.000000000000000000e+00,5.000000000000000000e+00,5.000000000000000000e+00,5.000000000000000000e+00,5.000000000000000000e+00,5.000000000000000000e+00,5.000000000000000000e+00,5.000000000000000000e+00,5.000000000000000000e+00,5.000000000000000000e+00,5.000000000000000000e+00,5.000000000000000000e+00,5.000000000000000000e+00,5.000000000000000000e+00,5.000000000000000000e+00,5.000000000000000000e+00,5.000000000000000000e+00,5.000000000000000000e+00,5.000000000000000000e+00,5.000000000000000000e+00,5.000000000000000000e+00,5.000000000000000000e+00,5.000000000000000000e+00,5.000000000000000000e+00,5.000000000000000000e+00,4.799321174621582031e+00,4.613453388214111328e+00,4.441445350646972656e+00,4.281802177429199219e+00,4.133237361907958984e+00,3.994636058807373047e+00,3.865029096603393555e+00,3.743567705154418945e+00,3.629508018493652344e+00,3.522193431854248047e+00,3.421041965484619141e+00,3.325541257858276367e+00,3.235227584838867188e+00,3.149689674377441406e+00,3.068558454513549805e+00,2.991501808166503906e+00,2.918220520019531250e+00,2.848443508148193359e+00,2.781925678253173828e+00,2.718443155288696289e+00,2.657793521881103516e+00,2.599791288375854492e+00,2.544266462326049805e+00,2.491063833236694336e+00
4.880982398986816406e+00,5.000000000000000000e+00,5.000000000000000000e+00,5.000000000000000000e+00,5.000000000000000000e+00,5.000000000000000000e+00,5.000000000000000000e+00,5.000000000000000000e+00,5.000000000000000000e+00,5.000000000000000000e+00,5.000000000000000000e+00,5.000000000000000000e+00,5.000000000000000000e+00,5.000000000000000000e+00,5.000000000000000000e+00,5.000000000000000000e+00,5.000000000000000000e+00,5.000000000000000000e+00,5.000000000000000000e+00,5.000000000000000000e+00,5.000000000000000000e+00,5.000000000000000000e+00,5.000000000000000000e+00,5.000000000000000000e+00,5.000000000000000000e+00,5.000000000000000000e+00,5.000000000000000000e+00,5.000000000000000000e+00,5.000000000000000000e+00,5.000000000000000000e+00,5.000000000000000000e+00,5.000000000000000000e+00,5.000000000000000000e+00,5.000000000000000000e+00,5.000000000000000000e+00,5.000000000000000000e+00,5.000000000000000000e+00,5.000000000000000000e+00,5.000000000000000000e+00,5.000000000000000000e+00,5.000000000000000000e+00,5.000000000000000000e+00,5.000000000000000000e+00,5.000000000000000000e+00,5.000000000000000000e+00,5.000000000000000000e+00,5.000000000000000000e+00,5.000000000000000000e+00,5.000000000000000000e+00,5.000000000000000000e+00,5.000000000000000000e+00,5.000000000000000000e+00,5.000000000000000000e+00,5.000000000000000000e+00,5.000000000000000000e+00,5.000000000000000000e+00,4.799514770507812500e+00,4.613631725311279297e+00,4.441610336303710938e+00,4.281955718994140625e+00,4.133380413055419922e+00,3.994769811630249023e+00,3.865154266357421875e+00,3.743685007095336914e+00,3.629618406295776367e+00,3.522297382354736328e+00,3.421139955520629883e+00,3.325631141662597656e+00,3.235310077667236328e+00,3.149765253067016602e+00,3.068627834320068359e+00,2.991565704345703125e+00,2.918279170989990234e+00,2.848498106002807617e+00,2.781977653503417969e+00,2.718493223190307617e+00,2.657841444015502930e+00,2.599837064743041992e+00,2.544310331344604492e+00,2.491105794906616211e+00
4.880868911743164062e+00,5.000000000000000000e+00,5.000000000000000000e+00,5.000000000000000000e+00,5.000000000000000000e+00,5.000000000000000000e+00,5.000000000000000000e+00,5.000000000000000000e+00,5.000000000000000000e+00,5.000000000000000000e+00,5.000000000000000000e+00,5.000000000000000000e+00,5.000000000000000000e+00,5.000000000000000000e+00,5.000000000000000000e+00,5.000000000000000000e+00,5.000000000000000000e+00,5.000000000000000000e+00,5.000000000000000000e+00,5.000000000000000000e+00,5.000000000000000000e+00,5.000000000000000000e+00,5.000000000000000000e+00,5.000000000000000000e+00,5.000000000000000000e+00,5.000000000000000000e+00,5.000000000000000000e+00,5.000000000000000000e+00,5.000000000000000000e+00,5.000000000000000000e+00,5.000000000000000000e+00,5.000000000000000000e+00,5.000000000000000000e+00,5.000000000000000000e+00,5.000000000000000000e+00,5.000000000000000000e+00,5.000000000000000000e+00,5.000000000000000000e+00,5.000000000000000000e+00,5.000000000000000000e+00,5.000000000000000000e+00,5.000000000000000000e+00,5.000000000000000000e+00,5.000000000000000000e+00,5.000000000000000000e+00,5.000000000000000000e+00,5.000000000000000000e+00,5.000000000000000000e+00,5.000000000000000000e+00,5.000000000000000000e+00,5.000000000000000000e+00,5.000000000000000000e+00,5.000000000000000000e+00,5.000000000000000000e+00,5.000000000000000000e+00,5.000000000000000000e+00,4.799707412719726562e+00,4.613810062408447266e+00,4.441775798797607422e+00,4.282109260559082031e+00,4.133523464202880859e+00,3.994903326034545898e+00,3.865279436111450195e+00,3.743802785873413086e+00,3.629728794097900391e+00,3.522401332855224609e+00,3.421237945556640625e+00,3.325723886489868164e+00,3.235397577285766602e+00,3.149848461151123047e+00,3.068706512451171875e+00,2.991640567779541016e+00,2.918350458145141602e+00,2.848565101623535156e+00,2.782039880752563477e+00,2.718550443649291992e+00,2.657894372940063477e+00,2.599885940551757812e+00,2.544355630874633789e+00,2.491147756576538086e+00
4.880755901336669922e+00,5.000000000000000000e+00,5.000000000000000000e+00,5.000000000000000000e+00,5.000000000000000000e+00,5.000000000000000000e+00,5.000000000000000000e+00,5.000000000000000000e+00,5.000000000000000000e+00,5.000000000000000000e+00,5.000000000000000000e+00,5.000000000000000000e+00,5.000000000000000000e+00,5.000000000000000000e+00,5.000000000000000000e+00,5.000000000000000000e+00,5.000000000000000000e+00,5.000000000000000000e+00,5.000000000000000000e+00,5.000000000000000000e+00,5.000000000000000000e+00,5.000000000000000000e+00,5.000000000000000000e+00,5.000000000000000000e+00,5.000000000000000000e+00,5.000000000000000000e+00,5.000000000000000000e+00,5.000000000000000000e+00,5.000000000000000000e+00,5.000000000000000000e+00,5.000000000000000000e+00,5.000000000000000000e+00,5.000000000000000000e+00,5.000000000000000000e+00,5.000000000000000000e+00,5.000000000000000000e+00,5.000000000000000000e+00,5.000000000000000000e+00,5.000000000000000000e+00,5.000000000000000000e+00,5.000000000000000000e+00,5.000000000000000000e+00,5.000000000000000000e+00,5.000000000000000000e+00,5.000000000000000000e+00,5.000000000000000000e+00,5.000000000000000000e+00,5.000000000000000000e+00,5.000000000000000000e+00,5.000000000000000000e+00,5.000000000000000000e+00,5.000000000000000000e+00,5.000000000000000000e+00,5.000000000000000000e+00,5.000000000000000000e+00,5.000000000000000000e+00,4.799900531768798828e+00,4.613988399505615234e+00,4.441940784454345703e+00,4.282262802124023438e+00,4.133666515350341797e+00,3.995037078857421875e+00,3.865404367446899414e+00,3.743920087814331055e+00,3.629839181900024414e+00,3.522505044937133789e+00,3.421336174011230469e+00,3.325816392898559570e+00,3.235485315322875977e+00,3.149931430816650391e+00,3.068785667419433594e+00,2.991715669631958008e+00,2.918421745300292969e+00,2.848633050918579102e+00,2.782104492187500000e+00,2.718612432479858398e+00,2.657953500747680664e+00,2.599942445755004883e+00,2.544409751892089844e+00,2.491199731826782227e+00
4.880643367767333984e+00,5.000000000000000000e+00,5.000000000000000000e+00,5.000000000000000000e+00,5.000000000000000000e+00,5.000000000000000000e+00,5.000000000000000000e+00,5.000000000000000000e+00,5.000000000000000000e+00,5.000000000000000000e+00,5.000000000000000000e+00,5.000000000000000000e+00,5.000000000000000000e+00,5.000000000000000000e+00,5.000000000000000000e+00,5.000000000000000000e+00,5.000000000000000000e+00,5.000000000000000000e+00,5.000000000000000000e+00,5.000000000000000000e+00,5.000000000000000000e+00,5.000000000000000000e+00,5.000000000000000000e+00,5.000000000000000000e+00,5.000000000000000000e+00,5.000000000000000000e+00,5.000000000000000000e+00,5.000000000000000000e+00,5.000000000000000000e+00,5.000000000000000000e+00,5.000000000000000000e+00,5.000000000000000000e+00,5.000000000000000000e+00,5.000000000000000000e+00,5.000000000000000000e+00,5.000000000000000000e+00,5.000000000000000000e+00,5.000000000000000000e+00,5.000000000000000000e+00,5.000000000000000000e+00,5.000000000000000000e+00,5.000000000000000000e+00,5.000000000000000000e+00,5.000000000000000000e+00,5.000000000000000000e+00,5.000000000000000000e+00,5.000000000000000000e+00,5.000000000000000000e+00,5.000000000000000000e+00,5.000000000000000000e+00,5.000000000000000000e+00,5.000000000000000000e+00,5.000000000000000000e+00,5.000000000000000000e+00,5.000000000000000000e+00,5.000000000000000000e+00,4.800093650817871094e+00,4.614166736602783203e+00,4.442106246948242188e+00,4.282416343688964844e+00,4.133809566497802734e+00,3.995171070098876953e+00,3.865529537200927734e+00,3.744037628173828125e+00,3.629949331283569336e+00,3.522608995437622070e+00,3.421434164047241211e+00,3.325909137725830078e+00,3.235573053359985352e+00,3.150014638900756836e+00,3.068864583969116211e+00,2.991790533065795898e+00,2.918493270874023438e+00,2.848701000213623047e+00,2.782169342041015625e+00,2.718674182891845703e+00,2.658012866973876953e+00,2.599999427795410156e+00,2.544464111328125000e+00,2.491251707077026367e+00
4.880529880523681641e+00,5.000000000000000000e+00,5.000000000000000000e+00,5.000000000000000000e+00,5.000000000000000000e+00,5.000000000000000000e+00,5.000000000000000000e+00,5.000000000000000000e+00,5.000000000000000000e+00,5.000000000000000000e+00,5.000000000000000000e+00,5.000000000000000000e+00,5.000000000000000000e+00,5.000000000000000000e+00,5.000000000000000000e+00,5.000000000000000000e+00,5.000000000000000000e+00,5.000000000000000000e+00,5.000000000000000000e+00,5.000000000000000000e+00,5.000000000000000000e+00,5.000000000000000000e+00,5.000000000000000000e+00,5.000000000000000000e+00,5.000000000000000000e+00,5.000000000000000000e+00,5.000000000000000000e+00,5.000000000000000000e+00,5.000000000000000000e+00,5.000000000000000000e+00,5.000000000000000000e+00,5.000000000000000000e+00,5.000000000000000000e+00,5.000000000000000000e+00,5.000000000000000000e+00,5.000000000000000000e+00,5.000000000000000000e+00,5.000000000000000000e+00,5.000000000000000000e+00,5.000000000000000000e+00,5.000000000000000000e+00,5.000000000000000000e+00,5.000000000000000000e+00,5.000000000000000000e+00,5.000000000000000000e+00,5.000000000000000000e+00,5.000000000000000000e+00,5.000000000000000000e+00,5.000000000000000000e+00,5.000000000000000000e+00,5.000000000000000000e+00,5.000000000000000000e+00,5.000000000000000000e+00,5.000000000000000000e+00,5.000000000000000000e+00,5.000000000000000000e+00,4.800286293029785156e+00,4.614345073699951172e+00,4.442271232604980469e+00,4.282569885253906250e+00,4.133953094482421875e+00,3.995304822921752930e+00,3.865654706954956055e+00,3.744154930114746094e+00,3.630059719085693359e+00,3.522712945938110352e+00,3.421532154083251953e+00,3.326001644134521484e+00,3.235661029815673828e+00,3.150097846984863281e+00,3.068943500518798828e+00,2.991865396499633789e+00,2.918564558029174805e+00,2.848769187927246094e+00,2.782234191894531250e+00,2.718736171722412109e+00,2.658071994781494141e+00,2.600055932998657227e+00,2.544518232345581055e+00,2.491303682327270508e+00
4.880417346954345703e+00,5.000000000000000000e+00,5.000000000000000000e+00,5.000000000000000000e+00,5.000000000000000000e+00,5.000000000000000000e+00,5.000000000000000000e+00,5.000000000000000000e+00,5.000000000000000000e+00,5.000000000000000000e+00,5.000000000000000000e+00,5.000000000000000000e+00,5.000000000000000000e+00,5.000000000000000000e+00,5.000000000000000000e+00,5.000000000000000000e+00,5.000000000000000000e+00,5.000000000000000000e+00,5.000000000000000000e+00,5.000000000000000000e+00,5.000000000000000000e+00,5.000000000000000000e+00,5.000000000000000000e+00,5.000000000000000000e+00,5.000000000000000000e+00,5.000000000000000000e+00,5.000000000000000000e+00,5.000000000000000000e+00,5.000000000000000000e+00,5.000000000000000000e+00,5.000000000000000000e+00,5.000000000000000000e+00,5.000000000000000000e+00,5.000000000000000000e+00,5.000000000000000000e+00,5.000000000000000000e+00,5.000000000000000000e+00,5.000000000000000000e+00,5.000000000000000000e+00,5.000000000000000000e+00,5.000000000000000000e+00,5.000000000000000000e+00,5.000000000000000000e+00,5.000000000000000000e+00,5.000000000000000000e+00,5.000000000000000000e+00,5.000000000000000000e+00,5.000000000000000000e+00,5.000000000000000000e+00,5.000000000000000000e+00,5.000000000000000000e+00,5.000000000000000000e+00,5.000000000000000000e+00,5.000000000000000000e+00,5.000000000000000000e+00,5.000000000000000000e+00,4.800479412078857422e+00,4.614522933959960938e+00,4.442436695098876953e+00,4.282723903656005859e+00,4.134096145629882812e+00,3.995438575744628906e+00,3.865779876708984375e+00,3.744272470474243164e+00,3.630170106887817383e+00,3.522816896438598633e+00,3.421630144119262695e+00,3.326094388961791992e+00,3.235748767852783203e+00,3.150180816650390625e+00,3.069022417068481445e+00,2.991940498352050781e+00,2.918635845184326172e+00,2.848837137222290039e+00,2.782299041748046875e+00,2.718798398971557617e+00,2.658131122589111328e+00,2.600112676620483398e+00,2.544572353363037109e+00,2.491355657577514648e+00
4.880303859710693359e+00,5.000000000000000000e+00,5.000000000000000000e+00,5.000000000000000000e+00,5.000000000000000000e+00,5.000000000000000000e+00,5.000000000000000000e+00,5.000000000000000000e+00,5.000000000000000000e+00,5.000000000000000000e+00,5.000000000000000000e+00,5.000000000000000000e+00,5.000000000000000000e+00,5.000000000000000000e+00,5.000000000000000000e+00,5.000000000000000000e+00,5.000000000000000000e+00,5.000000000000000000e+00,5.000000000000000000e+00,5.000000000000000000e+00,5.000000000000000000e+00,5.000000000000000000e+00,5.000000000000000000e+00,5.000000000000000000e+00,5.000000000000000000e+00,5.000000000000000000e+00,5.000000000000000000e+00,5.000000000000000000e+00,5.000000000000000000e+00,5.000000000000000000e+00,5.000000000000000000e+00,5.000000000000000000e+00,5.000000000000000000e+00,5.000000000000000000e+00,5.000000000000000000e+00,5.000000000000000000e+00,5.000000000000000000e+00,5.000000000000000000e+00,5.000000000000000000e+00,5.000000000000000000e+00,5.000000000000000000e+00,5.000000000000000000e+00,5.000000000000000000e+00,5.000000000000000000e+00,5.000000000000000000e+00,5.000000000000000000e+00,5.000000000000000000e+00,5.000000000000000000e+00,5.000000000000000000e+00,5.000000000000000000e+00,5.000000000000000000e+00,5.000000000000000000e+00,5.000000000000000000e+00,5.000000000000000000e+00,5.000000000000000000e+00,5.000000000000000000e+00,4.800672531127929688e+00,4.614701271057128906e+00,4.442602157592773438e+00,4.282877445220947266e+00,4.134239196777343750e+00,3.995572328567504883e+00,3.865905046463012695e+00,3.744389772415161133e+00,3.630280494689941406e+00,3.522920846939086914e+00,3.421728134155273438e+00,3.326187133789062500e+00,3.235836505889892578e+00,3.150264024734497070e+00,3.069101333618164062e+00,2.992015361785888672e+00,2.918707132339477539e+00,2.848905086517333984e+00,2.782363891601562500e+00,2.718860149383544922e+00,2.658190250396728516e+00,2.600169181823730469e+00,2.544626712799072266e+00,2.491407632827758789e+00
4.880179882049560547e+00,5.000000000000000000e+00,5.000000000000000000e+00,5.000000000000000000e+00,5.000000000000000000e+00,5.000000000000000000e+00,5.000000000000000000e+00,5.000000000000000000e+00,5.000000000000000000e+00,5.000000000000000000e+00,5.000000000000000000e+00,5.000000000000000000e+00,5.000000000000000000e+00,5.000000000000000000e+00,5.000000000000000000e+00,5.000000000000000000e+00,5.000000000000000000e+00,5.000000000000000000e+00,5.000000000000000000e+00,5.000000000000000000e+00,5.000000000000000000e+00,5.000000000000000000e+00,5.000000000000000000e+00,5.000000000000000000e+00,5.000000000000000000e+00,5.000000000000000000e+00,5.000000000000000000e+00,5.000000000000000000e+00,5.000000000000000000e+00,5.000000000000000000e+00,5.000000000000000000e+00,5.000000000000000000e+00,5.000000000000000000e+00,5.000000000000000000e+00,5.000000000000000000e+00,5.000000000000000000e+00,5.000000000000000000e+00,5.000000000000000000e+00,5.000000000000000000e+00,5.000000000000000000e+00,5.000000000000000000e+00,5.000000000000000000e+00,5.000000000000000000e+00,5.000000000000000000e+00,5.000000000000000000e+00,5.000000000000000000e+00,5.000000000000000000e+00,5.000000000000000000e+00,5.000000000000000000e+00,5.000000000000000000e+00,5.000000000000000000e+00,5.000000000000000000e+00,5.000000000000000000e+00,5.000000000000000000e+00,5.000000000000000000e+00,5.000000000000000000e+00,4.800865173339843750e+00,4.614880084991455078e+00,4.442767620086669922e+00,4.283030986785888672e+00,4.134382247924804688e+00,3.995705842971801758e+00,3.866030216217041016e+00,3.744507074356079102e+00,3.630390882492065430e+00,3.523024797439575195e+00,3.421826601028442383e+00,3.326279640197753906e+00,3.235924005508422852e+00,3.150346994400024414e+00,3.069180250167846680e+00,2.992090463638305664e+00,2.918778419494628906e+00,2.848973035812377930e+00,2.782428741455078125e+00,2.718922138214111328e+00,2.658249378204345703e+00,2.600225925445556641e+00,2.544680833816528320e+00,2.491459608078002930e+00
4.880053520202636719e+00,5.000000000000000000e+00,5.000000000000000000e+00,5.000000000000000000e+00,5.000000000000000000e+00,5.000000000000000000e+00,5.000000000000000000e+00,5.000000000000000000e+00,5.000000000000000000e+00,5.000000000000000000e+00,5.000000000000000000e+00,5.000000000000000000e+00,5.000000000000000000e+00,5.000000000000000000e+00,5.000000000000000000e+00,5.000000000000000000e+00,5.000000000000000000e+00,5.000000000000000000e+00,5.000000000000000000e+00,5.000000000000000000e+00,5.000000000000000000e+00,5.000000000000000000e+00,5.000000000000000000e+00,5.000000000000000000e+00,5.000000000000000000e+00,5.000000000000000000e+00,5.000000000000000000e+00,5.000000000000000000e+00,5.000000000000000000e+00,5.000000000000000000e+00,5.000000000000000000e+00,5.000000000000000000e+00,5.000000000000000000e+00,5.000000000000000000e+00,5.000000000000000000e+00,5.000000000000000000e+00,5.000000000000000000e+00,5.000000000000000000e+00,5.000000000000000000e+00,5.000000000000000000e+00,5.000000000000000000e+00,5.000000000000000000e+00,5.000000000000000000e+00,5.000000000000000000e+00,5.000000000000000000e+00,5.000000000000000000e+00,5.000000000000000000e+00,5.000000000000000000e+00,5.000000000000000000e+00,5.000000000000000000e+00,5.000000000000000000e+00,5.000000000000000000e+00,5.000000000000000000e+00,5.000000000000000000e+00,5.000000000000000000e+00,5.000000000000000000e+00,4.801058292388916016e+00,4.615058422088623047e+00,4.442932605743408203e+00,4.283184528350830078e+00,4.134525299072265625e+00,3.995839595794677734e+00,3.866155385971069336e+00,3.744624614715576172e+00,3.630501270294189453e+00,3.523128747940063477e+00,3.421924591064453125e+00,3.326372385025024414e+00,3.236011743545532227e+00,3.150430202484130859e+00,3.069258928298950195e+00,2.992165327072143555e+00,2.918849945068359375e+00,2.849041223526000977e+00,2.782493591308593750e+00,2.718983888626098633e+00,2.658308744430541992e+00,2.600282430648803711e+00,2.544735193252563477e+00,2.491511583328247070e+00
4.879927158355712891e+00,5.000000000000000000e+00,5.000000000000000000e+00,5.000000000000000000e+00,5.000000000000000000e+00,5.000000000000000000e+00,5.000000000000000000e+00,5.000000000000000000e+00,5.000000000000000000e+00,5.000000000000000000e+00,5.000000000000000000e+00,5.000000000000000000e+00,5.000000000000000000e+00,5.000000000000000000e+00,5.000000000000000000e+00,5.000000000000000000e+00,5.000000000000000000e+00,5.000000000000000000e+00,5.000000000000000000e+00,5.000000000000000000e+00,5.000000000000000000e+00,5.000000000000000000e+00,5.000000000000000000e+00,5.000000000000000000e+00,5.000000000000000000e+00,5.000000000000000000e+00,5.000000000000000000e+00,5.000000000000000000e+00,5.000000000000000000e+00,5.000000000000000000e+00,5.000000000000000000e+00,5.000000000000000000e+00,5.000000000000000000e+00,5.000000000000000000e+00,5.000000000000000000e+00,5.000000000000000000e+00,5.000000000000000000e+00,5.000000000000000000e+00,5.000000000000000000e+00,5.000000000000000000e+00,5.000000000000000000e+00,5.000000000000000000e+00,5.000000000000000000e+00,5.000000000000000000e+00,5.000000000000000000e+00,5.000000000000000000e+00,5.000000000000000000e+00,5.000000000000000000e+00,5.000000000000000000e+00,5.000000000000000000e+00,5.000000000000000000e+00,5.000000000000000000e+00,5.000000000000000000e+00,5.000000000000000000e+00,5.000000000000000000e+00,5.000000000000000000e+00,4.801251888275146484e+00,4.615236759185791016e+00,4.443098068237304688e+00,4.283338546752929688e+00,4.134668350219726562e+00,3.995973348617553711e+00,3.866280555725097656e+00,3.744741916656494141e+00,3.630612134933471680e+00,3.523232698440551758e+00,3.422022819519042969e+00,3.326464891433715820e+00,3.236099481582641602e+00,3.150513172149658203e+00,3.069337844848632812e+00,2.992240428924560547e+00,2.918921232223510742e+00,2.849109172821044922e+00,2.782558441162109375e+00,2.719045877456665039e+00,2.658367872238159180e+00,2.600339174270629883e+00,2.544789314270019531e+00,2.491563558578491211e+00
4.879800796508789062e+00,5.000000000000000000e+00,5.000000000000000000e+00,5.000000000000000000e+00,5.000000000000000000e+00,5.000000000000000000e+00,5.000000000000000000e+00,5.000000000000000000e+00,5.000000000000000000e+00,5.000000000000000000e+00,5.000000000000000000e+00,5.000000000000000000e+00,5.000000000000000000e+00,5.000000000000000000e+00,5.000000000000000000e+00,5.000000000000000000e+00,5.000000000000000000e+00,5.000000000000000000e+00,5.000000000000000000e+00,5.000000000000000000e+00,5.000000000000000000e+00,5.000000000000000000e+00,5.000000000000000000e+00,5.000000000000000000e+00,5.000000000000000000e+00,5.000000000000000000e+00,5.000000000000000000e+00,5.000000000000000000e+00,5.000000000000000000e+00,5.000000000000000000e+00,5.000000000000000000e+00,5.000000000000000000e+00,5.000000000000000000e+00,5.000000000000000000e+00,5.000000000000000000e+00,5.000000000000000000e+00,5.000000000000000000e+00,5.000000000000000000e+00,5.000000000000000000e+00,5.000000000000000000e+00,5.000000000000000000e+00,5.000000000000000000e+00,5.000000000000000000e+00,5.000000000000000000e+00,5.000000000000000000e+00,5.000000000000000000e+00,5.000000000000000000e+00,5.000000000000000000e+00,5.000000000000000000e+00,5.000000000000000000e+00,5.000000000000000000e+00,5.000000000000000000e+00,5.000000000000000000e+00,5.000000000000000000e+00,5.000000000000000000e+00,5.000000000000000000e+00,4.801445007324218750e+00,4.615415096282958984e+00,4.443263530731201172e+00,4.283492088317871094e+00,4.134811878204345703e+00,3.996107101440429688e+00,3.866405725479125977e+00,3.744859457015991211e+00,3.630722522735595703e+00,3.523336648941040039e+00,3.422120809555053711e+00,3.326557636260986328e+00,3.236187219619750977e+00,3.150596380233764648e+00,3.069416761398315430e+00,2.992315530776977539e+00,2.918992519378662109e+00,2.849177122116088867e+00,2.782623291015625000e+00,2.719107866287231445e+00,2.658427000045776367e+00,2.600395679473876953e+00,2.544843673706054688e+00,2.491615533828735352e+00
4.879673957824707031e+00,5.000000000000000000e+00,5.000000000000000000e+00,5.000000000000000000e+00,5.000000000000000000e+00,5.000000000000000000e+00,5.000000000000000000e+00,5.000000000000000000e+00,5.000000000000000000e+00,5.000000000000000000e+00,5.000000000000000000e+00,5.000000000000000000e+00,5.000000000000000000e+00,5.000000000000000000e+00,5.000000000000000000e+00,5.000000000000000000e+00,5.000000000000000000e+00,5.000000000000000000e+00,5.000000000000000000e+00,5.000000000000000000e+00,5.000000000000000000e+00,5.000000000000000000e+00,5.000000000000000000e+00,5.000000000000000000e+00,5.000000000000000000e+00,5.000000000000000000e+00,5.000000000000000000e+00,5.000000000000000000e+00,5.000000000000000000e+00,5.000000000000000000e+00,5.000000000000000000e+00,5.000000000000000000e+00,5.000000000000000000e+00,5.000000000000000000e+00,5.000000000000000000e+00,5.000000000000000000e+00,5.000000000000000000e+00,5.000000000000000000e+00,5.000000000000000000e+00,5.000000000000000000e+00,5.000000000000000000e+00,5.000000000000000000e+00,5.000000000000000000e+00,5.000000000000000000e+00,5.000000000000000000e+00,5.000000000000000000e+00,5.000000000000000000e+00,5.000000000000000000e+00,5.000000000000000000e+00,5.000000000000000000e+00,5.000000000000000000e+00,5.000000000000000000e+00,5.000000000000000000e+00,5.000000000000000000e+00,5.000000000000000000e+00,5.000000000000000000e+00,4.801638126373291016e+00,4.615593910217285156e+00,4.443428993225097656e+00,4.283645629882812500e+00,4.134954929351806641e+00,3.996240854263305664e+00,3.866531372070312500e+00,3.744976997375488281e+00,3.630832910537719727e+00,3.523440599441528320e+00,3.422219038009643555e+00,3.326650381088256836e+00,3.236274957656860352e+00,3.150679588317871094e+00,3.069495677947998047e+00,2.992390632629394531e+00,2.919064044952392578e+00,2.849245071411132812e+00,2.782688140869140625e+00,2.719169855117797852e+00,2.658486127853393555e+00,2.600452423095703125e+00,2.544898033142089844e+00,2.491667509078979492e+00
4.879627704620361328e+00,5.000000000000000000e+00,5.000000000000000000e+00,5.000000000000000000e+00,5.000000000000000000e+00,5.000000000000000000e+00,5.000000000000000000e+00,5.000000000000000000e+00,5.000000000000000000e+00,5.000000000000000000e+00,5.000000000000000000e+00,5.000000000000000000e+00,5.000000000000000000e+00,5.000000000000000000e+00,5.000000000000000000e+00,5.000000000000000000e+00,5.000000000000000000e+00,5.000000000000000000e+00,5.000000000000000000e+00,5.000000000000000000e+00,5.000000000000000000e+00,5.000000000000000000e+00,5.000000000000000000e+00,5.000000000000000000e+00,5.000000000000000000e+00,5.000000000000000000e+00,5.000000000000000000e+00,5.000000000000000000e+00,5.000000000000000000e+00,5.000000000000000000e+00,5.000000000000000000e+00,5.000000000000000000e+00,5.000000000000000000e+00,5.000000000000000000e+00,5.000000000000000000e+00,5.000000000000000000e+00,5.000000000000000000e+00,5.000000000000000000e+00,5.000000000000000000e+00,5.000000000000000000e+00,5.000000000000000000e+00,5.000000000000000000e+00,5.000000000000000000e+00,5.000000000000000000e+00,5.000000000000000000e+00,5.000000000000000000e+00,5.000000000000000000e+00,5.000000000000000000e+00,5.000000000000000000e+00,5.000000000000000000e+00,5.000000000000000000e+00,5.000000000000000000e+00,5.000000000000000000e+00,5.000000000000000000e+00,5.000000000000000000e+00,5.000000000000000000e+00,4.801831245422363281e+00,4.615772247314453125e+00,4.443593978881835938e+00,4.283799171447753906e+00,4.135097980499267578e+00,3.996374607086181641e+00,3.866656541824340820e+00,3.745094299316406250e+00,3.630943298339843750e+00,3.523544549942016602e+00,3.422317028045654297e+00,3.326743125915527344e+00,3.236362695693969727e+00,3.150763034820556641e+00,3.069574594497680664e+00,2.992465496063232422e+00,2.919135332107543945e+00,2.849313020706176758e+00,2.782752990722656250e+00,2.719231605529785156e+00,2.658545255661010742e+00,2.600508928298950195e+00,2.544952154159545898e+00,2.491719484329223633e+00
4.873078823089599609e+00,4.871862888336181641e+00,4.870647430419921875e+00,4.869432926177978516e+00,4.868218898773193359e+00,4.867005348205566406e+00,4.865792274475097656e+00,4.864579677581787109e+00,4.863368034362792969e+00,4.862157344818115234e+00,4.860946655273437500e+00,4.859736919403076172e+00,4.858527660369873047e+00,4.857318878173828125e+00,4.856110572814941406e+00,4.854903221130371094e+00,4.853696346282958984e+00,4.852489948272705078e+00,4.851284503936767578e+00,4.850079536437988281e+00,4.848874568939208984e+00,4.847671031951904297e+00,4.846467494964599609e+00,4.845264911651611328e+00,4.844062805175781250e+00,4.842861175537109375e+00,4.841660499572753906e+00,4.840459823608398438e+00,4.839260101318359375e+00,4.838060855865478516e+00,4.836862564086914062e+00,4.835664749145507812e+00,4.834467411041259766e+00,4.833270549774169922e+00,4.832074165344238281e+00,4.830878734588623047e+00,4.829683780670166016e+00,4.828489303588867188e+00,4.827295303344726562e+00,4.826102256774902344e+00,4.824909687042236328e+00,4.823717594146728516e+00,4.822525978088378906e+00,4.821335315704345703e+00,4.820145130157470703e+00,4.818955421447753906e+00,4.817766189575195312e+00,4.816577911376953125e+00,4.815389633178710938e+00,4.814202308654785156e+00,4.813015460968017578e+00,4.811829566955566406e+00,4.810644149780273438e+00,4.809459209442138672e+00,4.808274745941162109e+00,4.807090759277343750e+00,4.802023887634277344e+00,4.615950584411621094e+00,4.443759441375732422e+00,4.283953189849853516e+00,4.135241508483886719e+00,3.996508359909057617e+00,3.866781711578369141e+00,3.745211839675903320e+00,3.631053686141967773e+00,3.523648500442504883e+00,3.422415018081665039e+00,3.326835632324218750e+00,3.236450195312500000e+00,3.150846004486083984e+00,3.069653511047363281e+00,2.992540597915649414e+00,2.919206619262695312e+00,2.849381208419799805e+00,2.782817840576171875e+00,2.719293594360351562e+00,2.658604860305786133e+00,2.600565671920776367e+00,2.545006513595581055e+00,2.491771459579467773e+00
3.776987075805664062e+00,3.776256799697875977e+00,3.775526285171508789e+00,3.774796724319458008e+00,3.774066686630249023e+00,3.773337602615356445e+00,3.772608280181884766e+00,3.771879434585571289e+00,3.771151065826416016e+00,3.770422697067260742e+00,3.769694805145263672e+00,3.768967151641845703e+00,3.768239974975585938e+00,3.767512559890747070e+00,3.766785621643066406e+00,3.766059160232543945e+00,3.765332698822021484e+00,3.764606952667236328e+00,3.763880968093872070e+00,3.763155937194824219e+00,3.762430429458618164e+00,3.761705398559570312e+00,3.760981082916259766e+00,3.760256528854370117e+00,3.759532690048217773e+00,3.758808851242065430e+00,3.758085489273071289e+00,3.757362127304077148e+00,3.756639003753662109e+00,3.755916595458984375e+00,3.755194187164306641e+00,3.754472255706787109e+00,3.753750324249267578e+00,3.753028869628906250e+00,3.752307415008544922e+00,3.751586198806762695e+00,3.750865936279296875e+00,3.750145196914672852e+00,3.749425172805786133e+00,3.748705148696899414e+00,3.747985839843750000e+00,3.747266292572021484e+00,3.746546983718872070e+00,3.745828628540039062e+00,3.745109796524047852e+00,3.744391918182373047e+00,3.743673801422119141e+00,3.742956399917602539e+00,3.742238759994506836e+00,3.741521358489990234e+00,3.740804910659790039e+00,3.740087985992431641e+00,3.739372014999389648e+00,3.738655805587768555e+00,3.737940311431884766e+00,3.737224578857421875e+00,3.736509323120117188e+00,3.735794544219970703e+00,3.735079765319824219e+00,3.734365463256835938e+00,3.733651161193847656e+00,3.732937574386596680e+00,3.732223987579345703e+00,3.731510400772094727e+00,3.631164073944091797e+00,3.523752450942993164e+00,3.422513246536254883e+00,3.326928615570068359e+00,3.236537933349609375e+00,3.150929212570190430e+00,3.069732427597045898e+00,2.992615461349487305e+00,2.919277906417846680e+00,2.849449157714843750e+00,2.782882690429687500e+00,2.719355583190917969e+00,2.658663988113403320e+00,2.600622177124023438e+00,2.545060634613037109e+00,2.491823434829711914e+00
3.083436012268066406e+00,3.082949399948120117e+00,3.082462549209594727e+00,3.081976175308227539e+00,3.081489562988281250e+00,3.081003427505493164e+00,3.080517292022705078e+00,3.080031156539916992e+00,3.079545497894287109e+00,3.079059839248657227e+00,3.078574419021606445e+00,3.078088998794555664e+00,3.077603816986083984e+00,3.077118873596191406e+00,3.076633691787719727e+00,3.076149225234985352e+00,3.075664520263671875e+00,3.075180292129516602e+00,3.074695825576782227e+00,3.074211835861206055e+00,3.073727846145629883e+00,3.073243856430053711e+00,3.072760343551635742e+00,3.072276592254638672e+00,3.071793556213378906e+00,3.071310043334960938e+00,3.070827245712280273e+00,3.070344209671020508e+00,3.069861412048339844e+00,3.069378852844238281e+00,3.068896293640136719e+00,3.068414211273193359e+00,3.067931890487670898e+00,3.067450046539306641e+00,3.066968202590942383e+00,3.066486358642578125e+00,3.066004991531372070e+00,3.065523624420166016e+00,3.065042495727539062e+00,3.064561367034912109e+00,3.064080476760864258e+00,3.063599586486816406e+00,3.063118934631347656e+00,3.062638521194458008e+00,3.062158107757568359e+00,3.061677932739257812e+00,3.061197996139526367e+00,3.060718059539794922e+00,3.060238361358642578e+00,3.059758663177490234e+00,3.059279441833496094e+00,3.058799982070922852e+00,3.058320999145507812e+00,3.057841777801513672e+00,3.057363271713256836e+00,3.056884288787841797e+00,3.056405782699584961e+00,3.055927515029907227e+00,3.055449247360229492e+00,3.054971218109130859e+00,3.054493188858032227e+00,3.054015636444091797e+00,3.053537845611572266e+00,3.053060054779052734e+00,3.052582979202270508e+00,3.052105665206909180e+00,3.051628828048706055e+00,3.051151752471923828e+00,3.050674915313720703e+00,3.050198554992675781e+00,3.049721956253051758e+00,2.992690563201904297e+00,2.919349431991577148e+00,2.849517107009887695e+00,2.782947778701782227e+00,2.719417572021484375e+00,2.658723115921020508e+00,2.600678920745849609e+00,2.545114994049072266e+00,2.491875410079956055e+00
2.605077505111694336e+00,2.604730129241943359e+00,2.604382514953613281e+00,2.604035377502441406e+00,2.603688001632690430e+00,2.603340864181518555e+00,2.602993726730346680e+00,2.602646589279174805e+00,2.602299928665161133e+00,2.601953029632568359e+00,2.601606369018554688e+00,2.601259708404541016e+00,2.600913286209106445e+00,2.600566864013671875e+00,2.600220441818237305e+00,2.599874258041381836e+00,2.599528074264526367e+00,2.599182128906250000e+00,2.598835945129394531e+00,2.598490238189697266e+00,2.598144292831420898e+00,2.597798585891723633e+00,2.597453117370605469e+00,2.597107410430908203e+00,2.596762180328369141e+00,2.596416711807250977e+00,2.596071720123291016e+00,2.595726490020751953e+00,2.595381259918212891e+00,2.595036506652832031e+00,2.594691514968872070e+00,2.594347000122070312e+00,2.594002008438110352e+00,2.593657732009887695e+00,2.593312978744506836e+00,2.592968463897705078e+00,2.592624425888061523e+00,2.592280149459838867e+00,2.591936111450195312e+00,2.591591835021972656e+00,2.591248035430908203e+00,2.590904235839843750e+00,2.590560197830200195e+00,2.590216636657714844e+00,2.589873075485229492e+00,2.589529752731323242e+00,2.589186191558837891e+00,2.588843107223510742e+00,2.588499784469604492e+00,2.588156461715698242e+00,2.587813615798950195e+00,2.587470531463623047e+00,2.587127685546875000e+00,2.586784839630126953e+00,2.586442470550537109e+00,2.586099624633789062e+00,2.585757255554199219e+00,2.585414886474609375e+00,2.585072517395019531e+00,2.584730386734008789e+00,2.584388256072998047e+00,2.584046363830566406e+00,2.583704233169555664e+00,2.583362340927124023e+00,2.583020687103271484e+00,2.582678794860839844e+00,2.582337379455566406e+00,2.581995725631713867e+00,2.581654310226440430e+00,2.581313133239746094e+00,2.580971717834472656e+00,2.580630779266357422e+00,2.580289602279663086e+00,2.579948902130126953e+00,2.579607963562011719e+00,2.579267024993896484e+00,2.578926324844360352e+00,2.578585624694824219e+00,2.545169353485107422e+00,2.491927623748779297e+00
2.255208492279052734e+00,2.254948139190673828e+00,2.254687786102294922e+00,2.254427433013916016e+00,2.254167079925537109e+00,2.253906965255737305e+00,2.253646850585937500e+00,2.253386735916137695e+00,2.253126621246337891e+00,2.252866744995117188e+00,2.252606868743896484e+00,2.252346992492675781e+00,2.252087116241455078e+00,2.251827478408813477e+00,2.251567602157592773e+00,2.251308202743530273e+00,2.251048564910888672e+00,2.250789165496826172e+00,2.250529527664184570e+00,2.250270366668701172e+00,2.250010967254638672e+00,2.249751567840576172e+00,2.249492406845092773e+00,2.249233245849609375e+00,2.248974323272705078e+00,2.248715162277221680e+00,2.248456239700317383e+00,2.248197317123413086e+00,2.247938394546508789e+00,2.247679710388183594e+00,2.247421026229858398e+00,2.247162342071533203e+00,2.246903657913208008e+00,2.246645212173461914e+00,2.246386766433715820e+00,2.246128320693969727e+00,2.245869874954223633e+00,2.245611429214477539e+00,2.245353460311889648e+00,2.245095014572143555e+00,2.244837045669555664e+00,2.244578838348388672e+00,2.244320869445800781e+00,2.244062900543212891e+00,2.243804931640625000e+00,2.243547201156616211e+00,2.243289470672607422e+00,2.243031740188598633e+00,2.242774009704589844e+00,2.242516517639160156e+00,2.242259025573730469e+00,2.242001533508300781e+00,2.241744041442871094e+00,2.241486787796020508e+00,2.241229534149169922e+00,2.240972280502319336e+00,2.240715026855468750e+00,2.240457773208618164e+00,2.240200757980346680e+00,2.239943742752075195e+00,2.239686727523803711e+00,2.239429950714111328e+00,2.239173173904418945e+00,2.238916397094726562e+00,2.238659620285034180e+00,2.238402843475341797e+00,2.238146543502807617e+00,2.237889766693115234e+00,2.237633228302001953e+00,2.237376928329467773e+00,2.237120628356933594e+00,2.236864328384399414e+00,2.236608028411865234e+00,2.236351966857910156e+00,2.236095666885375977e+00,2.235839605331420898e+00,2.235583543777465820e+00,2.235327720642089844e+00,2.235071897506713867e+00,2.234816074371337891e+00
1.988189458847045898e+00,1.987987160682678223e+00,1.987784504890441895e+00,1.987582325935363770e+00,1.987380027770996094e+00,1.987177848815917969e+00,1.986975431442260742e+00,1.986773371696472168e+00,1.986571192741394043e+00,1.986369013786315918e+00,1.986166954040527344e+00,1.985965013504028320e+00,1.985763072967529297e+00,1.985561013221740723e+00,1.985359191894531250e+00,1.985157370567321777e+00,1.984955430030822754e+00,1.984753727912902832e+00,1.984552025794982910e+00,1.984350323677062988e+00,1.984148502349853516e+00,1.983947038650512695e+00,1.983745455741882324e+00,1.983543753623962402e+00,1.983342409133911133e+00,1.983140945434570312e+00,1.982939600944519043e+00,1.982738137245178223e+00,1.982536911964416504e+00,1.982335686683654785e+00,1.982134222984313965e+00,1.981933116912841797e+00,1.981732010841369629e+00,1.981530904769897461e+00,1.981329679489135742e+00,1.981128692626953125e+00,1.980927824974060059e+00,1.980726599693298340e+00,1.980525851249694824e+00,1.980324983596801758e+00,1.980124235153198242e+00,1.979923248291015625e+00,1.979722499847412109e+00,1.979521870613098145e+00,1.979321122169494629e+00,1.979120492935180664e+00,1.978919982910156250e+00,1.978719472885131836e+00,1.978518843650817871e+00,1.978318333625793457e+00,1.978118062019348145e+00,1.977917432785034180e+00,1.977717161178588867e+00,1.977516889572143555e+00,1.977316737174987793e+00,1.977116346359252930e+00,1.976916193962097168e+00,1.976716160774230957e+00,1.976515889167785645e+00,1.976315855979919434e+00,1.976115822792053223e+00,1.975915908813476562e+00,1.975715875625610352e+00,1.975515961647033691e+00,1.975316166877746582e+00,1.975116252899169922e+00,1.974916458129882812e+00,1.974716782569885254e+00,1.974516987800598145e+00,1.974317312240600586e+00,1.974117755889892578e+00,1.973918318748474121e+00,1.973718523979187012e+00,1.973519086837768555e+00,1.973319768905639648e+00,1.973120093345642090e+00,1.972920775413513184e+00,1.972721576690673828e+00,1.972522377967834473e+00,1.972322940826416016e+00
1.777706980705261230e+00,1.777545213699340820e+00,1.777383446693420410e+00,1.777221679687500000e+00,1.777059793472290039e+00,1.776898145675659180e+00,1.776736497879028320e+00,1.776574611663818359e+00,1.776413083076477051e+00,1.776251554489135742e+00,1.776090025901794434e+00,1.775928378105163574e+00,1.775766849517822266e+00,1.775605440139770508e+00,1.775443792343139648e+00,1.775282502174377441e+00,1.775121092796325684e+00,1.774959802627563477e+00,1.774798274040222168e+00,1.774636983871459961e+00,1.774475812911987305e+00,1.774314403533935547e+00,1.774153232574462891e+00,1.773992061614990234e+00,1.773831009864807129e+00,1.773669719696044922e+00,1.773508667945861816e+00,1.773347616195678711e+00,1.773186445236206055e+00,1.773025512695312500e+00,1.772864460945129395e+00,1.772703647613525391e+00,1.772542476654052734e+00,1.772381663322448730e+00,1.772220849990844727e+00,1.772059917449951172e+00,1.771899104118347168e+00,1.771738409996032715e+00,1.771577715873718262e+00,1.771416783332824707e+00,1.771256089210510254e+00,1.771095514297485352e+00,1.770934700965881348e+00,1.770774126052856445e+00,1.770613670349121094e+00,1.770453095436096191e+00,1.770292520523071289e+00,1.770132064819335938e+00,1.769971609115600586e+00,1.769811034202575684e+00,1.769650697708129883e+00,1.769490361213684082e+00,1.769330024719238281e+00,1.769169569015502930e+00,1.769009351730346680e+00,1.768849134445190430e+00,1.768688797950744629e+00,1.768528580665588379e+00,1.768368482589721680e+00,1.768208384513854980e+00,1.768048167228698730e+00,1.767888069152832031e+00,1.767728090286254883e+00,1.767567873001098633e+00,1.767408013343811035e+00,1.767248034477233887e+00,1.767088174819946289e+00,1.766928076744079590e+00,1.766768217086791992e+00,1.766608476638793945e+00,1.766448497772216797e+00,1.766288757324218750e+00,1.766129016876220703e+00,1.765969395637512207e+00,1.765809535980224609e+00,1.765649914741516113e+00,1.765490293502807617e+00,1.765330553054809570e+00,1.765171051025390625e+00,1.765011548995971680e+00
1.607524275779724121e+00,1.607391953468322754e+00,1.607259511947631836e+00,1.607127308845520020e+00,1.606994986534118652e+00,1.606862783432006836e+00,1.606730461120605469e+00,1.606598377227783203e+00,1.606466174125671387e+00,1.606333851814270020e+00,1.606201767921447754e+00,1.606069684028625488e+00,1.605937600135803223e+00,1.605805516242980957e+00,1.605673432350158691e+00,1.605541467666625977e+00,1.605409383773803711e+00,1.605277419090270996e+00,1.605145454406738281e+00,1.605013608932495117e+00,1.604881525039672852e+00,1.604749679565429688e+00,1.604617834091186523e+00,1.604485869407653809e+00,1.604354023933410645e+00,1.604222297668457031e+00,1.604090452194213867e+00,1.603958606719970703e+00,1.603826880455017090e+00,1.603695154190063477e+00,1.603563427925109863e+00,1.603431701660156250e+00,1.603300094604492188e+00,1.603168487548828125e+00,1.603036761283874512e+00,1.602905273437500000e+00,1.602773666381835938e+00,1.602642059326171875e+00,1.602510571479797363e+00,1.602379083633422852e+00,1.602247595787048340e+00,1.602115988731384277e+00,1.601984620094299316e+00,1.601853251457214355e+00,1.601721644401550293e+00,1.601590394973754883e+00,1.601459026336669922e+00,1.601327776908874512e+00,1.601196289062500000e+00,1.601065039634704590e+00,1.600933790206909180e+00,1.600802421569824219e+00,1.600671291351318359e+00,1.600540041923522949e+00,1.600408911705017090e+00,1.600277662277221680e+00,1.600146532058715820e+00,1.600015521049499512e+00,1.599884152412414551e+00,1.599753141403198242e+00,1.599622130393981934e+00,1.599491119384765625e+00,1.599359989166259766e+00,1.599229097366333008e+00,1.599098086357116699e+00,1.598967075347900391e+00,1.598836183547973633e+00,1.598705291748046875e+00,1.598574280738830566e+00,1.598443508148193359e+00,1.598312616348266602e+00,1.598181843757629395e+00,1.598050951957702637e+00,1.597920179367065430e+00,1.597789525985717773e+00,1.597658634185791016e+00,1.597527980804443359e+00,1.597397327423095703e+00,1.597266674041748047e+00,1.597135901451110840e+00
1.467078328132629395e+00,1.466968178749084473e+00,1.466858029365539551e+00,1.466747879981994629e+00,1.466637611389160156e+00,1.466527462005615234e+00,1.466417312622070312e+00,1.466307163238525391e+00,1.466197013854980469e+00,1.466086983680725098e+00,1.465976953506469727e+00,1.465866804122924805e+00,1.465756773948669434e+00,1.465646743774414062e+00,1.465536713600158691e+00,1.465426683425903320e+00,1.465316772460937500e+00,1.465206861495971680e+00,1.465096831321716309e+00,1.464986920356750488e+00,1.464877009391784668e+00,1.464766979217529297e+00,1.464657187461853027e+00,1.464547395706176758e+00,1.464437484741210938e+00,1.464327573776245117e+00,1.464217901229858398e+00,1.464108109474182129e+00,1.463998198509216309e+00,1.463888525962829590e+00,1.463778734207153320e+00,1.463669061660766602e+00,1.463559269905090332e+00,1.463449597358703613e+00,1.463339924812316895e+00,1.463230133056640625e+00,1.463120579719543457e+00,1.463011026382446289e+00,1.462901353836059570e+00,1.462791681289672852e+00,1.462682127952575684e+00,1.462572574615478516e+00,1.462463021278381348e+00,1.462353467941284180e+00,1.462244033813476562e+00,1.462134599685668945e+00,1.462024927139282227e+00,1.461915493011474609e+00,1.461806178092956543e+00,1.461696624755859375e+00,1.461587190628051758e+00,1.461477875709533691e+00,1.461368441581726074e+00,1.461259007453918457e+00,1.461149692535400391e+00,1.461040377616882324e+00,1.460931062698364258e+00,1.460821747779846191e+00,1.460712432861328125e+00,1.460603237152099609e+00,1.460493922233581543e+00,1.460384726524353027e+00,1.460275530815124512e+00,1.460166215896606445e+00,1.460057020187377930e+00,1.459947943687438965e+00,1.459838747978210449e+00,1.459729552268981934e+00,1.459620475769042969e+00,1.459511399269104004e+00,1.459402203559875488e+00,1.459293127059936523e+00,1.459184169769287109e+00,1.459075093269348145e+00,1.458966016769409180e+00,1.458857059478759766e+00,1.458748102188110352e+00,1.458639025688171387e+00,1.458530068397521973e+00,1.458421230316162109e+00
1.349201679229736328e+00,1.349108457565307617e+00,1.349015116691589355e+00,1.348922014236450195e+00,1.348828792572021484e+00,1.348735690116882324e+00,1.348642468452453613e+00,1.348549365997314453e+00,1.348456263542175293e+00,1.348363041877746582e+00,1.348269939422607422e+00,1.348176836967468262e+00,1.348083853721618652e+00,1.347990632057189941e+00,1.347897648811340332e+00,1.347804665565490723e+00,1.347711563110351562e+00,1.347618579864501953e+00,1.347525596618652344e+00,1.347432613372802734e+00,1.347339510917663574e+00,1.347246646881103516e+00,1.347153663635253906e+00,1.347060680389404297e+00,1.346967816352844238e+00,1.346874952316284180e+00,1.346781969070434570e+00,1.346689105033874512e+00,1.346596240997314453e+00,1.346503376960754395e+00,1.346410393714904785e+00,1.346317648887634277e+00,1.346224784851074219e+00,1.346132040023803711e+00,1.346039175987243652e+00,1.345946431159973145e+00,1.345853686332702637e+00,1.345760822296142578e+00,1.345668077468872070e+00,1.345575332641601562e+00,1.345482707023620605e+00,1.345389842987060547e+00,1.345297217369079590e+00,1.345204591751098633e+00,1.345111846923828125e+00,1.345019221305847168e+00,1.344926595687866211e+00,1.344833970069885254e+00,1.344741225242614746e+00,1.344648718833923340e+00,1.344556093215942383e+00,1.344463467597961426e+00,1.344370841979980469e+00,1.344278335571289062e+00,1.344185829162597656e+00,1.344093203544616699e+00,1.344000697135925293e+00,1.343908309936523438e+00,1.343815684318542480e+00,1.343723177909851074e+00,1.343630790710449219e+00,1.343538403511047363e+00,1.343445897102355957e+00,1.343353390693664551e+00,1.343261003494262695e+00,1.343168616294860840e+00,1.343076229095458984e+00,1.342983841896057129e+00,1.342891335487365723e+00,1.342799067497253418e+00,1.342706799507141113e+00,1.342614412307739258e+00,1.342522025108337402e+00,1.342429757118225098e+00,1.342337489128112793e+00,1.342245101928710938e+00,1.342152953147888184e+00,1.342060685157775879e+00,1.341968417167663574e+00,1.341876149177551270e+00
1.248858332633972168e+00,1.248778581619262695e+00,1.248698711395263672e+00,1.248618841171264648e+00,1.248538970947265625e+00,1.248459100723266602e+00,1.248379349708557129e+00,1.248299479484558105e+00,1.248219728469848633e+00,1.248139977455139160e+00,1.248060226440429688e+00,1.247980356216430664e+00,1.247900605201721191e+00,1.247820854187011719e+00,1.247741103172302246e+00,1.247661352157592773e+00,1.247581601142883301e+00,1.247501969337463379e+00,1.247422218322753906e+00,1.247342586517333984e+00,1.247262835502624512e+00,1.247183084487915039e+00,1.247103452682495117e+00,1.247023820877075195e+00,1.246944308280944824e+00,1.246864557266235352e+00,1.246784925460815430e+00,1.246705412864685059e+00,1.246625661849975586e+00,1.246546149253845215e+00,1.246466636657714844e+00,1.246387004852294922e+00,1.246307373046875000e+00,1.246227860450744629e+00,1.246148347854614258e+00,1.246068835258483887e+00,1.245989322662353516e+00,1.245909810066223145e+00,1.245830297470092773e+00,1.245750784873962402e+00,1.245671272277832031e+00,1.245591878890991211e+00,1.245512366294860840e+00,1.245432972908020020e+00,1.245353579521179199e+00,1.245274066925048828e+00,1.245194673538208008e+00,1.245115280151367188e+00,1.245035886764526367e+00,1.244956493377685547e+00,1.244877099990844727e+00,1.244797706604003906e+00,1.244718432426452637e+00,1.244639039039611816e+00,1.244559645652770996e+00,1.244480371475219727e+00,1.244400978088378906e+00,1.244321703910827637e+00,1.244242429733276367e+00,1.244163155555725098e+00,1.244083881378173828e+00,1.244004607200622559e+00,1.243925333023071289e+00,1.243846058845520020e+00,1.243766903877258301e+00,1.243687629699707031e+00,1.243608474731445312e+00,1.243529200553894043e+00,1.243450045585632324e+00,1.243370890617370605e+00,1.243291616439819336e+00,1.243212461471557617e+00,1.243133425712585449e+00,1.243054270744323730e+00,1.242974996566772461e+00,1.242895960807800293e+00,1.242816925048828125e+00,1.242737650871276855e+00,1.242658615112304688e+00,1.242579579353332520e+00
1.162407517433166504e+00,1.162338376045227051e+00,1.162269115447998047e+00,1.162199974060058594e+00,1.162130832672119141e+00,1.162061691284179688e+00,1.161992430686950684e+00,1.161923289299011230e+00,1.161854147911071777e+00,1.161785006523132324e+00,1.161715865135192871e+00,1.161646842956542969e+00,1.161577701568603516e+00,1.161508560180664062e+00,1.161439538002014160e+00,1.161370396614074707e+00,1.161301255226135254e+00,1.161232233047485352e+00,1.161163210868835449e+00,1.161094188690185547e+00,1.161025047302246094e+00,1.160956025123596191e+00,1.160887002944946289e+00,1.160817980766296387e+00,1.160748958587646484e+00,1.160680055618286133e+00,1.160611033439636230e+00,1.160542011260986328e+00,1.160472989082336426e+00,1.160404086112976074e+00,1.160335063934326172e+00,1.160266160964965820e+00,1.160197257995605469e+00,1.160128235816955566e+00,1.160059332847595215e+00,1.159990429878234863e+00,1.159921526908874512e+00,1.159852504730224609e+00,1.159783720970153809e+00,1.159714818000793457e+00,1.159645915031433105e+00,1.159577012062072754e+00,1.159508228302001953e+00,1.159439325332641602e+00,1.159370422363281250e+00,1.159301638603210449e+00,1.159232854843139648e+00,1.159163951873779297e+00,1.159095168113708496e+00,1.159026384353637695e+00,1.158957600593566895e+00,1.158888697624206543e+00,1.158819913864135742e+00,1.158751249313354492e+00,1.158682465553283691e+00,1.158613681793212891e+00,1.158544898033142090e+00,1.158476233482360840e+00,1.158407449722290039e+00,1.158338785171508789e+00,1.158270001411437988e+00,1.158201336860656738e+00,1.158132553100585938e+00,1.158063888549804688e+00,1.157995223999023438e+00,1.157926559448242188e+00,1.157857894897460938e+00,1.157789230346679688e+00,1.157720565795898438e+00,1.157651901245117188e+00,1.157583355903625488e+00,1.157514691352844238e+00,1.157446026802062988e+00,1.157377481460571289e+00,1.157308816909790039e+00,1.157240271568298340e+00,1.157171607017517090e+00,1.157103061676025391e+00,1.157034516334533691e+00,1.156965970993041992e+00
1.087150573730468750e+00,1.087090134620666504e+00,1.087029576301574707e+00,1.086969137191772461e+00,1.086908578872680664e+00,1.086848020553588867e+00,1.086787581443786621e+00,1.086727023124694824e+00,1.086666584014892578e+00,1.086606144905090332e+00,1.086545705795288086e+00,1.086485147476196289e+00,1.086424708366394043e+00,1.086364269256591797e+00,1.086303830146789551e+00,1.086243391036987305e+00,1.086182951927185059e+00,1.086122632026672363e+00,1.086062073707580566e+00,1.086001753807067871e+00,1.085941314697265625e+00,1.085880875587463379e+00,1.085820555686950684e+00,1.085760235786437988e+00,1.085699796676635742e+00,1.085639357566833496e+00,1.085579037666320801e+00,1.085518717765808105e+00,1.085458278656005859e+00,1.085397958755493164e+00,1.085337638854980469e+00,1.085277438163757324e+00,1.085216999053955078e+00,1.085156679153442383e+00,1.085096478462219238e+00,1.085036039352416992e+00,1.084975838661193848e+00,1.084915518760681152e+00,1.084855318069458008e+00,1.084794998168945312e+00,1.084734678268432617e+00,1.084674477577209473e+00,1.084614157676696777e+00,1.084553956985473633e+00,1.084493756294250488e+00,1.084433436393737793e+00,1.084373235702514648e+00,1.084313035011291504e+00,1.084252834320068359e+00,1.084192514419555664e+00,1.084132432937622070e+00,1.084072232246398926e+00,1.084012031555175781e+00,1.083951830863952637e+00,1.083891630172729492e+00,1.083831548690795898e+00,1.083771347999572754e+00,1.083711147308349609e+00,1.083651065826416016e+00,1.083590865135192871e+00,1.083530783653259277e+00,1.083470582962036133e+00,1.083410501480102539e+00,1.083350300788879395e+00,1.083290219306945801e+00,1.083230137825012207e+00,1.083170056343078613e+00,1.083109974861145020e+00,1.083049893379211426e+00,1.082989811897277832e+00,1.082929730415344238e+00,1.082869648933410645e+00,1.082809686660766602e+00,1.082749605178833008e+00,1.082689523696899414e+00,1.082629561424255371e+00,1.082569479942321777e+00,1.082509398460388184e+00,1.082449436187744141e+00,1.082389473915100098e+00
1.021045804023742676e+00,1.020992517471313477e+00,1.020938992500305176e+00,1.020885705947875977e+00,1.020832300186157227e+00,1.020779013633728027e+00,1.020725607872009277e+00,1.020672202110290527e+00,1.020618915557861328e+00,1.020565509796142578e+00,1.020512223243713379e+00,1.020458817481994629e+00,1.020405530929565430e+00,1.020352125167846680e+00,1.020298838615417480e+00,1.020245552062988281e+00,1.020192265510559082e+00,1.020138978958129883e+00,1.020085692405700684e+00,1.020032405853271484e+00,1.019979000091552734e+00,1.019925832748413086e+00,1.019872546195983887e+00,1.019819259643554688e+00,1.019765973091125488e+00,1.019712686538696289e+00,1.019659519195556641e+00,1.019606232643127441e+00,1.019552946090698242e+00,1.019499778747558594e+00,1.019446492195129395e+00,1.019393324851989746e+00,1.019340038299560547e+00,1.019286870956420898e+00,1.019233584403991699e+00,1.019180417060852051e+00,1.019127249717712402e+00,1.019073963165283203e+00,1.019020795822143555e+00,1.018967628479003906e+00,1.018914580345153809e+00,1.018861293792724609e+00,1.018808126449584961e+00,1.018755078315734863e+00,1.018701791763305664e+00,1.018648743629455566e+00,1.018595576286315918e+00,1.018542408943176270e+00,1.018489241600036621e+00,1.018436193466186523e+00,1.018383026123046875e+00,1.018329858779907227e+00,1.018276810646057129e+00,1.018223762512207031e+00,1.018170595169067383e+00,1.018117547035217285e+00,1.018064379692077637e+00,1.018011331558227539e+00,1.017958283424377441e+00,1.017905235290527344e+00,1.017852187156677246e+00,1.017799139022827148e+00,1.017745971679687500e+00,1.017693042755126953e+00,1.017639994621276855e+00,1.017586827278137207e+00,1.017533898353576660e+00,1.017480850219726562e+00,1.017427802085876465e+00,1.017374753952026367e+00,1.017321825027465820e+00,1.017268776893615723e+00,1.017215728759765625e+00,1.017162799835205078e+00,1.017109870910644531e+00,1.017056822776794434e+00,1.017003893852233887e+00,1.016950845718383789e+00,1.016897916793823242e+00,1.016844987869262695e+00
9.625193476676940918e-01,9.624719619750976562e-01,9.624244570732116699e-01,9.623770713806152344e-01,9.623296260833740234e-01,9.622821211814880371e-01,9.622347950935363770e-01,9.621873497962951660e-01,9.621399044990539551e-01,9.620925188064575195e-01,9.620450735092163086e-01,9.619976878166198730e-01,9.619503617286682129e-01,9.619029164314270020e-01,9.618554711341857910e-01,9.618081450462341309e-01,9.617607593536376953e-01,9.617134332656860352e-01,9.616660475730895996e-01,9.616186618804931641e-01,9.615713357925415039e-01,9.615239500999450684e-01,9.614765644073486328e-01,9.614292979240417480e-01,9.613819122314453125e-01,9.613345265388488770e-01,9.612873196601867676e-01,9.612399339675903320e-01,9.611925482749938965e-01,9.611453413963317871e-01,9.610979557037353516e-01,9.610507488250732422e-01,9.610033631324768066e-01,9.609560370445251465e-01,9.609088301658630371e-01,9.608615040779113770e-01,9.608141779899597168e-01,9.607669711112976074e-01,9.607196450233459473e-01,9.606723189353942871e-01,9.606251716613769531e-01,9.605778455734252930e-01,9.605305790901184082e-01,9.604833722114562988e-01,9.604361057281494141e-01,9.603888988494873047e-01,9.603416323661804199e-01,9.602943658828735352e-01,9.602472186088562012e-01,9.601999521255493164e-01,9.601526856422424316e-01,9.601055383682250977e-01,9.600582718849182129e-01,9.600110650062561035e-01,9.599639177322387695e-01,9.599166512489318848e-01,9.598694443702697754e-01,9.598223567008972168e-01,9.597750902175903320e-01,9.597280025482177734e-01,9.596807956695556641e-01,9.596335887908935547e-01,9.595865011215209961e-01,9.595392942428588867e-01,9.594920873641967773e-01,9.594449996948242188e-01,9.593978524208068848e-01,9.593506455421447754e-01,9.593035578727722168e-01,9.592564105987548828e-01,9.592092633247375488e-01,9.591621756553649902e-01,9.591150283813476562e-01,9.590680003166198730e-01,9.590208530426025391e-01,9.589737057685852051e-01,9.589266777038574219e-01,9.588795304298400879e-01,9.588323831558227539e-01,9.587854146957397461e-01
9.103385806083679199e-01,9.102962017059326172e-01,9.102537035942077637e-01,9.102112650871276855e-01,9.101688861846923828e-01,9.101264476776123047e-01,9.100839495658874512e-01,9.100416302680969238e-01,9.099991917610168457e-01,9.099566936492919922e-01,9.099143743515014648e-01,9.098719358444213867e-01,9.098296165466308594e-01,9.097871780395507812e-01,9.097447395324707031e-01,9.097024202346801758e-01,9.096599817276000977e-01,9.096176028251647949e-01,9.095752835273742676e-01,9.095328450202941895e-01,9.094904661178588867e-01,9.094481468200683594e-01,9.094057679176330566e-01,9.093633890151977539e-01,9.093210697174072266e-01,9.092786908149719238e-01,9.092364311218261719e-01,9.091940522193908691e-01,9.091516733169555664e-01,9.091094136238098145e-01,9.090670347213745117e-01,9.090246558189392090e-01,9.089824557304382324e-01,9.089400768280029297e-01,9.088977575302124023e-01,9.088554978370666504e-01,9.088131189346313477e-01,9.087707996368408203e-01,9.087285995483398438e-01,9.086862802505493164e-01,9.086440205574035645e-01,9.086017012596130371e-01,9.085593819618225098e-01,9.085171818733215332e-01,9.084748625755310059e-01,9.084325432777404785e-01,9.083903431892395020e-01,9.083480834960937500e-01,9.083057641983032227e-01,9.082635641098022461e-01,9.082213044166564941e-01,9.081790447235107422e-01,9.081368446350097656e-01,9.080945849418640137e-01,9.080523848533630371e-01,9.080101251602172852e-01,9.079678654670715332e-01,9.079257249832153320e-01,9.078834652900695801e-01,9.078412055969238281e-01,9.077990651130676270e-01,9.077568054199218750e-01,9.077146053314208984e-01,9.076724648475646973e-01,9.076302051544189453e-01,9.075880050659179688e-01,9.075458645820617676e-01,9.075036644935607910e-01,9.074614644050598145e-01,9.074193239212036133e-01,9.073771238327026367e-01,9.073350429534912109e-01,9.072928428649902344e-01,9.072506427764892578e-01,9.072085618972778320e-01,9.071663618087768555e-01,9.071241617202758789e-01,9.070820808410644531e-01,9.070399403572082520e-01,9.069977402687072754e-01
8.635246157646179199e-01,8.634864091873168945e-01,8.634482622146606445e-01,8.634100556373596191e-01,8.633718490600585938e-01,8.633337020874023438e-01,8.632954955101013184e-01,8.632572889328002930e-01,8.632192015647888184e-01,8.631809949874877930e-01,8.631429076194763184e-01,8.631047010421752930e-01,8.630665540695190430e-01,8.630284667015075684e-01,8.629902601242065430e-01,8.629521131515502930e-01,8.629140257835388184e-01,8.628758192062377930e-01,8.628376722335815430e-01,8.627995848655700684e-01,8.627614378929138184e-01,8.627232909202575684e-01,8.626852035522460938e-01,8.626470565795898438e-01,8.626090288162231445e-01,8.625708818435668945e-01,8.625327348709106445e-01,8.624947071075439453e-01,8.624565601348876953e-01,8.624184727668762207e-01,8.623803853988647461e-01,8.623422980308532715e-01,8.623041510581970215e-01,8.622661232948303223e-01,8.622280359268188477e-01,8.621899485588073730e-01,8.621519207954406738e-01,8.621138334274291992e-01,8.620758056640625000e-01,8.620377182960510254e-01,8.619996309280395508e-01,8.619616031646728516e-01,8.619235157966613770e-01,8.618854880332946777e-01,8.618474602699279785e-01,8.618093729019165039e-01,8.617713451385498047e-01,8.617333769798278809e-01,8.616952896118164062e-01,8.616572022438049316e-01,8.616192340850830078e-01,8.615812063217163086e-01,8.615432381629943848e-01,8.615052103996276855e-01,8.614671826362609863e-01,8.614292144775390625e-01,8.613911867141723633e-01,8.613531589508056641e-01,8.613151907920837402e-01,8.612771630287170410e-01,8.612391352653503418e-01,8.612012267112731934e-01,8.611631989479064941e-01,8.611251711845397949e-01,8.610872626304626465e-01,8.610492348670959473e-01,8.610113263130187988e-01,8.609733581542968750e-01,8.609353303909301758e-01,8.608974218368530273e-01,8.608594536781311035e-01,8.608214855194091797e-01,8.607835769653320312e-01,8.607456088066101074e-01,8.607076406478881836e-01,8.606697320938110352e-01,8.606317639350891113e-01,8.605937957763671875e-01,8.605559468269348145e-01,8.605179786682128906e-01
8.212899565696716309e-01,8.212553858757019043e-01,8.212208151817321777e-01,8.211863040924072266e-01,8.211517333984375000e-01,8.211172819137573242e-01,8.210827112197875977e-01,8.210481405258178711e-01,8.210136890411376953e-01,8.209791183471679688e-01,8.209446072578430176e-01,8.209100961685180664e-01,8.208755850791931152e-01,8.208410739898681641e-01,8.208065629005432129e-01,8.207720518112182617e-01,8.207375407218933105e-01,8.207030892372131348e-01,8.206685781478881836e-01,8.206341266632080078e-01,8.205996155738830566e-01,8.205651044845581055e-01,8.205306529998779297e-01,8.204961419105529785e-01,8.204616308212280273e-01,8.204272389411926270e-01,8.203927278518676758e-01,8.203582167625427246e-01,8.203237652778625488e-01,8.202893137931823730e-01,8.202548027038574219e-01,8.202204108238220215e-01,8.201858997344970703e-01,8.201515078544616699e-01,8.201170563697814941e-01,8.200825452804565430e-01,8.200481534004211426e-01,8.200137019157409668e-01,8.199792504310607910e-01,8.199448585510253906e-01,8.199104070663452148e-01,8.198759555816650391e-01,8.198415637016296387e-01,8.198071122169494629e-01,8.197726607322692871e-01,8.197382688522338867e-01,8.197038173675537109e-01,8.196694850921630859e-01,8.196350336074829102e-01,8.196006417274475098e-01,8.195662498474121094e-01,8.195318579673767090e-01,8.194974064826965332e-01,8.194630742073059082e-01,8.194286227226257324e-01,8.193942308425903320e-01,8.193598985671997070e-01,8.193254470825195312e-01,8.192910552024841309e-01,8.192567229270935059e-01,8.192223310470581055e-01,8.191879987716674805e-01,8.191536068916320801e-01,8.191192150115966797e-01,8.190848827362060547e-01,8.190505504608154297e-01,8.190161585807800293e-01,8.189818263053894043e-01,8.189474344253540039e-01,8.189131021499633789e-01,8.188787698745727539e-01,8.188443779945373535e-01,8.188100457191467285e-01,8.187757730484008789e-01,8.187413811683654785e-01,8.187070488929748535e-01,8.186727762222290039e-01,8.186383843421936035e-01,8.186041116714477539e-01,8.185697793960571289e-01
7.829939723014831543e-01,7.829626202583312988e-01,7.829312086105346680e-01,7.828998565673828125e-01,7.828684449195861816e-01,7.828370332717895508e-01,7.828056812286376953e-01,7.827742695808410645e-01,7.827428579330444336e-01,7.827115058898925781e-01,7.826800942420959473e-01,7.826486825942993164e-01,7.826173901557922363e-01,7.825859785079956055e-01,7.825546264648437500e-01,7.825232744216918945e-01,7.824918627738952637e-01,7.824605703353881836e-01,7.824292182922363281e-01,7.823978066444396973e-01,7.823665142059326172e-01,7.823351621627807617e-01,7.823037505149841309e-01,7.822724580764770508e-01,7.822411060333251953e-01,7.822097539901733398e-01,7.821784615516662598e-01,7.821471095085144043e-01,7.821156978607177734e-01,7.820844650268554688e-01,7.820531129837036133e-01,7.820218205451965332e-01,7.819904685020446777e-01,7.819591164588928223e-01,7.819278240203857422e-01,7.818965315818786621e-01,7.818651795387268066e-01,7.818338871002197266e-01,7.818025946617126465e-01,7.817712426185607910e-01,7.817400097846984863e-01,7.817086577415466309e-01,7.816773653030395508e-01,7.816460728645324707e-01,7.816147804260253906e-01,7.815835475921630859e-01,7.815522551536560059e-01,7.815209031105041504e-01,7.814896702766418457e-01,7.814583778381347656e-01,7.814270853996276855e-01,7.813958525657653809e-01,7.813645601272583008e-01,7.813332676887512207e-01,7.813020348548889160e-01,7.812707424163818359e-01,7.812394499778747559e-01,7.812082767486572266e-01,7.811769843101501465e-01,7.811457514762878418e-01,7.811144590377807617e-01,7.810832262039184570e-01,7.810519933700561523e-01,7.810207605361938477e-01,7.809894680976867676e-01,7.809582948684692383e-01,7.809270024299621582e-01,7.808957695960998535e-01,7.808645963668823242e-01,7.808333039283752441e-01,7.808020710945129395e-01,7.807708978652954102e-01,7.807396650314331055e-01,7.807084918022155762e-01,7.806771993637084961e-01,7.806459665298461914e-01,7.806147933006286621e-01,7.805835604667663574e-01,7.805523276329040527e-01,7.805212140083312988e-01
7.481102943420410156e-01,7.480816841125488281e-01,7.480530142784118652e-01,7.480243444442749023e-01,7.479957342147827148e-01,7.479670643806457520e-01,7.479383349418640137e-01,7.479097247123718262e-01,7.478810548782348633e-01,7.478523850440979004e-01,7.478238344192504883e-01,7.477951645851135254e-01,7.477665543556213379e-01,7.477378845214843750e-01,7.477092146873474121e-01,7.476806640625000000e-01,7.476519942283630371e-01,7.476233243942260742e-01,7.475947141647338867e-01,7.475661039352416992e-01,7.475374341011047363e-01,7.475088834762573242e-01,7.474802136421203613e-01,7.474516034126281738e-01,7.474229931831359863e-01,7.473943829536437988e-01,7.473658323287963867e-01,7.473371624946594238e-01,7.473085522651672363e-01,7.472800016403198242e-01,7.472513914108276367e-01,7.472227811813354492e-01,7.471942305564880371e-01,7.471655607223510742e-01,7.471369504928588867e-01,7.471083998680114746e-01,7.470797896385192871e-01,7.470511794090270996e-01,7.470226883888244629e-01,7.469940781593322754e-01,7.469655275344848633e-01,7.469369173049926758e-01,7.469083070755004883e-01,7.468798160552978516e-01,7.468512058258056641e-01,7.468225955963134766e-01,7.467941045761108398e-01,7.467654943466186523e-01,7.467369437217712402e-01,7.467083930969238281e-01,7.466798424720764160e-01,7.466512322425842285e-01,7.466227412223815918e-01,7.465941309928894043e-01,7.465656399726867676e-01,7.465370893478393555e-01,7.465085387229919434e-01,7.464800477027893066e-01,7.464514374732971191e-01,7.464228868484497070e-01,7.463943958282470703e-01,7.463658452033996582e-01,7.463372945785522461e-01,7.463088035583496094e-01,7.462802529335021973e-01,7.462517023086547852e-01,7.462232112884521484e-01,7.461946606636047363e-01,7.461661696434020996e-01,7.461376786231994629e-01,7.461091279983520508e-01,7.460806965827941895e-01,7.460521459579467773e-01,7.460235953330993652e-01,7.459951639175415039e-01,7.459666132926940918e-01,7.459381222724914551e-01,7.459096312522888184e-01,7.458811402320861816e-01,7.458525896072387695e-01
7.162023186683654785e-01,7.161760330200195312e-01,7.161498069763183594e-01,7.161235213279724121e-01,7.160972356796264648e-01,7.160710096359252930e-01,7.160447239875793457e-01,7.160184383392333984e-01,7.159922122955322266e-01,7.159659862518310547e-01,7.159397602081298828e-01,7.159134745597839355e-01,7.158871889114379883e-01,7.158610224723815918e-01,7.158347368240356445e-01,7.158084511756896973e-01,7.157822847366333008e-01,7.157559990882873535e-01,7.157297134399414062e-01,7.157035470008850098e-01,7.156772613525390625e-01,7.156510353088378906e-01,7.156248688697814941e-01,7.155985832214355469e-01,7.155724167823791504e-01,7.155461311340332031e-01,7.155199050903320312e-01,7.154937386512756348e-01,7.154675126075744629e-01,7.154412269592285156e-01,7.154150605201721191e-01,7.153888344764709473e-01,7.153626084327697754e-01,7.153364419937133789e-01,7.153102159500122070e-01,7.152839899063110352e-01,7.152578234672546387e-01,7.152315974235534668e-01,7.152054309844970703e-01,7.151792049407958984e-01,7.151529788970947266e-01,7.151268720626831055e-01,7.151006460189819336e-01,7.150744199752807617e-01,7.150482535362243652e-01,7.150220870971679688e-01,7.149958610534667969e-01,7.149696946144104004e-01,7.149435281753540039e-01,7.149173021316528320e-01,7.148911952972412109e-01,7.148649692535400391e-01,7.148388624191284180e-01,7.148126363754272461e-01,7.147864699363708496e-01,7.147603631019592285e-01,7.147341370582580566e-01,7.147079706192016602e-01,7.146818637847900391e-01,7.146556377410888672e-01,7.146294713020324707e-01,7.146033644676208496e-01,7.145771980285644531e-01,7.145510315895080566e-01,7.145249247550964355e-01,7.144987583160400391e-01,7.144726514816284180e-01,7.144464850425720215e-01,7.144203186035156250e-01,7.143942117691040039e-01,7.143680453300476074e-01,7.143418788909912109e-01,7.143157720565795898e-01,7.142896056175231934e-01,7.142634987831115723e-01,7.142373919486999512e-01,7.142112255096435547e-01,7.141851186752319336e-01,7.141590118408203125e-01,7.141328454017639160e-01
6.869049072265625000e-01,6.868807077407836914e-01,6.868565082550048828e-01,6.868323683738708496e-01,6.868082284927368164e-01,6.867840886116027832e-01,6.867598891258239746e-01,6.867357492446899414e-01,6.867116093635559082e-01,6.866874694824218750e-01,6.866632699966430664e-01,6.866391301155090332e-01,6.866149902343750000e-01,6.865908503532409668e-01,6.865667104721069336e-01,6.865425705909729004e-01,6.865183711051940918e-01,6.864942908287048340e-01,6.864701509475708008e-01,6.864460110664367676e-01,6.864218711853027344e-01,6.863977313041687012e-01,6.863736510276794434e-01,6.863495111465454102e-01,6.863253712654113770e-01,6.863012313842773438e-01,6.862770915031433105e-01,6.862529516220092773e-01,6.862288713455200195e-01,6.862047314643859863e-01,6.861805915832519531e-01,6.861565113067626953e-01,6.861324310302734375e-01,6.861083507537841797e-01,6.860842108726501465e-01,6.860600709915161133e-01,6.860359907150268555e-01,6.860118508338928223e-01,6.859877705574035645e-01,6.859636902809143066e-01,6.859395503997802734e-01,6.859154701232910156e-01,6.858913898468017578e-01,6.858672499656677246e-01,6.858431696891784668e-01,6.858190894126892090e-01,6.857950091361999512e-01,6.857709288597106934e-01,6.857468485832214355e-01,6.857227683067321777e-01,6.856986880302429199e-01,6.856746077537536621e-01,6.856504678726196289e-01,6.856264472007751465e-01,6.856023669242858887e-01,6.855782866477966309e-01,6.855542063713073730e-01,6.855301260948181152e-01,6.855060458183288574e-01,6.854820251464843750e-01,6.854579448699951172e-01,6.854339241981506348e-01,6.854098439216613770e-01,6.853857636451721191e-01,6.853617429733276367e-01,6.853376626968383789e-01,6.853135824203491211e-01,6.852895617485046387e-01,6.852654814720153809e-01,6.852414011955261230e-01,6.852173805236816406e-01,6.851933002471923828e-01,6.851692795753479004e-01,6.851452589035034180e-01,6.851211786270141602e-01,6.850971579551696777e-01,6.850731372833251953e-01,6.850490570068359375e-01,6.850250959396362305e-01,6.850010156631469727e-01
6.599100828170776367e-01,6.598877906799316406e-01,6.598654985427856445e-01,6.598432064056396484e-01,6.598209142684936523e-01,6.597986221313476562e-01,6.597763299942016602e-01,6.597540378570556641e-01,6.597316861152648926e-01,6.597094535827636719e-01,6.596871614456176758e-01,6.596648693084716797e-01,6.596425771713256836e-01,6.596202850341796875e-01,6.595979928970336914e-01,6.595757603645324707e-01,6.595534086227416992e-01,6.595311760902404785e-01,6.595088839530944824e-01,6.594865918159484863e-01,6.594643592834472656e-01,6.594420671463012695e-01,6.594197750091552734e-01,6.593975424766540527e-01,6.593752503395080566e-01,6.593529582023620605e-01,6.593307256698608398e-01,6.593084335327148438e-01,6.592862010002136230e-01,6.592639684677124023e-01,6.592416763305664062e-01,6.592194437980651855e-01,6.591971516609191895e-01,6.591749191284179688e-01,6.591526865959167480e-01,6.591303944587707520e-01,6.591081023216247559e-01,6.590859293937683105e-01,6.590636372566223145e-01,6.590414047241210938e-01,6.590191721916198730e-01,6.589969396591186523e-01,6.589746475219726562e-01,6.589524149894714355e-01,6.589301824569702148e-01,6.589080095291137695e-01,6.588857173919677734e-01,6.588634848594665527e-01,6.588412523269653320e-01,6.588190197944641113e-01,6.587967872619628906e-01,6.587745547294616699e-01,6.587523221969604492e-01,6.587300896644592285e-01,6.587079167366027832e-01,6.586856842041015625e-01,6.586634516716003418e-01,6.586412191390991211e-01,6.586189866065979004e-01,6.585968136787414551e-01,6.585745811462402344e-01,6.585523486137390137e-01,6.585301756858825684e-01,6.585079431533813477e-01,6.584857106208801270e-01,6.584635376930236816e-01,6.584413051605224609e-01,6.584190726280212402e-01,6.583968997001647949e-01,6.583747267723083496e-01,6.583524942398071289e-01,6.583303213119506836e-01,6.583080887794494629e-01,6.582859158515930176e-01,6.582637429237365723e-01,6.582415103912353516e-01,6.582193374633789062e-01,6.581971645355224609e-01,6.581749320030212402e-01,6.581528186798095703e-01
6.349568367004394531e-01,6.349362134933471680e-01,6.349155902862548828e-01,6.348949074745178223e-01,6.348742842674255371e-01,6.348536014556884766e-01,6.348329782485961914e-01,6.348123550415039062e-01,6.347917318344116211e-01,6.347710490226745605e-01,6.347504258155822754e-01,6.347298026084899902e-01,6.347091794013977051e-01,6.346885561943054199e-01,6.346678733825683594e-01,6.346473097801208496e-01,6.346266269683837891e-01,6.346060037612915039e-01,6.345853805541992188e-01,6.345647573471069336e-01,6.345441341400146484e-01,6.345235109329223633e-01,6.345028877258300781e-01,6.344822645187377930e-01,6.344616413116455078e-01,6.344410181045532227e-01,6.344204545021057129e-01,6.343998312950134277e-01,6.343792080879211426e-01,6.343585848808288574e-01,6.343379616737365723e-01,6.343173384666442871e-01,6.342967748641967773e-01,6.342761516571044922e-01,6.342555284500122070e-01,6.342349648475646973e-01,6.342143416404724121e-01,6.341937184333801270e-01,6.341731548309326172e-01,6.341525316238403320e-01,6.341319680213928223e-01,6.341113448143005371e-01,6.340907812118530273e-01,6.340702176094055176e-01,6.340495944023132324e-01,6.340289711952209473e-01,6.340084075927734375e-01,6.339878439903259277e-01,6.339672207832336426e-01,6.339466571807861328e-01,6.339260935783386230e-01,6.339054703712463379e-01,6.338849067687988281e-01,6.338643431663513184e-01,6.338437795639038086e-01,6.338232159614562988e-01,6.338025927543640137e-01,6.337820291519165039e-01,6.337614655494689941e-01,6.337409019470214844e-01,6.337203383445739746e-01,6.336997747421264648e-01,6.336791515350341797e-01,6.336586475372314453e-01,6.336380243301391602e-01,6.336174607276916504e-01,6.335969567298889160e-01,6.335763335227966309e-01,6.335557699203491211e-01,6.335352659225463867e-01,6.335147023200988770e-01,6.334941387176513672e-01,6.334735751152038574e-01,6.334530115127563477e-01,6.334325075149536133e-01,6.334119439125061035e-01,6.333913803100585938e-01,6.333708167076110840e-01,6.333503127098083496e-01,6.333297491073608398e-01
