5.000000000000000000e+00,5.000000000000000000e+00,5.000000000000000000e+00,5.000000000000000000e+00,5.000000000000000000e+00,5.000000000000000000e+00,5.000000000000000000e+00,5.000000000000000000e+00,5.000000000000000000e+00,5.000000000000000000e+00,5.000000000000000000e+00,5.000000000000000000e+00,5.000000000000000000e+00,5.000000000000000000e+00,5.000000000000000000e+00,5.000000000000000000e+00,5.000000000000000000e+00,5.000000000000000000e+00,5.000000000000000000e+00,5.000000000000000000e+00,5.000000000000000000e+00,5.000000000000000000e+00,5.000000000000000000e+00,5.000000000000000000e+00,5.000000000000000000e+00,5.000000000000000000e+00,5.000000000000000000e+00,5.000000000000000000e+00,5.000000000000000000e+00,5.000000000000000000e+00,5.000000000000000000e+00,5.000000000000000000e+00,5.000000000000000000e+00,5.000000000000000000e+00,5.000000000000000000e+00,5.000000000000000000e+00,5.000000000000000000e+00,5.000000000000000000e+00,5.000000000000000000e+00,5.000000000000000000e+00,5.000000000000000000e+00,5.000000000000000000e+00,5.000000000000000000e+00,5.000000000000000000e+00,5.000000000000000000e+00,5.000000000000000000e+00,5.000000000000000000e+00,5.000000000000000000e+00,5.000000000000000000e+00,5.000000000000000000e+00,5.000000000000000000e+00,5.000000000000000000e+00,5.000000000000000000e+00,5.000000000000000000e+00,5.000000000000000000e+00,5.000000000000000000e+00,5.000000000000000000e+00,4.603250026702880859e+00,4.432006359100341797e+00,4.273046493530273438e+00,4.125094413757324219e+00,9.292072653770446777e-01,9.067478179931640625e-01,9.871006608009338379e-01,1.016282320022583008e+00,1.001777172088623047e+00,9.876804351806640625e-01,9.808027744293212891e-01,9.812036156654357910e-01,9.807848930358886719e-01,9.798231720924377441e-01,9.766054153442382812e-01,9.866107702255249023e-01,1.007095932960510254e+00,1.024233579635620117e+00,1.010506868362426758e+00,9.971432685852050781e-01,9.953404664993286133e-01,9.976450800895690918e-01,9.999603033065795898e-01
4.891108036041259766e+00,5.000000000000000000e+00,5.000000000000000000e+00,5.000000000000000000e+00,5.000000000000000000e+00,5.000000000000000000e+00,5.000000000000000000e+00,5.000000000000000000e+00,5.000000000000000000e+00,5.000000000000000000e+00,5.000000000000000000e+00,5.000000000000000000e+00,5.000000000000000000e+00,5.000000000000000000e+00,5.000000000000000000e+00,5.000000000000000000e+00,5.000000000000000000e+00,5.000000000000000000e+00,5.000000000000000000e+00,5.000000000000000000e+00,5.000000000000000000e+00,5.000000000000000000e+00,5.000000000000000000e+00,5.000000000000000000e+00,5.000000000000000000e+00,5.000000000000000000e+00,5.000000000000000000e+00,5.000000000000000000e+00,5.000000000000000000e+00,5.000000000000000000e+00,5.000000000000000000e+00,5.000000000000000000e+00,5.000000000000000000e+00,5.000000000000000000e+00,5.000000000000000000e+00,5.000000000000000000e+00,5.000000000000000000e+00,5.000000000000000000e+00,5.000000000000000000e+00,5.000000000000000000e+00,5.000000000000000000e+00,5.000000000000000000e+00,5.000000000000000000e+00,5.000000000000000000e+00,5.000000000000000000e+00,5.000000000000000000e+00,5.000000000000000000e+00,5.000000000000000000e+00,5.000000000000000000e+00,5.000000000000000000e+00,5.000000000000000000e+00,5.000000000000000000e+00,5.000000000000000000e+00,5.000000000000000000e+00,5.000000000000000000e+00,5.000000000000000000e+00,4.788413524627685547e+00,4.603393554687500000e+00,4.432139396667480469e+00,4.273169994354248047e+00,9.590435624122619629e-01,9.298732280731201172e-01,9.078127145767211914e-01,9.965018033981323242e-01,1.019079923629760742e+00,1.004495382308959961e+00,9.899443387985229492e-01,9.881640672683715820e-01,9.885709881782531738e-01,9.889783263206481934e-01,9.889937043190002441e-01,9.969878792762756348e-01,1.018182992935180664e+00,1.036818027496337891e+00,1.022944808006286621e+00,1.009437918663024902e+00,9.969062209129333496e-01,9.971711039543151855e-01,9.999155998229980469e-01,1.002675175666809082e+00
4.890981197357177734e+00,5.000000000000000000e+00,5.000000000000000000e+00,5.000000000000000000e+00,5.000000000000000000e+00,5.000000000000000000e+00,5.000000000000000000e+00,5.000000000000000000e+00,5.000000000000000000e+00,5.000000000000000000e+00,5.000000000000000000e+00,5.000000000000000000e+00,5.000000000000000000e+00,5.000000000000000000e+00,5.000000000000000000e+00,5.000000000000000000e+00,5.000000000000000000e+00,5.000000000000000000e+00,5.000000000000000000e+00,5.000000000000000000e+00,5.000000000000000000e+00,5.000000000000000000e+00,5.000000000000000000e+00,5.000000000000000000e+00,5.000000000000000000e+00,5.000000000000000000e+00,5.000000000000000000e+00,5.000000000000000000e+00,5.000000000000000000e+00,5.000000000000000000e+00,5.000000000000000000e+00,5.000000000000000000e+00,5.000000000000000000e+00,5.000000000000000000e+00,5.000000000000000000e+00,5.000000000000000000e+00,5.000000000000000000e+00,5.000000000000000000e+00,5.000000000000000000e+00,5.000000000000000000e+00,5.000000000000000000e+00,5.000000000000000000e+00,5.000000000000000000e+00,5.000000000000000000e+00,5.000000000000000000e+00,5.000000000000000000e+00,5.000000000000000000e+00,5.000000000000000000e+00,5.000000000000000000e+00,5.000000000000000000e+00,5.000000000000000000e+00,5.000000000000000000e+00,5.000000000000000000e+00,5.000000000000000000e+00,5.000000000000000000e+00,4.989098072052001953e+00,4.788568973541259766e+00,4.603536605834960938e+00,4.432271957397460938e+00,4.273293495178222656e+00,9.603097438812255859e-01,9.327324032783508301e-01,9.114962220191955566e-01,1.036990642547607422e+00,1.021892905235290527e+00,1.006946444511413574e+00,9.961618185043334961e-01,9.956589341163635254e-01,9.960498213768005371e-01,9.964632987976074219e-01,1.000126481056213379e+00,1.029308557510375977e+00,1.050411939620971680e+00,1.035953760147094727e+00,1.022103428840637207e+00,1.008618593215942383e+00,9.972097277641296387e-01,9.985648989677429199e-01,1.001317024230957031e+00,1.004084467887878418e+00
4.890854835510253906e+00,5.000000000000000000e+00,5.000000000000000000e+00,5.000000000000000000e+00,5.000000000000000000e+00,5.000000000000000000e+00,5.000000000000000000e+00,5.000000000000000000e+00,5.000000000000000000e+00,5.000000000000000000e+00,5.000000000000000000e+00,5.000000000000000000e+00,5.000000000000000000e+00,5.000000000000000000e+00,5.000000000000000000e+00,5.000000000000000000e+00,5.000000000000000000e+00,5.000000000000000000e+00,5.000000000000000000e+00,5.000000000000000000e+00,5.000000000000000000e+00,5.000000000000000000e+00,5.000000000000000000e+00,5.000000000000000000e+00,5.000000000000000000e+00,5.000000000000000000e+00,5.000000000000000000e+00,5.000000000000000000e+00,5.000000000000000000e+00,5.000000000000000000e+00,5.000000000000000000e+00,5.000000000000000000e+00,5.000000000000000000e+00,5.000000000000000000e+00,5.000000000000000000e+00,5.000000000000000000e+00,5.000000000000000000e+00,5.000000000000000000e+00,5.000000000000000000e+00,5.000000000000000000e+00,5.000000000000000000e+00,5.000000000000000000e+00,5.000000000000000000e+00,5.000000000000000000e+00,5.000000000000000000e+00,5.000000000000000000e+00,5.000000000000000000e+00,5.000000000000000000e+00,5.000000000000000000e+00,5.000000000000000000e+00,5.000000000000000000e+00,5.000000000000000000e+00,5.000000000000000000e+00,5.000000000000000000e+00,5.000000000000000000e+00,4.989266395568847656e+00,4.788723945617675781e+00,4.603679656982421875e+00,4.432404994964599609e+00,4.273416996002197266e+00,9.449816942214965820e-01,9.411692619323730469e-01,1.057873129844665527e+00,1.039903521537780762e+00,1.024542927742004395e+00,1.009284019470214844e+00,1.003804087638854980e+00,1.003293395042419434e+00,1.003642678260803223e+00,1.004062533378601074e+00,1.024765968322753906e+00,1.073471188545227051e+00,1.049722909927368164e+00,1.035090684890747070e+00,1.021263360977172852e+00,1.008850336074829102e+00,9.975132942199707031e-01,9.999625682830810547e-01,1.002722382545471191e+00,1.005052566528320312e+00
4.890727996826171875e+00,5.000000000000000000e+00,5.000000000000000000e+00,5.000000000000000000e+00,5.000000000000000000e+00,5.000000000000000000e+00,5.000000000000000000e+00,5.000000000000000000e+00,5.000000000000000000e+00,5.000000000000000000e+00,5.000000000000000000e+00,5.000000000000000000e+00,5.000000000000000000e+00,5.000000000000000000e+00,5.000000000000000000e+00,5.000000000000000000e+00,5.000000000000000000e+00,5.000000000000000000e+00,5.000000000000000000e+00,5.000000000000000000e+00,5.000000000000000000e+00,5.000000000000000000e+00,5.000000000000000000e+00,5.000000000000000000e+00,5.000000000000000000e+00,5.000000000000000000e+00,5.000000000000000000e+00,5.000000000000000000e+00,5.000000000000000000e+00,5.000000000000000000e+00,5.000000000000000000e+00,5.000000000000000000e+00,5.000000000000000000e+00,5.000000000000000000e+00,5.000000000000000000e+00,5.000000000000000000e+00,5.000000000000000000e+00,5.000000000000000000e+00,5.000000000000000000e+00,5.000000000000000000e+00,5.000000000000000000e+00,5.000000000000000000e+00,5.000000000000000000e+00,5.000000000000000000e+00,5.000000000000000000e+00,5.000000000000000000e+00,5.000000000000000000e+00,5.000000000000000000e+00,5.000000000000000000e+00,5.000000000000000000e+00,5.000000000000000000e+00,5.000000000000000000e+00,5.000000000000000000e+00,5.000000000000000000e+00,5.000000000000000000e+00,4.989434242248535156e+00,4.788878917694091797e+00,4.603823184967041016e+00,4.432538032531738281e+00,4.273540496826171875e+00,9.426904916763305664e-01,1.081938505172729492e+00,1.058912873268127441e+00,1.042765378952026367e+00,1.026962995529174805e+00,1.012083530426025391e+00,1.011564493179321289e+00,1.011045932769775391e+00,1.011352181434631348e+00,1.011778473854064941e+00,1.050469398498535156e+00,1.072751522064208984e+00,1.049034714698791504e+00,1.034229278564453125e+00,1.020765900611877441e+00,1.009160995483398438e+00,9.986116886138916016e-01,1.001364111900329590e+00,1.003883838653564453e+00,1.005746126174926758e+00
4.890601634979248047e+00,5.000000000000000000e+00,5.000000000000000000e+00,5.000000000000000000e+00,5.000000000000000000e+00,5.000000000000000000e+00,5.000000000000000000e+00,5.000000000000000000e+00,5.000000000000000000e+00,5.000000000000000000e+00,5.000000000000000000e+00,5.000000000000000000e+00,5.000000000000000000e+00,5.000000000000000000e+00,5.000000000000000000e+00,5.000000000000000000e+00,5.000000000000000000e+00,5.000000000000000000e+00,5.000000000000000000e+00,5.000000000000000000e+00,5.000000000000000000e+00,5.000000000000000000e+00,5.000000000000000000e+00,5.000000000000000000e+00,5.000000000000000000e+00,5.000000000000000000e+00,5.000000000000000000e+00,5.000000000000000000e+00,5.000000000000000000e+00,5.000000000000000000e+00,5.000000000000000000e+00,5.000000000000000000e+00,5.000000000000000000e+00,5.000000000000000000e+00,5.000000000000000000e+00,5.000000000000000000e+00,5.000000000000000000e+00,5.000000000000000000e+00,5.000000000000000000e+00,5.000000000000000000e+00,5.000000000000000000e+00,5.000000000000000000e+00,5.000000000000000000e+00,5.000000000000000000e+00,5.000000000000000000e+00,5.000000000000000000e+00,5.000000000000000000e+00,5.000000000000000000e+00,5.000000000000000000e+00,5.000000000000000000e+00,5.000000000000000000e+00,5.000000000000000000e+00,5.000000000000000000e+00,5.000000000000000000e+00,5.000000000000000000e+00,4.989602565765380859e+00,4.789034366607666016e+00,4.603966712951660156e+00,4.432671070098876953e+00,9.771728515625000000e-01,1.106374025344848633e+00,1.083012819290161133e+00,1.061596035957336426e+00,1.045272350311279297e+00,1.029394507408142090e+00,1.019973039627075195e+00,1.019445896148681641e+00,1.018919229507446289e+00,1.019181013107299805e+00,1.038145065307617188e+00,1.096384406089782715e+00,1.072022795677185059e+00,1.048347592353820801e+00,1.033369183540344238e+00,1.021084070205688477e+00,1.009472012519836426e+00,1.000009536743164062e+00,1.002717971801757812e+00,1.004575729370117188e+00,1.006440520286560059e+00
4.890475273132324219e+00,5.000000000000000000e+00,5.000000000000000000e+00,5.000000000000000000e+00,5.000000000000000000e+00,5.000000000000000000e+00,5.000000000000000000e+00,5.000000000000000000e+00,5.000000000000000000e+00,5.000000000000000000e+00,5.000000000000000000e+00,5.000000000000000000e+00,5.000000000000000000e+00,5.000000000000000000e+00,5.000000000000000000e+00,5.000000000000000000e+00,5.000000000000000000e+00,5.000000000000000000e+00,5.000000000000000000e+00,5.000000000000000000e+00,5.000000000000000000e+00,5.000000000000000000e+00,5.000000000000000000e+00,5.000000000000000000e+00,5.000000000000000000e+00,5.000000000000000000e+00,5.000000000000000000e+00,5.000000000000000000e+00,5.000000000000000000e+00,5.000000000000000000e+00,5.000000000000000000e+00,5.000000000000000000e+00,5.000000000000000000e+00,5.000000000000000000e+00,5.000000000000000000e+00,5.000000000000000000e+00,5.000000000000000000e+00,5.000000000000000000e+00,5.000000000000000000e+00,5.000000000000000000e+00,5.000000000000000000e+00,5.000000000000000000e+00,5.000000000000000000e+00,5.000000000000000000e+00,5.000000000000000000e+00,5.000000000000000000e+00,5.000000000000000000e+00,5.000000000000000000e+00,5.000000000000000000e+00,5.000000000000000000e+00,5.000000000000000000e+00,5.000000000000000000e+00,5.000000000000000000e+00,5.000000000000000000e+00,5.000000000000000000e+00,4.989771366119384766e+00,4.789194107055664062e+00,4.604198932647705078e+00,4.432963848114013672e+00,4.274008750915527344e+00,1.107881307601928711e+00,1.084369897842407227e+00,1.064469099044799805e+00,1.047799944877624512e+00,1.031837582588195801e+00,1.027986526489257812e+00,1.027451038360595703e+00,1.026916146278381348e+00,1.027132034301757812e+00,1.066237211227416992e+00,1.095370888710021973e+00,1.071053624153137207e+00,1.047661185264587402e+00,1.033292293548583984e+00,1.021402478218078613e+00,1.009783267974853516e+00,1.001411318778991699e+00,1.003408193588256836e+00,1.005268692970275879e+00,1.007135868072509766e+00
4.890348434448242188e+00,5.000000000000000000e+00,5.000000000000000000e+00,5.000000000000000000e+00,5.000000000000000000e+00,5.000000000000000000e+00,5.000000000000000000e+00,5.000000000000000000e+00,5.000000000000000000e+00,5.000000000000000000e+00,5.000000000000000000e+00,5.000000000000000000e+00,5.000000000000000000e+00,5.000000000000000000e+00,5.000000000000000000e+00,5.000000000000000000e+00,5.000000000000000000e+00,5.000000000000000000e+00,5.000000000000000000e+00,5.000000000000000000e+00,5.000000000000000000e+00,5.000000000000000000e+00,5.000000000000000000e+00,5.000000000000000000e+00,5.000000000000000000e+00,5.000000000000000000e+00,5.000000000000000000e+00,5.000000000000000000e+00,5.000000000000000000e+00,5.000000000000000000e+00,5.000000000000000000e+00,5.000000000000000000e+00,5.000000000000000000e+00,5.000000000000000000e+00,5.000000000000000000e+00,5.000000000000000000e+00,5.000000000000000000e+00,5.000000000000000000e+00,5.000000000000000000e+00,5.000000000000000000e+00,5.000000000000000000e+00,5.000000000000000000e+00,5.000000000000000000e+00,5.000000000000000000e+00,5.000000000000000000e+00,5.000000000000000000e+00,5.000000000000000000e+00,5.000000000000000000e+00,5.000000000000000000e+00,5.000000000000000000e+00,5.000000000000000000e+00,5.000000000000000000e+00,5.000000000000000000e+00,5.000000000000000000e+00,5.000000000000000000e+00,4.990052223205566406e+00,4.789538860321044922e+00,4.604516983032226562e+00,4.433258533477783203e+00,4.274237632751464844e+00,1.109555363655090332e+00,1.085973501205444336e+00,1.067782878875732422e+00,1.051010608673095703e+00,1.037204861640930176e+00,1.036255955696105957e+00,1.035582780838012695e+00,1.035039424896240234e+00,1.046279072761535645e+00,3.145681381225585938e+00,1.094359159469604492e+00,1.070086359977722168e+00,1.046616435050964355e+00,1.033405780792236328e+00,1.021468281745910645e+00,1.009803414344787598e+00,1.002640008926391602e+00,1.004453301429748535e+00,1.006273031234741211e+00,1.008099436759948730e+00
4.890201091766357422e+00,5.000000000000000000e+00,5.000000000000000000e+00,5.000000000000000000e+00,5.000000000000000000e+00,5.000000000000000000e+00,5.000000000000000000e+00,5.000000000000000000e+00,5.000000000000000000e+00,5.000000000000000000e+00,5.000000000000000000e+00,5.000000000000000000e+00,5.000000000000000000e+00,5.000000000000000000e+00,5.000000000000000000e+00,5.000000000000000000e+00,5.000000000000000000e+00,5.000000000000000000e+00,5.000000000000000000e+00,5.000000000000000000e+00,5.000000000000000000e+00,5.000000000000000000e+00,5.000000000000000000e+00,5.000000000000000000e+00,5.000000000000000000e+00,5.000000000000000000e+00,5.000000000000000000e+00,5.000000000000000000e+00,5.000000000000000000e+00,5.000000000000000000e+00,5.000000000000000000e+00,5.000000000000000000e+00,5.000000000000000000e+00,5.000000000000000000e+00,5.000000000000000000e+00,5.000000000000000000e+00,5.000000000000000000e+00,5.000000000000000000e+00,5.000000000000000000e+00,5.000000000000000000e+00,5.000000000000000000e+00,5.000000000000000000e+00,5.000000000000000000e+00,5.000000000000000000e+00,5.000000000000000000e+00,5.000000000000000000e+00,5.000000000000000000e+00,5.000000000000000000e+00,5.000000000000000000e+00,5.000000000000000000e+00,5.000000000000000000e+00,5.000000000000000000e+00,5.000000000000000000e+00,5.000000000000000000e+00,5.000000000000000000e+00,4.990426063537597656e+00,4.789883136749267578e+00,4.604775905609130859e+00,4.433421134948730469e+00,1.134224891662597656e+00,1.111234307289123535e+00,1.088542819023132324e+00,1.071117281913757324e+00,1.053712129592895508e+00,1.046185851097106934e+00,1.045230269432067871e+00,1.044296741485595703e+00,1.043365001678466797e+00,1.079168438911437988e+00,3.145748615264892578e+00,1.092909097671508789e+00,1.068067550659179688e+00,1.045230627059936523e+00,1.033019900321960449e+00,1.021091341972351074e+00,1.010305404663085938e+00,1.004188537597656250e+00,1.006007313728332520e+00,1.007832765579223633e+00,1.010659337043762207e+00
4.890049457550048828e+00,5.000000000000000000e+00,5.000000000000000000e+00,5.000000000000000000e+00,5.000000000000000000e+00,5.000000000000000000e+00,5.000000000000000000e+00,5.000000000000000000e+00,5.000000000000000000e+00,5.000000000000000000e+00,5.000000000000000000e+00,5.000000000000000000e+00,5.000000000000000000e+00,5.000000000000000000e+00,5.000000000000000000e+00,5.000000000000000000e+00,5.000000000000000000e+00,5.000000000000000000e+00,5.000000000000000000e+00,5.000000000000000000e+00,5.000000000000000000e+00,5.000000000000000000e+00,5.000000000000000000e+00,5.000000000000000000e+00,5.000000000000000000e+00,5.000000000000000000e+00,5.000000000000000000e+00,5.000000000000000000e+00,5.000000000000000000e+00,5.000000000000000000e+00,5.000000000000000000e+00,5.000000000000000000e+00,5.000000000000000000e+00,5.000000000000000000e+00,5.000000000000000000e+00,5.000000000000000000e+00,5.000000000000000000e+00,5.000000000000000000e+00,5.000000000000000000e+00,5.000000000000000000e+00,5.000000000000000000e+00,5.000000000000000000e+00,5.000000000000000000e+00,5.000000000000000000e+00,5.000000000000000000e+00,5.000000000000000000e+00,5.000000000000000000e+00,5.000000000000000000e+00,5.000000000000000000e+00,5.000000000000000000e+00,5.000000000000000000e+00,5.000000000000000000e+00,5.000000000000000000e+00,5.000000000000000000e+00,5.000000000000000000e+00,4.990722656250000000e+00,4.790065288543701172e+00,4.604919910430908203e+00,4.433554172515869141e+00,1.136254668235778809e+00,1.112918496131896973e+00,1.092008471488952637e+00,1.074472784996032715e+00,1.056663632392883301e+00,1.055323600769042969e+00,1.054361343383789062e+00,1.053411602973937988e+00,1.061336398124694824e+00,3.231133222579956055e+00,3.145815849304199219e+00,1.090416431427001953e+00,1.065686821937561035e+00,1.044835925102233887e+00,1.032634377479553223e+00,1.020877122879028320e+00,1.011858582496643066e+00,1.005741715431213379e+00,1.007566213607788086e+00,1.009397268295288086e+00,2.488683462142944336e+00
4.889898777008056641e+00,5.000000000000000000e+00,5.000000000000000000e+00,5.000000000000000000e+00,5.000000000000000000e+00,5.000000000000000000e+00,5.000000000000000000e+00,5.000000000000000000e+00,5.000000000000000000e+00,5.000000000000000000e+00,5.000000000000000000e+00,5.000000000000000000e+00,5.000000000000000000e+00,5.000000000000000000e+00,5.000000000000000000e+00,5.000000000000000000e+00,5.000000000000000000e+00,5.000000000000000000e+00,5.000000000000000000e+00,5.000000000000000000e+00,5.000000000000000000e+00,5.000000000000000000e+00,5.000000000000000000e+00,5.000000000000000000e+00,5.000000000000000000e+00,5.000000000000000000e+00,5.000000000000000000e+00,5.000000000000000000e+00,5.000000000000000000e+00,5.000000000000000000e+00,5.000000000000000000e+00,5.000000000000000000e+00,5.000000000000000000e+00,5.000000000000000000e+00,5.000000000000000000e+00,5.000000000000000000e+00,5.000000000000000000e+00,5.000000000000000000e+00,5.000000000000000000e+00,5.000000000000000000e+00,5.000000000000000000e+00,5.000000000000000000e+00,5.000000000000000000e+00,5.000000000000000000e+00,5.000000000000000000e+00,5.000000000000000000e+00,5.000000000000000000e+00,5.000000000000000000e+00,5.000000000000000000e+00,5.000000000000000000e+00,5.000000000000000000e+00,5.000000000000000000e+00,5.000000000000000000e+00,5.000000000000000000e+00,5.000000000000000000e+00,4.990891456604003906e+00,4.790221214294433594e+00,4.605063438415527344e+00,4.433687686920166016e+00,1.138291478157043457e+00,1.114607691764831543e+00,1.095496296882629395e+00,1.075267195701599121e+00,1.065986037254333496e+00,1.064622521400451660e+00,1.063653469085693359e+00,1.062686800956726074e+00,1.100935935974121094e+00,3.231204032897949219e+00,3.145882606506347656e+00,1.087935090065002441e+00,1.063316583633422852e+00,1.044441461563110352e+00,1.032249093055725098e+00,1.022462964057922363e+00,1.013416528701782227e+00,1.007299780845642090e+00,1.009130001068115234e+00,1.012341737747192383e+00,2.488725662231445312e+00
4.889747142791748047e+00,5.000000000000000000e+00,5.000000000000000000e+00,5.000000000000000000e+00,5.000000000000000000e+00,5.000000000000000000e+00,5.000000000000000000e+00,5.000000000000000000e+00,5.000000000000000000e+00,5.000000000000000000e+00,5.000000000000000000e+00,5.000000000000000000e+00,5.000000000000000000e+00,5.000000000000000000e+00,5.000000000000000000e+00,5.000000000000000000e+00,5.000000000000000000e+00,5.000000000000000000e+00,5.000000000000000000e+00,5.000000000000000000e+00,5.000000000000000000e+00,5.000000000000000000e+00,5.000000000000000000e+00,5.000000000000000000e+00,5.000000000000000000e+00,5.000000000000000000e+00,5.000000000000000000e+00,5.000000000000000000e+00,5.000000000000000000e+00,5.000000000000000000e+00,5.000000000000000000e+00,5.000000000000000000e+00,5.000000000000000000e+00,5.000000000000000000e+00,5.000000000000000000e+00,5.000000000000000000e+00,5.000000000000000000e+00,5.000000000000000000e+00,5.000000000000000000e+00,5.000000000000000000e+00,5.000000000000000000e+00,5.000000000000000000e+00,5.000000000000000000e+00,5.000000000000000000e+00,5.000000000000000000e+00,5.000000000000000000e+00,5.000000000000000000e+00,5.000000000000000000e+00,5.000000000000000000e+00,5.000000000000000000e+00,5.000000000000000000e+00,5.000000000000000000e+00,5.000000000000000000e+00,5.000000000000000000e+00,5.000000000000000000e+00,4.991060733795166016e+00,4.790377140045166016e+00,4.605207443237304688e+00,4.433821201324462891e+00,1.140335798263549805e+00,1.117358803749084473e+00,1.097564935684204102e+00,1.076866269111633301e+00,1.075474619865417480e+00,1.074096441268920898e+00,1.073110699653625488e+00,1.086865425109863281e+00,3.321357250213623047e+00,3.231274604797363281e+00,3.145949840545654297e+00,1.087284922599792480e+00,1.060956954956054688e+00,1.044047355651855469e+00,1.033292055130004883e+00,1.024053812026977539e+00,1.014979243278503418e+00,1.008862733840942383e+00,1.010842561721801758e+00,1.015538454055786133e+00,2.488767623901367188e+00
4.889595985412597656e+00,5.000000000000000000e+00,5.000000000000000000e+00,5.000000000000000000e+00,5.000000000000000000e+00,5.000000000000000000e+00,5.000000000000000000e+00,5.000000000000000000e+00,5.000000000000000000e+00,5.000000000000000000e+00,5.000000000000000000e+00,5.000000000000000000e+00,5.000000000000000000e+00,5.000000000000000000e+00,5.000000000000000000e+00,5.000000000000000000e+00,5.000000000000000000e+00,5.000000000000000000e+00,5.000000000000000000e+00,5.000000000000000000e+00,5.000000000000000000e+00,5.000000000000000000e+00,5.000000000000000000e+00,5.000000000000000000e+00,5.000000000000000000e+00,5.000000000000000000e+00,5.000000000000000000e+00,5.000000000000000000e+00,5.000000000000000000e+00,5.000000000000000000e+00,5.000000000000000000e+00,5.000000000000000000e+00,5.000000000000000000e+00,5.000000000000000000e+00,5.000000000000000000e+00,5.000000000000000000e+00,5.000000000000000000e+00,5.000000000000000000e+00,5.000000000000000000e+00,5.000000000000000000e+00,5.000000000000000000e+00,5.000000000000000000e+00,5.000000000000000000e+00,5.000000000000000000e+00,5.000000000000000000e+00,5.000000000000000000e+00,5.000000000000000000e+00,5.000000000000000000e+00,5.000000000000000000e+00,5.000000000000000000e+00,5.000000000000000000e+00,5.000000000000000000e+00,5.000000000000000000e+00,5.000000000000000000e+00,5.000000000000000000e+00,4.991229534149169922e+00,4.790532588958740234e+00,4.605351448059082031e+00,1.164486527442932129e+00,1.142387390136718750e+00,1.120806932449340820e+00,1.097722649574279785e+00,1.086550354957580566e+00,1.085133671760559082e+00,1.083741188049316406e+00,1.089547634124755859e+00,3.416685342788696289e+00,3.321431875228881836e+00,3.231345653533935547e+00,1.118735671043395996e+00,1.086979866027832031e+00,1.058607816696166992e+00,1.044353127479553223e+00,1.034916758537292480e+00,1.025649547576904297e+00,1.016546845436096191e+00,1.010430574417114258e+00,1.014029741287231445e+00,1.018755435943603516e+00,2.488809585571289062e+00
4.889444828033447266e+00,5.000000000000000000e+00,5.000000000000000000e+00,5.000000000000000000e+00,5.000000000000000000e+00,5.000000000000000000e+00,5.000000000000000000e+00,5.000000000000000000e+00,5.000000000000000000e+00,5.000000000000000000e+00,5.000000000000000000e+00,5.000000000000000000e+00,5.000000000000000000e+00,5.000000000000000000e+00,5.000000000000000000e+00,5.000000000000000000e+00,5.000000000000000000e+00,5.000000000000000000e+00,5.000000000000000000e+00,5.000000000000000000e+00,5.000000000000000000e+00,5.000000000000000000e+00,5.000000000000000000e+00,5.000000000000000000e+00,5.000000000000000000e+00,5.000000000000000000e+00,5.000000000000000000e+00,5.000000000000000000e+00,5.000000000000000000e+00,5.000000000000000000e+00,5.000000000000000000e+00,5.000000000000000000e+00,5.000000000000000000e+00,5.000000000000000000e+00,5.000000000000000000e+00,5.000000000000000000e+00,5.000000000000000000e+00,5.000000000000000000e+00,5.000000000000000000e+00,5.000000000000000000e+00,5.000000000000000000e+00,5.000000000000000000e+00,5.000000000000000000e+00,5.000000000000000000e+00,5.000000000000000000e+00,5.000000000000000000e+00,5.000000000000000000e+00,5.000000000000000000e+00,5.000000000000000000e+00,5.000000000000000000e+00,5.000000000000000000e+00,5.000000000000000000e+00,5.000000000000000000e+00,5.000000000000000000e+00,5.000000000000000000e+00,4.991398334503173828e+00,4.790688037872314453e+00,4.605495452880859375e+00,1.166863918304443359e+00,1.144446372985839844e+00,1.120971441268920898e+00,1.098059654235839844e+00,1.096410155296325684e+00,1.094967722892761230e+00,1.093560695648193359e+00,1.116371393203735352e+00,3.416764497756958008e+00,3.321506738662719727e+00,3.231416702270507812e+00,1.118412733078002930e+00,1.086675047874450684e+00,1.056654572486877441e+00,1.045998573303222656e+00,1.036546707153320312e+00,1.027250409126281738e+00,1.018119335174560547e+00,1.012525558471679688e+00,1.017233014106750488e+00,1.021908164024353027e+00,2.488851547241210938e+00
4.889293670654296875e+00,5.000000000000000000e+00,5.000000000000000000e+00,5.000000000000000000e+00,5.000000000000000000e+00,5.000000000000000000e+00,5.000000000000000000e+00,5.000000000000000000e+00,5.000000000000000000e+00,5.000000000000000000e+00,5.000000000000000000e+00,5.000000000000000000e+00,5.000000000000000000e+00,5.000000000000000000e+00,5.000000000000000000e+00,5.000000000000000000e+00,5.000000000000000000e+00,5.000000000000000000e+00,5.000000000000000000e+00,5.000000000000000000e+00,5.000000000000000000e+00,5.000000000000000000e+00,5.000000000000000000e+00,5.000000000000000000e+00,5.000000000000000000e+00,5.000000000000000000e+00,5.000000000000000000e+00,5.000000000000000000e+00,5.000000000000000000e+00,5.000000000000000000e+00,5.000000000000000000e+00,5.000000000000000000e+00,5.000000000000000000e+00,5.000000000000000000e+00,5.000000000000000000e+00,5.000000000000000000e+00,5.000000000000000000e+00,5.000000000000000000e+00,5.000000000000000000e+00,5.000000000000000000e+00,5.000000000000000000e+00,5.000000000000000000e+00,5.000000000000000000e+00,5.000000000000000000e+00,5.000000000000000000e+00,5.000000000000000000e+00,5.000000000000000000e+00,5.000000000000000000e+00,5.000000000000000000e+00,5.000000000000000000e+00,5.000000000000000000e+00,5.000000000000000000e+00,5.000000000000000000e+00,5.000000000000000000e+00,5.000000000000000000e+00,4.991567611694335938e+00,4.790843963623046875e+00,4.605639457702636719e+00,1.169500827789306641e+00,1.147025942802429199e+00,1.124434709548950195e+00,1.105812072753906250e+00,1.099309206008911133e+00,1.094376683235168457e+00,1.121436953544616699e+00,3.517731428146362305e+00,3.416843414306640625e+00,3.321581602096557617e+00,3.231487274169921875e+00,1.118090033531188965e+00,1.085358977317810059e+00,1.056009411811828613e+00,1.046414494514465332e+00,1.036801695823669434e+00,1.027248382568359375e+00,1.017869591712951660e+00,1.015292406082153320e+00,1.019598126411437988e+00,1.023940443992614746e+00,2.488893508911132812e+00
4.889142036437988281e+00,5.000000000000000000e+00,5.000000000000000000e+00,5.000000000000000000e+00,5.000000000000000000e+00,5.000000000000000000e+00,5.000000000000000000e+00,5.000000000000000000e+00,5.000000000000000000e+00,5.000000000000000000e+00,5.000000000000000000e+00,5.000000000000000000e+00,5.000000000000000000e+00,5.000000000000000000e+00,5.000000000000000000e+00,5.000000000000000000e+00,5.000000000000000000e+00,5.000000000000000000e+00,5.000000000000000000e+00,5.000000000000000000e+00,5.000000000000000000e+00,5.000000000000000000e+00,5.000000000000000000e+00,5.000000000000000000e+00,5.000000000000000000e+00,5.000000000000000000e+00,5.000000000000000000e+00,5.000000000000000000e+00,5.000000000000000000e+00,5.000000000000000000e+00,5.000000000000000000e+00,5.000000000000000000e+00,5.000000000000000000e+00,5.000000000000000000e+00,5.000000000000000000e+00,5.000000000000000000e+00,5.000000000000000000e+00,5.000000000000000000e+00,5.000000000000000000e+00,5.000000000000000000e+00,5.000000000000000000e+00,5.000000000000000000e+00,5.000000000000000000e+00,5.000000000000000000e+00,5.000000000000000000e+00,5.000000000000000000e+00,5.000000000000000000e+00,5.000000000000000000e+00,5.000000000000000000e+00,5.000000000000000000e+00,5.000000000000000000e+00,5.000000000000000000e+00,5.000000000000000000e+00,5.000000000000000000e+00,5.000000000000000000e+00,4.991727828979492188e+00,4.790993213653564453e+00,4.605778694152832031e+00,1.169918656349182129e+00,1.146239519119262695e+00,1.122695922851562500e+00,1.101298213005065918e+00,1.082199096679687500e+00,1.075964570045471191e+00,1.072445631027221680e+00,1.068583965301513672e+00,3.416922807693481445e+00,3.321656465530395508e+00,3.231558322906494141e+00,1.117397427558898926e+00,1.084008693695068359e+00,1.056450724601745605e+00,1.044199466705322266e+00,1.034374833106994629e+00,1.024196147918701172e+00,1.014163374900817871e+00,1.004296541213989258e+00,1.006607174873352051e+00,1.011392474174499512e+00,2.488935708999633789e+00
4.888991355895996094e+00,5.000000000000000000e+00,5.000000000000000000e+00,5.000000000000000000e+00,5.000000000000000000e+00,5.000000000000000000e+00,5.000000000000000000e+00,5.000000000000000000e+00,5.000000000000000000e+00,5.000000000000000000e+00,5.000000000000000000e+00,5.000000000000000000e+00,5.000000000000000000e+00,5.000000000000000000e+00,5.000000000000000000e+00,5.000000000000000000e+00,5.000000000000000000e+00,5.000000000000000000e+00,5.000000000000000000e+00,5.000000000000000000e+00,5.000000000000000000e+00,5.000000000000000000e+00,5.000000000000000000e+00,5.000000000000000000e+00,5.000000000000000000e+00,5.000000000000000000e+00,5.000000000000000000e+00,5.000000000000000000e+00,5.000000000000000000e+00,5.000000000000000000e+00,5.000000000000000000e+00,5.000000000000000000e+00,5.000000000000000000e+00,5.000000000000000000e+00,5.000000000000000000e+00,5.000000000000000000e+00,5.000000000000000000e+00,5.000000000000000000e+00,5.000000000000000000e+00,5.000000000000000000e+00,5.000000000000000000e+00,5.000000000000000000e+00,5.000000000000000000e+00,5.000000000000000000e+00,5.000000000000000000e+00,5.000000000000000000e+00,5.000000000000000000e+00,5.000000000000000000e+00,5.000000000000000000e+00,5.000000000000000000e+00,5.000000000000000000e+00,5.000000000000000000e+00,5.000000000000000000e+00,5.000000000000000000e+00,5.000000000000000000e+00,4.991884708404541016e+00,4.791137695312500000e+00,4.605912208557128906e+00,1.173305749893188477e+00,1.143294095993041992e+00,1.116698980331420898e+00,1.094983220100402832e+00,1.075038075447082520e+00,1.060574650764465332e+00,1.052621722221374512e+00,1.050613045692443848e+00,1.048039197921752930e+00,3.321731328964233398e+00,3.231629133224487305e+00,1.117896080017089844e+00,1.088523030281066895e+00,1.060929656028747559e+00,1.039927482604980469e+00,1.029508113861083984e+00,1.019295573234558105e+00,1.009283661842346191e+00,9.994665980339050293e-01,9.913908839225769043e-01,9.960263967514038086e-01,1.000895380973815918e+00
4.888839721679687500e+00,5.000000000000000000e+00,5.000000000000000000e+00,5.000000000000000000e+00,5.000000000000000000e+00,5.000000000000000000e+00,5.000000000000000000e+00,5.000000000000000000e+00,5.000000000000000000e+00,5.000000000000000000e+00,5.000000000000000000e+00,5.000000000000000000e+00,5.000000000000000000e+00,5.000000000000000000e+00,5.000000000000000000e+00,5.000000000000000000e+00,5.000000000000000000e+00,5.000000000000000000e+00,5.000000000000000000e+00,5.000000000000000000e+00,5.000000000000000000e+00,5.000000000000000000e+00,5.000000000000000000e+00,5.000000000000000000e+00,5.000000000000000000e+00,5.000000000000000000e+00,5.000000000000000000e+00,5.000000000000000000e+00,5.000000000000000000e+00,5.000000000000000000e+00,5.000000000000000000e+00,5.000000000000000000e+00,5.000000000000000000e+00,5.000000000000000000e+00,5.000000000000000000e+00,5.000000000000000000e+00,5.000000000000000000e+00,5.000000000000000000e+00,5.000000000000000000e+00,5.000000000000000000e+00,5.000000000000000000e+00,5.000000000000000000e+00,5.000000000000000000e+00,5.000000000000000000e+00,5.000000000000000000e+00,5.000000000000000000e+00,5.000000000000000000e+00,5.000000000000000000e+00,5.000000000000000000e+00,5.000000000000000000e+00,5.000000000000000000e+00,5.000000000000000000e+00,5.000000000000000000e+00,5.000000000000000000e+00,5.000000000000000000e+00,4.992041110992431641e+00,4.791281700134277344e+00,4.606045722961425781e+00,1.191357254981994629e+00,1.145140767097473145e+00,1.114068150520324707e+00,1.088739991188049316e+00,1.068088054656982422e+00,1.053696155548095703e+00,1.039797663688659668e+00,1.030590057373046875e+00,1.030777454376220703e+00,1.030964851379394531e+00,3.231696128845214844e+00,3.146349906921386719e+00,1.092629671096801758e+00,1.067806243896484375e+00,1.044085621833801270e+00,1.024433135986328125e+00,1.014320611953735352e+00,1.004405617713928223e+00,9.946369528770446777e-01,9.846006035804748535e-01,9.811258316040039062e-01,9.857627749443054199e-01
4.888689041137695312e+00,5.000000000000000000e+00,5.000000000000000000e+00,5.000000000000000000e+00,5.000000000000000000e+00,5.000000000000000000e+00,5.000000000000000000e+00,5.000000000000000000e+00,5.000000000000000000e+00,5.000000000000000000e+00,5.000000000000000000e+00,5.000000000000000000e+00,5.000000000000000000e+00,5.000000000000000000e+00,5.000000000000000000e+00,5.000000000000000000e+00,5.000000000000000000e+00,5.000000000000000000e+00,5.000000000000000000e+00,5.000000000000000000e+00,5.000000000000000000e+00,5.000000000000000000e+00,5.000000000000000000e+00,5.000000000000000000e+00,5.000000000000000000e+00,5.000000000000000000e+00,5.000000000000000000e+00,5.000000000000000000e+00,5.000000000000000000e+00,5.000000000000000000e+00,5.000000000000000000e+00,5.000000000000000000e+00,5.000000000000000000e+00,5.000000000000000000e+00,5.000000000000000000e+00,5.000000000000000000e+00,5.000000000000000000e+00,5.000000000000000000e+00,5.000000000000000000e+00,5.000000000000000000e+00,5.000000000000000000e+00,5.000000000000000000e+00,5.000000000000000000e+00,5.000000000000000000e+00,5.000000000000000000e+00,5.000000000000000000e+00,5.000000000000000000e+00,5.000000000000000000e+00,5.000000000000000000e+00,5.000000000000000000e+00,5.000000000000000000e+00,5.000000000000000000e+00,5.000000000000000000e+00,5.000000000000000000e+00,5.000000000000000000e+00,4.992197990417480469e+00,4.791426181793212891e+00,4.606178760528564453e+00,4.434722900390625000e+00,1.170916557312011719e+00,1.119093179702758789e+00,1.086982727050781250e+00,1.062147021293640137e+00,1.046906232833862305e+00,1.035081624984741211e+00,1.023978352546691895e+00,1.021814227104187012e+00,1.021998524665832520e+00,1.046420812606811523e+00,3.146412134170532227e+00,3.065454959869384766e+00,1.074215888977050781e+00,1.050744891166687012e+00,1.027768135070800781e+00,1.009393811225891113e+00,9.995746016502380371e-01,9.898497462272644043e-01,9.799092411994934082e-01,9.701664447784423828e-01,9.710808992385864258e-01
4.888537406921386719e+00,5.000000000000000000e+00,5.000000000000000000e+00,5.000000000000000000e+00,5.000000000000000000e+00,5.000000000000000000e+00,5.000000000000000000e+00,5.000000000000000000e+00,5.000000000000000000e+00,5.000000000000000000e+00,5.000000000000000000e+00,5.000000000000000000e+00,5.000000000000000000e+00,5.000000000000000000e+00,5.000000000000000000e+00,5.000000000000000000e+00,5.000000000000000000e+00,5.000000000000000000e+00,5.000000000000000000e+00,5.000000000000000000e+00,5.000000000000000000e+00,5.000000000000000000e+00,5.000000000000000000e+00,5.000000000000000000e+00,5.000000000000000000e+00,5.000000000000000000e+00,5.000000000000000000e+00,5.000000000000000000e+00,5.000000000000000000e+00,5.000000000000000000e+00,5.000000000000000000e+00,5.000000000000000000e+00,5.000000000000000000e+00,5.000000000000000000e+00,5.000000000000000000e+00,5.000000000000000000e+00,5.000000000000000000e+00,5.000000000000000000e+00,5.000000000000000000e+00,5.000000000000000000e+00,5.000000000000000000e+00,5.000000000000000000e+00,5.000000000000000000e+00,5.000000000000000000e+00,5.000000000000000000e+00,5.000000000000000000e+00,5.000000000000000000e+00,5.000000000000000000e+00,5.000000000000000000e+00,5.000000000000000000e+00,5.000000000000000000e+00,5.000000000000000000e+00,5.000000000000000000e+00,5.000000000000000000e+00,5.000000000000000000e+00,4.992354869842529297e+00,4.791570663452148438e+00,4.606312274932861328e+00,4.434846401214599609e+00,4.275687694549560547e+00,1.148985624313354492e+00,1.094204187393188477e+00,1.063486576080322266e+00,1.043317914009094238e+00,1.032378435134887695e+00,1.021568417549133301e+00,1.013083100318908691e+00,1.013186693191528320e+00,1.013367772102355957e+00,3.146474361419677734e+00,3.065514087677001953e+00,1.087014913558959961e+00,1.054626703262329102e+00,1.033441781997680664e+00,1.011952757835388184e+00,9.947896599769592285e-01,9.851083159446716309e-01,9.752623438835144043e-01,9.656112790107727051e-01,9.569025635719299316e-01
4.888386726379394531e+00,5.000000000000000000e+00,5.000000000000000000e+00,5.000000000000000000e+00,5.000000000000000000e+00,5.000000000000000000e+00,5.000000000000000000e+00,5.000000000000000000e+00,5.000000000000000000e+00,5.000000000000000000e+00,5.000000000000000000e+00,5.000000000000000000e+00,5.000000000000000000e+00,5.000000000000000000e+00,5.000000000000000000e+00,5.000000000000000000e+00,5.000000000000000000e+00,5.000000000000000000e+00,5.000000000000000000e+00,5.000000000000000000e+00,5.000000000000000000e+00,5.000000000000000000e+00,5.000000000000000000e+00,5.000000000000000000e+00,5.000000000000000000e+00,5.000000000000000000e+00,5.000000000000000000e+00,5.000000000000000000e+00,5.000000000000000000e+00,5.000000000000000000e+00,5.000000000000000000e+00,5.000000000000000000e+00,5.000000000000000000e+00,5.000000000000000000e+00,5.000000000000000000e+00,5.000000000000000000e+00,5.000000000000000000e+00,5.000000000000000000e+00,5.000000000000000000e+00,5.000000000000000000e+00,5.000000000000000000e+00,5.000000000000000000e+00,5.000000000000000000e+00,5.000000000000000000e+00,5.000000000000000000e+00,5.000000000000000000e+00,5.000000000000000000e+00,5.000000000000000000e+00,5.000000000000000000e+00,5.000000000000000000e+00,5.000000000000000000e+00,5.000000000000000000e+00,5.000000000000000000e+00,5.000000000000000000e+00,5.000000000000000000e+00,4.992511272430419922e+00,4.791715145111083984e+00,4.606445789337158203e+00,4.434970378875732422e+00,4.275802612304687500e+00,4.127664566040039062e+00,1.104886293411254883e+00,1.070268154144287109e+00,1.040733933448791504e+00,1.029689073562622070e+00,1.019031882286071777e+00,1.006978392601013184e+00,1.004601001739501953e+00,1.004703640937805176e+00,1.040979981422424316e+00,3.065573215484619141e+00,2.988671302795410156e+00,1.067150473594665527e+00,1.035739064216613770e+00,1.015298962593078613e+00,9.956498742103576660e-01,9.805674552917480469e-01,9.714598655700683594e-01,9.625198245048522949e-01,9.536415338516235352e-01
4.888235092163085938e+00,5.000000000000000000e+00,5.000000000000000000e+00,5.000000000000000000e+00,5.000000000000000000e+00,5.000000000000000000e+00,5.000000000000000000e+00,5.000000000000000000e+00,5.000000000000000000e+00,5.000000000000000000e+00,5.000000000000000000e+00,5.000000000000000000e+00,5.000000000000000000e+00,5.000000000000000000e+00,5.000000000000000000e+00,5.000000000000000000e+00,5.000000000000000000e+00,5.000000000000000000e+00,5.000000000000000000e+00,5.000000000000000000e+00,5.000000000000000000e+00,5.000000000000000000e+00,5.000000000000000000e+00,5.000000000000000000e+00,5.000000000000000000e+00,5.000000000000000000e+00,5.000000000000000000e+00,5.000000000000000000e+00,5.000000000000000000e+00,5.000000000000000000e+00,5.000000000000000000e+00,5.000000000000000000e+00,5.000000000000000000e+00,5.000000000000000000e+00,5.000000000000000000e+00,5.000000000000000000e+00,5.000000000000000000e+00,5.000000000000000000e+00,5.000000000000000000e+00,5.000000000000000000e+00,5.000000000000000000e+00,5.000000000000000000e+00,5.000000000000000000e+00,5.000000000000000000e+00,5.000000000000000000e+00,5.000000000000000000e+00,5.000000000000000000e+00,5.000000000000000000e+00,5.000000000000000000e+00,5.000000000000000000e+00,5.000000000000000000e+00,5.000000000000000000e+00,5.000000000000000000e+00,5.000000000000000000e+00,5.000000000000000000e+00,4.992668151855468750e+00,4.791859149932861328e+00,4.606579303741455078e+00,4.435093879699707031e+00,4.275917530059814453e+00,4.127771377563476562e+00,3.989547014236450195e+00,1.077134966850280762e+00,1.047225952148437500e+00,1.027013659477233887e+00,1.016411662101745605e+00,1.004647850990295410e+00,9.962010979652404785e-01,9.962597489356994629e-01,9.963614344596862793e-01,3.065632104873657227e+00,2.988727569580078125e+00,2.915586948394775391e+00,1.047999143600463867e+00,1.016269803047180176e+00,9.956209659576416016e-01,9.784585833549499512e-01,9.693898558616638184e-01,9.604877233505249023e-01,9.514992237091064453e-01
4.888084411621093750e+00,5.000000000000000000e+00,5.000000000000000000e+00,5.000000000000000000e+00,5.000000000000000000e+00,5.000000000000000000e+00,5.000000000000000000e+00,5.000000000000000000e+00,5.000000000000000000e+00,5.000000000000000000e+00,5.000000000000000000e+00,5.000000000000000000e+00,5.000000000000000000e+00,5.000000000000000000e+00,5.000000000000000000e+00,5.000000000000000000e+00,5.000000000000000000e+00,5.000000000000000000e+00,5.000000000000000000e+00,5.000000000000000000e+00,5.000000000000000000e+00,5.000000000000000000e+00,5.000000000000000000e+00,5.000000000000000000e+00,5.000000000000000000e+00,5.000000000000000000e+00,5.000000000000000000e+00,5.000000000000000000e+00,5.000000000000000000e+00,5.000000000000000000e+00,5.000000000000000000e+00,5.000000000000000000e+00,5.000000000000000000e+00,5.000000000000000000e+00,5.000000000000000000e+00,5.000000000000000000e+00,5.000000000000000000e+00,5.000000000000000000e+00,5.000000000000000000e+00,5.000000000000000000e+00,5.000000000000000000e+00,5.000000000000000000e+00,5.000000000000000000e+00,5.000000000000000000e+00,5.000000000000000000e+00,5.000000000000000000e+00,5.000000000000000000e+00,5.000000000000000000e+00,5.000000000000000000e+00,5.000000000000000000e+00,5.000000000000000000e+00,5.000000000000000000e+00,5.000000000000000000e+00,5.000000000000000000e+00,5.000000000000000000e+00,4.992825031280517578e+00,4.792003631591796875e+00,4.606712818145751953e+00,4.435217857360839844e+00,4.276032924652099609e+00,4.127878665924072266e+00,3.989647150039672852e+00,1.084686875343322754e+00,1.053799390792846680e+00,1.025155067443847656e+00,1.013804674148559570e+00,1.002327919006347656e+00,9.905338287353515625e-01,9.879982471466064453e-01,9.880558252334594727e-01,9.881564974784851074e-01,2.988783836364746094e+00,2.915640354156494141e+00,2.845991611480712891e+00,1.015509486198425293e+00,9.948911070823669434e-01,9.763587117195129395e-01,9.673286676406860352e-01,9.584642648696899414e-01,9.493663907051086426e-01
4.887932777404785156e+00,5.000000000000000000e+00,5.000000000000000000e+00,5.000000000000000000e+00,5.000000000000000000e+00,5.000000000000000000e+00,5.000000000000000000e+00,5.000000000000000000e+00,5.000000000000000000e+00,5.000000000000000000e+00,5.000000000000000000e+00,5.000000000000000000e+00,5.000000000000000000e+00,5.000000000000000000e+00,5.000000000000000000e+00,5.000000000000000000e+00,5.000000000000000000e+00,5.000000000000000000e+00,5.000000000000000000e+00,5.000000000000000000e+00,5.000000000000000000e+00,5.000000000000000000e+00,5.000000000000000000e+00,5.000000000000000000e+00,5.000000000000000000e+00,5.000000000000000000e+00,5.000000000000000000e+00,5.000000000000000000e+00,5.000000000000000000e+00,5.000000000000000000e+00,5.000000000000000000e+00,5.000000000000000000e+00,5.000000000000000000e+00,5.000000000000000000e+00,5.000000000000000000e+00,5.000000000000000000e+00,5.000000000000000000e+00,5.000000000000000000e+00,5.000000000000000000e+00,5.000000000000000000e+00,5.000000000000000000e+00,5.000000000000000000e+00,5.000000000000000000e+00,5.000000000000000000e+00,5.000000000000000000e+00,5.000000000000000000e+00,5.000000000000000000e+00,5.000000000000000000e+00,5.000000000000000000e+00,5.000000000000000000e+00,5.000000000000000000e+00,5.000000000000000000e+00,5.000000000000000000e+00,5.000000000000000000e+00,5.000000000000000000e+00,4.992981910705566406e+00,4.792148113250732422e+00,4.606846332550048828e+00,4.435341358184814453e+00,4.276147842407226562e+00,4.127985954284667969e+00,3.989747047424316406e+00,3.860467195510864258e+00,1.060947895050048828e+00,1.031453490257263184e+00,1.011211156845092773e+00,1.000018835067749023e+00,9.882785081863403320e-01,9.798725843429565430e-01,9.799292683601379395e-01,9.799858927726745605e-01,2.988839864730834961e+00,2.915693998336791992e+00,2.846042633056640625e+00,1.015312552452087402e+00,9.941624402999877930e-01,9.743934273719787598e-01,9.652763009071350098e-01,9.563828706741333008e-01,9.472432732582092285e-01
4.887800693511962891e+00,5.000000000000000000e+00,5.000000000000000000e+00,5.000000000000000000e+00,5.000000000000000000e+00,5.000000000000000000e+00,5.000000000000000000e+00,5.000000000000000000e+00,5.000000000000000000e+00,5.000000000000000000e+00,5.000000000000000000e+00,5.000000000000000000e+00,5.000000000000000000e+00,5.000000000000000000e+00,5.000000000000000000e+00,5.000000000000000000e+00,5.000000000000000000e+00,5.000000000000000000e+00,5.000000000000000000e+00,5.000000000000000000e+00,5.000000000000000000e+00,5.000000000000000000e+00,5.000000000000000000e+00,5.000000000000000000e+00,5.000000000000000000e+00,5.000000000000000000e+00,5.000000000000000000e+00,5.000000000000000000e+00,5.000000000000000000e+00,5.000000000000000000e+00,5.000000000000000000e+00,5.000000000000000000e+00,5.000000000000000000e+00,5.000000000000000000e+00,5.000000000000000000e+00,5.000000000000000000e+00,5.000000000000000000e+00,5.000000000000000000e+00,5.000000000000000000e+00,5.000000000000000000e+00,5.000000000000000000e+00,5.000000000000000000e+00,5.000000000000000000e+00,5.000000000000000000e+00,5.000000000000000000e+00,5.000000000000000000e+00,5.000000000000000000e+00,5.000000000000000000e+00,5.000000000000000000e+00,5.000000000000000000e+00,5.000000000000000000e+00,5.000000000000000000e+00,5.000000000000000000e+00,5.000000000000000000e+00,5.000000000000000000e+00,4.993138313293457031e+00,4.792292594909667969e+00,4.606979846954345703e+00,4.435464859008789062e+00,4.276262760162353516e+00,4.128093242645263672e+00,3.989847183227539062e+00,3.860560894012451172e+00,1.068323254585266113e+00,1.038225650787353516e+00,1.010035514831542969e+00,9.977201819419860840e-01,9.860336184501647949e-01,9.749376177787780762e-01,9.718742370605468750e-01,9.719070792198181152e-01,9.727835059165954590e-01,2.915747404098510742e+00,2.846093416213989258e+00,1.015538573265075684e+00,9.934347271919250488e-01,9.736942648887634277e-01,9.632325172424316406e-01,9.542282223701477051e-01,9.451295137405395508e-01
4.887673377990722656e+00,5.000000000000000000e+00,5.000000000000000000e+00,5.000000000000000000e+00,5.000000000000000000e+00,5.000000000000000000e+00,5.000000000000000000e+00,5.000000000000000000e+00,5.000000000000000000e+00,5.000000000000000000e+00,5.000000000000000000e+00,5.000000000000000000e+00,5.000000000000000000e+00,5.000000000000000000e+00,5.000000000000000000e+00,5.000000000000000000e+00,5.000000000000000000e+00,5.000000000000000000e+00,5.000000000000000000e+00,5.000000000000000000e+00,5.000000000000000000e+00,5.000000000000000000e+00,5.000000000000000000e+00,5.000000000000000000e+00,5.000000000000000000e+00,5.000000000000000000e+00,5.000000000000000000e+00,5.000000000000000000e+00,5.000000000000000000e+00,5.000000000000000000e+00,5.000000000000000000e+00,5.000000000000000000e+00,5.000000000000000000e+00,5.000000000000000000e+00,5.000000000000000000e+00,5.000000000000000000e+00,5.000000000000000000e+00,5.000000000000000000e+00,5.000000000000000000e+00,5.000000000000000000e+00,5.000000000000000000e+00,5.000000000000000000e+00,5.000000000000000000e+00,5.000000000000000000e+00,5.000000000000000000e+00,5.000000000000000000e+00,5.000000000000000000e+00,5.000000000000000000e+00,5.000000000000000000e+00,5.000000000000000000e+00,5.000000000000000000e+00,5.000000000000000000e+00,5.000000000000000000e+00,5.000000000000000000e+00,5.000000000000000000e+00,4.993295192718505859e+00,4.792437076568603516e+00,4.607112884521484375e+00,4.435588836669921875e+00,4.276377677917480469e+00,4.128200054168701172e+00,3.989947319030761719e+00,3.860654592514038086e+00,1.085252165794372559e+00,1.045287489891052246e+00,1.016456365585327148e+00,9.954321980476379395e-01,9.843528866767883301e-01,9.736711978912353516e-01,9.642680883407592773e-01,9.639421105384826660e-01,9.639744758605957031e-01,2.915800809860229492e+00,2.846144437789916992e+00,1.041344046592712402e+00,9.933949112892150879e-01,9.729961752891540527e-01,9.611974954605102539e-01,9.520832300186157227e-01,9.430251717567443848e-01
4.887546539306640625e+00,5.000000000000000000e+00,5.000000000000000000e+00,5.000000000000000000e+00,5.000000000000000000e+00,5.000000000000000000e+00,5.000000000000000000e+00,5.000000000000000000e+00,5.000000000000000000e+00,5.000000000000000000e+00,5.000000000000000000e+00,5.000000000000000000e+00,5.000000000000000000e+00,5.000000000000000000e+00,5.000000000000000000e+00,5.000000000000000000e+00,5.000000000000000000e+00,5.000000000000000000e+00,5.000000000000000000e+00,5.000000000000000000e+00,5.000000000000000000e+00,5.000000000000000000e+00,5.000000000000000000e+00,5.000000000000000000e+00,5.000000000000000000e+00,5.000000000000000000e+00,5.000000000000000000e+00,5.000000000000000000e+00,5.000000000000000000e+00,5.000000000000000000e+00,5.000000000000000000e+00,5.000000000000000000e+00,5.000000000000000000e+00,5.000000000000000000e+00,5.000000000000000000e+00,5.000000000000000000e+00,5.000000000000000000e+00,5.000000000000000000e+00,5.000000000000000000e+00,5.000000000000000000e+00,5.000000000000000000e+00,5.000000000000000000e+00,5.000000000000000000e+00,5.000000000000000000e+00,5.000000000000000000e+00,5.000000000000000000e+00,5.000000000000000000e+00,5.000000000000000000e+00,5.000000000000000000e+00,5.000000000000000000e+00,5.000000000000000000e+00,5.000000000000000000e+00,5.000000000000000000e+00,5.000000000000000000e+00,5.000000000000000000e+00,4.993452072143554688e+00,4.792581558227539062e+00,4.607246398925781250e+00,4.435712337493896484e+00,4.276492595672607422e+00,4.128307342529296875e+00,3.990047454833984375e+00,3.860748291015625000e+00,3.739566326141357422e+00,1.052446007728576660e+00,1.023396253585815430e+00,9.960432052612304688e-01,9.830619692802429199e-01,9.724081158638000488e-01,9.616125822067260742e-01,9.561066031455993652e-01,9.561384320259094238e-01,9.646865129470825195e-01,2.846195220947265625e+00,2.779787063598632812e+00,9.936112761497497559e-01,9.722992181777954102e-01,9.591400027275085449e-01,9.499477744102478027e-01,9.409301280975341797e-01
4.887419223785400391e+00,5.000000000000000000e+00,5.000000000000000000e+00,5.000000000000000000e+00,5.000000000000000000e+00,5.000000000000000000e+00,5.000000000000000000e+00,5.000000000000000000e+00,5.000000000000000000e+00,5.000000000000000000e+00,5.000000000000000000e+00,5.000000000000000000e+00,5.000000000000000000e+00,5.000000000000000000e+00,5.000000000000000000e+00,5.000000000000000000e+00,5.000000000000000000e+00,5.000000000000000000e+00,5.000000000000000000e+00,5.000000000000000000e+00,5.000000000000000000e+00,5.000000000000000000e+00,5.000000000000000000e+00,5.000000000000000000e+00,5.000000000000000000e+00,5.000000000000000000e+00,5.000000000000000000e+00,5.000000000000000000e+00,5.000000000000000000e+00,5.000000000000000000e+00,5.000000000000000000e+00,5.000000000000000000e+00,5.000000000000000000e+00,5.000000000000000000e+00,5.000000000000000000e+00,5.000000000000000000e+00,5.000000000000000000e+00,5.000000000000000000e+00,5.000000000000000000e+00,5.000000000000000000e+00,5.000000000000000000e+00,5.000000000000000000e+00,5.000000000000000000e+00,5.000000000000000000e+00,5.000000000000000000e+00,5.000000000000000000e+00,5.000000000000000000e+00,5.000000000000000000e+00,5.000000000000000000e+00,5.000000000000000000e+00,5.000000000000000000e+00,5.000000000000000000e+00,5.000000000000000000e+00,5.000000000000000000e+00,5.000000000000000000e+00,4.993608951568603516e+00,4.792726039886474609e+00,4.607379913330078125e+00,4.435836315155029297e+00,4.276607513427734375e+00,4.128414630889892578e+00,3.990147590637207031e+00,3.860841989517211914e+00,3.739654064178466797e+00,1.070772767066955566e+00,1.030894875526428223e+00,1.003144979476928711e+00,9.817743897438049316e-01,9.711482524871826172e-01,9.604908227920532227e-01,9.513473510742187500e-01,9.484288096427917480e-01,9.500680565834045410e-01,2.846246242523193359e+00,2.779835700988769531e+00,9.938277602195739746e-01,9.724034667015075684e-01,9.569728374481201172e-01,9.478220343589782715e-01,9.388445615768432617e-01
4.887292385101318359e+00,5.000000000000000000e+00,5.000000000000000000e+00,5.000000000000000000e+00,5.000000000000000000e+00,5.000000000000000000e+00,5.000000000000000000e+00,5.000000000000000000e+00,5.000000000000000000e+00,5.000000000000000000e+00,5.000000000000000000e+00,5.000000000000000000e+00,5.000000000000000000e+00,5.000000000000000000e+00,5.000000000000000000e+00,5.000000000000000000e+00,5.000000000000000000e+00,5.000000000000000000e+00,5.000000000000000000e+00,5.000000000000000000e+00,5.000000000000000000e+00,5.000000000000000000e+00,5.000000000000000000e+00,5.000000000000000000e+00,5.000000000000000000e+00,5.000000000000000000e+00,5.000000000000000000e+00,5.000000000000000000e+00,5.000000000000000000e+00,5.000000000000000000e+00,5.000000000000000000e+00,5.000000000000000000e+00,5.000000000000000000e+00,5.000000000000000000e+00,5.000000000000000000e+00,5.000000000000000000e+00,5.000000000000000000e+00,5.000000000000000000e+00,5.000000000000000000e+00,5.000000000000000000e+00,5.000000000000000000e+00,5.000000000000000000e+00,5.000000000000000000e+00,5.000000000000000000e+00,5.000000000000000000e+00,5.000000000000000000e+00,5.000000000000000000e+00,5.000000000000000000e+00,5.000000000000000000e+00,5.000000000000000000e+00,5.000000000000000000e+00,5.000000000000000000e+00,5.000000000000000000e+00,5.000000000000000000e+00,5.000000000000000000e+00,4.993765830993652344e+00,4.792870044708251953e+00,4.607513427734375000e+00,4.435959815979003906e+00,4.276722908020019531e+00,4.128521919250488281e+00,3.990247726440429688e+00,3.860935926437377930e+00,3.739742040634155273e+00,3.625925302505493164e+00,1.038798689842224121e+00,1.010348796844482422e+00,9.836797118186950684e-01,9.698917269706726074e-01,9.593716263771057129e-01,9.485753178596496582e-01,9.422954320907592773e-01,9.408732652664184570e-01,2.846297264099121094e+00,2.779884338378906250e+00,9.942758083343505859e-01,9.733875989913940430e-01,9.550168514251708984e-01,9.459055066108703613e-01,9.369664192199707031e-01
4.887246131896972656e+00,5.000000000000000000e+00,5.000000000000000000e+00,5.000000000000000000e+00,5.000000000000000000e+00,5.000000000000000000e+00,5.000000000000000000e+00,5.000000000000000000e+00,5.000000000000000000e+00,5.000000000000000000e+00,5.000000000000000000e+00,5.000000000000000000e+00,5.000000000000000000e+00,5.000000000000000000e+00,5.000000000000000000e+00,5.000000000000000000e+00,5.000000000000000000e+00,5.000000000000000000e+00,5.000000000000000000e+00,5.000000000000000000e+00,5.000000000000000000e+00,5.000000000000000000e+00,5.000000000000000000e+00,5.000000000000000000e+00,5.000000000000000000e+00,5.000000000000000000e+00,5.000000000000000000e+00,5.000000000000000000e+00,5.000000000000000000e+00,5.000000000000000000e+00,5.000000000000000000e+00,5.000000000000000000e+00,5.000000000000000000e+00,5.000000000000000000e+00,5.000000000000000000e+00,5.000000000000000000e+00,5.000000000000000000e+00,5.000000000000000000e+00,5.000000000000000000e+00,5.000000000000000000e+00,5.000000000000000000e+00,5.000000000000000000e+00,5.000000000000000000e+00,5.000000000000000000e+00,5.000000000000000000e+00,5.000000000000000000e+00,5.000000000000000000e+00,5.000000000000000000e+00,5.000000000000000000e+00,5.000000000000000000e+00,5.000000000000000000e+00,5.000000000000000000e+00,5.000000000000000000e+00,5.000000000000000000e+00,5.000000000000000000e+00,4.993922233581542969e+00,4.793014526367187500e+00,4.607646942138671875e+00,4.436083793640136719e+00,4.276837825775146484e+00,4.128628730773925781e+00,3.990347862243652344e+00,3.861029624938964844e+00,3.739830017089843750e+00,3.626008033752441406e+00,3.518909931182861328e+00,1.017904162406921387e+00,9.906056523323059082e-01,9.686383008956909180e-01,9.582550525665283203e-01,9.474837779998779297e-01,9.387682676315307617e-01,9.334140419960021973e-01,9.423433542251586914e-01,2.779932975769042969e+00,9.956358075141906738e-01,9.749216437339782715e-01,9.548305273056030273e-01,9.440340995788574219e-01,9.351301789283752441e-01
4.873027324676513672e+00,4.871814250946044922e+00,4.870601177215576172e+00,4.869389533996582031e+00,4.868178367614746094e+00,4.866967201232910156e+00,4.865756988525390625e+00,4.864547729492187500e+00,4.863338470458984375e+00,4.862130165100097656e+00,4.860922336578369141e+00,4.859715461730957031e+00,4.858509063720703125e+00,4.857302665710449219e+00,4.856097698211669922e+00,4.854892730712890625e+00,4.853688716888427734e+00,4.852485179901123047e+00,4.851282119750976562e+00,4.850080013275146484e+00,4.848877906799316406e+00,4.847677230834960938e+00,4.846476078033447266e+00,4.845276355743408203e+00,4.844076633453369141e+00,4.842878341674804688e+00,4.841680049896240234e+00,4.840482234954833984e+00,4.839285373687744141e+00,4.838088989257812500e+00,4.836893081665039062e+00,4.835697650909423828e+00,4.834502696990966797e+00,4.833308696746826172e+00,4.832115650177001953e+00,4.830922126770019531e+00,4.829730033874511719e+00,4.828538417816162109e+00,4.827347278594970703e+00,4.826157093048095703e+00,4.824966907501220703e+00,4.823777675628662109e+00,4.822588920593261719e+00,4.821400642395019531e+00,4.820212841033935547e+00,4.819025993347167969e+00,4.817839145660400391e+00,4.816653728485107422e+00,4.815468311309814453e+00,4.814283370971679688e+00,4.813099384307861328e+00,4.811916351318359375e+00,4.810732841491699219e+00,4.809550762176513672e+00,4.808368682861328125e+00,4.807187557220458984e+00,4.793159008026123047e+00,4.607780456542968750e+00,4.436207294464111328e+00,4.276952743530273438e+00,4.128736019134521484e+00,3.990447998046875000e+00,3.861123323440551758e+00,3.739917993545532227e+00,3.626090764999389648e+00,3.518987894058227539e+00,1.025797843933105469e+00,9.978335499763488770e-01,9.716193675994873047e-01,9.570696353912353516e-01,9.463947415351867676e-01,9.358869194984436035e-01,9.299530386924743652e-01,9.283893704414367676e-01,2.779981613159179688e+00,2.716592788696289062e+00,9.764605164527893066e-01,9.563065171241760254e-01,9.421700835227966309e-01,9.333010315895080566e-01
3.776947021484375000e+00,3.776218175888061523e+00,3.775489807128906250e+00,3.774761438369750977e+00,3.774033308029174805e+00,3.773305892944335938e+00,3.772578239440917969e+00,3.771851062774658203e+00,3.771123886108398438e+00,3.770397663116455078e+00,3.769671201705932617e+00,3.768944978713989258e+00,3.768219470977783203e+00,3.767493963241577148e+00,3.766768693923950195e+00,3.766044139862060547e+00,3.765319347381591797e+00,3.764594793319702148e+00,3.763870954513549805e+00,3.763147115707397461e+00,3.762423276901245117e+00,3.761700391769409180e+00,3.760977268218994141e+00,3.760254621505737305e+00,3.759532451629638672e+00,3.758810043334960938e+00,3.758088111877441406e+00,3.757366895675659180e+00,3.756645441055297852e+00,3.755924224853515625e+00,3.755203247070312500e+00,3.754483222961425781e+00,3.753762722015380859e+00,3.753042697906494141e+00,3.752323389053344727e+00,3.751603841781616211e+00,3.750884771347045898e+00,3.750166177749633789e+00,3.749447345733642578e+00,3.748728990554809570e+00,3.748011350631713867e+00,3.747293472290039062e+00,3.746575832366943359e+00,3.745859146118164062e+00,3.745141983032226562e+00,3.744425296783447266e+00,3.743709325790405273e+00,3.742993116378784180e+00,3.742277145385742188e+00,3.741561889648437500e+00,3.740846395492553711e+00,3.740131378173828125e+00,3.739416599273681641e+00,3.738702535629272461e+00,3.737988233566284180e+00,3.737274169921875000e+00,3.736560821533203125e+00,3.735847234725952148e+00,3.735134124755859375e+00,3.734421730041503906e+00,3.733709096908569336e+00,3.732996702194213867e+00,3.732285022735595703e+00,3.731573104858398438e+00,3.626173496246337891e+00,3.519065856933593750e+00,3.418103456497192383e+00,1.005417823791503906e+00,9.785391092300415039e-01,9.558491706848144531e-01,9.453081488609313965e-01,9.348243474960327148e-01,9.289695024490356445e-01,9.489389061927795410e-01,2.780030012130737305e+00,2.716639041900634766e+00,9.776217937469482422e-01,9.577870965003967285e-01,9.403133392333984375e-01,9.314791560173034668e-01
3.083403587341308594e+00,3.082917690277099609e+00,3.082432031631469727e+00,3.081946611404418945e+00,3.081461191177368164e+00,3.080976009368896484e+00,3.080491065979003906e+00,3.080006361007690430e+00,3.079521417617797852e+00,3.079036951065063477e+00,3.078552722930908203e+00,3.078068256378173828e+00,3.077584266662597656e+00,3.077100515365600586e+00,3.076616525650024414e+00,3.076132774353027344e+00,3.075649499893188477e+00,3.075166225433349609e+00,3.074682950973510742e+00,3.074199914932250977e+00,3.073717117309570312e+00,3.073234319686889648e+00,3.072751760482788086e+00,3.072269439697265625e+00,3.071787118911743164e+00,3.071305036544799805e+00,3.070822954177856445e+00,3.070341110229492188e+00,3.069859266281127930e+00,3.069378137588500977e+00,3.068896532058715820e+00,3.068415403366088867e+00,3.067934513092041016e+00,3.067453384399414062e+00,3.066972732543945312e+00,3.066492319107055664e+00,3.066011667251586914e+00,3.065531492233276367e+00,3.065051317214965820e+00,3.064571380615234375e+00,3.064091444015502930e+00,3.063611984252929688e+00,3.063132286071777344e+00,3.062652826309204102e+00,3.062173604965209961e+00,3.061694622039794922e+00,3.061215400695800781e+00,3.060736656188964844e+00,3.060258150100708008e+00,3.059779644012451172e+00,3.059301137924194336e+00,3.058823108673095703e+00,3.058344841003417969e+00,3.057866811752319336e+00,3.057389259338378906e+00,3.056911706924438477e+00,3.056434154510498047e+00,3.055957078933715820e+00,3.055479764938354492e+00,3.055002689361572266e+00,3.054526090621948242e+00,3.054049253463745117e+00,3.053572416305541992e+00,3.053096294403076172e+00,3.052619934082031250e+00,3.052143812179565430e+00,3.051667690277099609e+00,3.051192045211791992e+00,9.858318567276000977e-01,9.599767923355102539e-01,9.481150507926940918e-01,9.464854598045349121e-01,9.423562884330749512e-01,9.364840984344482422e-01,2.780078649520874023e+00,2.716685533523559570e+00,9.786306619644165039e-01,9.592725038528442383e-01,9.398146271705627441e-01,9.296643137931823730e-01
2.605049848556518555e+00,2.604703187942504883e+00,2.604356527328491211e+00,2.604009866714477539e+00,2.603663206100463867e+00,2.603317022323608398e+00,2.602970600128173828e+00,2.602624416351318359e+00,2.602278470993041992e+00,2.601932525634765625e+00,2.601586341857910156e+00,2.601240873336791992e+00,2.600894927978515625e+00,2.600549221038818359e+00,2.600203752517700195e+00,2.599858283996582031e+00,2.599512815475463867e+00,2.599167823791503906e+00,2.598822593688964844e+00,2.598477363586425781e+00,2.598132371902465820e+00,2.597787618637084961e+00,2.597442626953125000e+00,2.597098112106323242e+00,2.596753358840942383e+00,2.596408843994140625e+00,2.596064329147338867e+00,2.595720052719116211e+00,2.595375776290893555e+00,2.595031499862670898e+00,2.594687461853027344e+00,2.594343423843383789e+00,2.593999624252319336e+00,2.593655824661254883e+00,2.593312025070190430e+00,2.592968463897705078e+00,2.592624902725219727e+00,2.592281341552734375e+00,2.591938018798828125e+00,2.591594934463500977e+00,2.591251611709594727e+00,2.590908527374267578e+00,2.590565681457519531e+00,2.590222835540771484e+00,2.589879751205444336e+00,2.589537143707275391e+00,2.589194536209106445e+00,2.588851928710937500e+00,2.588509559631347656e+00,2.588167190551757812e+00,2.587824821472167969e+00,2.587482690811157227e+00,2.587140798568725586e+00,2.586798667907714844e+00,2.586456775665283203e+00,2.586115121841430664e+00,2.585773229598999023e+00,2.585431575775146484e+00,2.585090160369873047e+00,2.584748744964599609e+00,2.584407329559326172e+00,2.584066152572631836e+00,2.583724975585937500e+00,2.583383798599243164e+00,2.583042621612548828e+00,2.582701921463012695e+00,2.582360982894897461e+00,2.582020282745361328e+00,1.000541448593139648e+00,9.843404889106750488e-01,9.571079611778259277e-01,9.438552260398864746e-01,9.351752400398254395e-01,9.320424795150756836e-01,9.255555868148803711e-01,2.579297780990600586e+00,9.843763113021850586e-01,9.602481126785278320e-01,9.412446022033691406e-01,9.278566241264343262e-01
2.255184650421142578e+00,2.254924774169921875e+00,2.254664897918701172e+00,2.254405260086059570e+00,2.254145383834838867e+00,2.253885746002197266e+00,2.253626346588134766e+00,2.253366708755493164e+00,2.253107309341430664e+00,2.252848148345947266e+00,2.252588748931884766e+00,2.252329349517822266e+00,2.252070188522338867e+00,2.251811027526855469e+00,2.251551866531372070e+00,2.251292943954467773e+00,2.251034021377563477e+00,2.250775098800659180e+00,2.250516414642333984e+00,2.250257492065429688e+00,2.249998569488525391e+00,2.249740123748779297e+00,2.249481439590454102e+00,2.249222755432128906e+00,2.248964309692382812e+00,2.248706102371215820e+00,2.248447656631469727e+00,2.248189210891723633e+00,2.247931003570556641e+00,2.247672796249389648e+00,2.247414588928222656e+00,2.247156620025634766e+00,2.246898651123046875e+00,2.246640682220458984e+00,2.246382713317871094e+00,2.246124982833862305e+00,2.245867013931274414e+00,2.245609521865844727e+00,2.245351791381835938e+00,2.245094060897827148e+00,2.244836568832397461e+00,2.244579076766967773e+00,2.244321584701538086e+00,2.244064092636108398e+00,2.243807077407836914e+00,2.243549585342407227e+00,2.243292331695556641e+00,2.243035316467285156e+00,2.242778301239013672e+00,2.242521286010742188e+00,2.242264270782470703e+00,2.242007493972778320e+00,2.241750478744506836e+00,2.241493940353393555e+00,2.241237163543701172e+00,2.240980386734008789e+00,2.240723848342895508e+00,2.240467309951782227e+00,2.240210771560668945e+00,2.239954471588134766e+00,2.239697933197021484e+00,2.239441633224487305e+00,2.239185333251953125e+00,2.238929271697998047e+00,2.238673210144042969e+00,2.238416910171508789e+00,2.238161087036132812e+00,2.237905025482177734e+00,2.237649202346801758e+00,2.237393379211425781e+00,9.591631889343261719e-01,9.424927830696105957e-01,9.326687455177307129e-01,9.261686205863952637e-01,9.204635620117187500e-01,9.152911901473999023e-01,2.235604047775268555e+00,9.612213969230651855e-01,9.425432682037353516e-01,9.260558485984802246e-01
1.988168239593505859e+00,1.987966418266296387e+00,1.987764358520507812e+00,1.987562537193298340e+00,1.987360715866088867e+00,1.987158775329589844e+00,1.986957073211669922e+00,1.986755371093750000e+00,1.986553549766540527e+00,1.986352086067199707e+00,1.986150503158569336e+00,1.985948801040649414e+00,1.985747337341308594e+00,1.985545992851257324e+00,1.985344409942626953e+00,1.985143065452575684e+00,1.984941840171813965e+00,1.984740376472473145e+00,1.984539151191711426e+00,1.984337925910949707e+00,1.984136581420898438e+00,1.983935475349426270e+00,1.983734250068664551e+00,1.983533263206481934e+00,1.983332276344299316e+00,1.983131170272827148e+00,1.982930302619934082e+00,1.982729434967041016e+00,1.982528448104858398e+00,1.982327699661254883e+00,1.982126951217651367e+00,1.981926083564758301e+00,1.981725454330444336e+00,1.981524825096130371e+00,1.981324076652526855e+00,1.981123566627502441e+00,1.980923056602478027e+00,1.980722427368164062e+00,1.980522036552429199e+00,1.980321764945983887e+00,1.980121135711669922e+00,1.979920864105224609e+00,1.979720711708068848e+00,1.979520320892333984e+00,1.979320168495178223e+00,1.979120016098022461e+00,1.978919744491577148e+00,1.978719711303710938e+00,1.978519678115844727e+00,1.978319525718688965e+00,1.978119611740112305e+00,1.977919816970825195e+00,1.977719783782958984e+00,1.977519989013671875e+00,1.977320194244384766e+00,1.977120280265808105e+00,1.976920604705810547e+00,1.976721048355102539e+00,1.976521134376525879e+00,1.976321697235107422e+00,1.976121902465820312e+00,1.975922465324401855e+00,1.975723028182983398e+00,1.975523471832275391e+00,1.975324153900146484e+00,1.975124835968017578e+00,1.974925279617309570e+00,1.974726080894470215e+00,1.974526882171630859e+00,1.974327564239501953e+00,9.585377573966979980e-01,9.424562454223632812e-01,9.306610226631164551e-01,9.215115308761596680e-01,9.148721694946289062e-01,9.088357090950012207e-01,9.068676233291625977e-01,9.621967077255249023e-01,9.434810280799865723e-01,9.252638220787048340e-01
1.777688145637512207e+00,1.777526497840881348e+00,1.777365088462829590e+00,1.777203798294067383e+00,1.777042269706726074e+00,1.776880979537963867e+00,1.776719689369201660e+00,1.776558279991149902e+00,1.776397109031677246e+00,1.776235938072204590e+00,1.776074647903442383e+00,1.775913476943969727e+00,1.775752425193786621e+00,1.775591135025024414e+00,1.775430083274841309e+00,1.775269150733947754e+00,1.775107979774475098e+00,1.774947047233581543e+00,1.774786114692687988e+00,1.774625062942504883e+00,1.774464130401611328e+00,1.774303317070007324e+00,1.774142384529113770e+00,1.773981571197509766e+00,1.773820877075195312e+00,1.773659944534301758e+00,1.773499250411987305e+00,1.773338675498962402e+00,1.773177862167358398e+00,1.773017168045043945e+00,1.772856593132019043e+00,1.772695899009704590e+00,1.772535443305969238e+00,1.772374987602233887e+00,1.772214293479919434e+00,1.772053837776184082e+00,1.771893262863159180e+00,1.771732926368713379e+00,1.771572589874267578e+00,1.771412134170532227e+00,1.771251797676086426e+00,1.771091580390930176e+00,1.770931243896484375e+00,1.770771026611328125e+00,1.770610809326171875e+00,1.770450472831726074e+00,1.770290374755859375e+00,1.770130395889282227e+00,1.769970178604125977e+00,1.769810080528259277e+00,1.769650101661682129e+00,1.769490003585815430e+00,1.769330024719238281e+00,1.769170165061950684e+00,1.769010066986083984e+00,1.768850207328796387e+00,1.768690466880798340e+00,1.768530488014221191e+00,1.768370747566223145e+00,1.768211007118225098e+00,1.768051147460937500e+00,1.767891407012939453e+00,1.767731785774230957e+00,1.767572045326232910e+00,1.767412424087524414e+00,1.767252922058105469e+00,1.767093181610107422e+00,1.766933679580688477e+00,1.766774177551269531e+00,9.755111336708068848e-01,9.549318552017211914e-01,9.395331144332885742e-01,9.286230206489562988e-01,9.189015030860900879e-01,9.102908372879028320e-01,9.026302695274353027e-01,8.986222147941589355e-01,9.065126776695251465e-01,9.444206953048706055e-01,9.263836741447448730e-01
1.607507109642028809e+00,1.607375025749206543e+00,1.607243061065673828e+00,1.607111096382141113e+00,1.606979012489318848e+00,1.606847167015075684e+00,1.606715202331542969e+00,1.606583237648010254e+00,1.606451392173767090e+00,1.606319546699523926e+00,1.606187701225280762e+00,1.606055855751037598e+00,1.605924129486083984e+00,1.605792284011840820e+00,1.605660557746887207e+00,1.605528712272644043e+00,1.605396986007690430e+00,1.605265378952026367e+00,1.605133652687072754e+00,1.605002045631408691e+00,1.604870438575744629e+00,1.604738712310791016e+00,1.604607224464416504e+00,1.604475736618041992e+00,1.604344010353088379e+00,1.604212641716003418e+00,1.604081153869628906e+00,1.603949546813964844e+00,1.603818178176879883e+00,1.603686809539794922e+00,1.603555321693420410e+00,1.603423953056335449e+00,1.603292584419250488e+00,1.603161215782165527e+00,1.603029847145080566e+00,1.602898597717285156e+00,1.602767229080200195e+00,1.602636098861694336e+00,1.602504849433898926e+00,1.602373480796813965e+00,1.602242350578308105e+00,1.602111220359802246e+00,1.601979970932006836e+00,1.601848959922790527e+00,1.601717829704284668e+00,1.601586699485778809e+00,1.601455688476562500e+00,1.601324677467346191e+00,1.601193547248840332e+00,1.601062655448913574e+00,1.600931644439697266e+00,1.600800633430480957e+00,1.600669741630554199e+00,1.600538849830627441e+00,1.600407838821411133e+00,1.600277066230773926e+00,1.600146055221557617e+00,1.600015282630920410e+00,1.599884510040283203e+00,1.599753618240356445e+00,1.599622845649719238e+00,1.599492192268371582e+00,1.599361419677734375e+00,1.599230766296386719e+00,1.599100112915039062e+00,1.598969340324401855e+00,1.598838806152343750e+00,1.598708152770996094e+00,9.901508092880249023e-01,9.666170477867126465e-01,9.495304822921752930e-01,9.374670386314392090e-01,9.261351823806762695e-01,9.158729910850524902e-01,9.063984155654907227e-01,8.984261751174926758e-01,8.932536840438842773e-01,8.962241411209106445e-01,9.636859297752380371e-01,9.358726143836975098e-01
1.467062711715698242e+00,1.466952800750732422e+00,1.466842889785766602e+00,1.466732859611511230e+00,1.466622948646545410e+00,1.466513037681579590e+00,1.466403126716613770e+00,1.466293334960937500e+00,1.466183423995971680e+00,1.466073513031005859e+00,1.465963721275329590e+00,1.465853929519653320e+00,1.465744137763977051e+00,1.465634346008300781e+00,1.465524673461914062e+00,1.465414762496948242e+00,1.465305089950561523e+00,1.465195417404174805e+00,1.465085625648498535e+00,1.464976072311401367e+00,1.464866399765014648e+00,1.464756727218627930e+00,1.464647054672241211e+00,1.464537501335144043e+00,1.464427828788757324e+00,1.464318275451660156e+00,1.464208722114562988e+00,1.464099168777465820e+00,1.463989615440368652e+00,1.463880181312561035e+00,1.463770627975463867e+00,1.463661193847656250e+00,1.463551640510559082e+00,1.463442206382751465e+00,1.463332772254943848e+00,1.463223338127136230e+00,1.463113903999328613e+00,1.463004589080810547e+00,1.462895154953002930e+00,1.462785840034484863e+00,1.462676525115966797e+00,1.462567090988159180e+00,1.462457895278930664e+00,1.462348699569702148e+00,1.462239265441894531e+00,1.462130069732666016e+00,1.462020874023437500e+00,1.461911559104919434e+00,1.461802482604980469e+00,1.461693286895751953e+00,1.461584091186523438e+00,1.461474895477294922e+00,1.461365818977355957e+00,1.461256623268127441e+00,1.461147546768188477e+00,1.461038470268249512e+00,1.460929393768310547e+00,1.460820317268371582e+00,1.460711359977722168e+00,1.460602283477783203e+00,1.460493206977844238e+00,1.460384368896484375e+00,1.460275292396545410e+00,1.460166335105895996e+00,1.460057377815246582e+00,1.459948420524597168e+00,1.459839582443237305e+00,1.002890586853027344e+00,9.741240143775939941e-01,9.557486772537231445e-01,9.442262649536132812e-01,9.335829615592956543e-01,9.239690899848937988e-01,9.141305685043334961e-01,9.054878950119018555e-01,9.002952575683593750e-01,9.000991582870483398e-01,1.458642601966857910e+00,9.551916718482971191e-01,9.332261085510253906e-01
1.349187254905700684e+00,1.349094271659851074e+00,1.349001288414001465e+00,1.348908185958862305e+00,1.348815321922302246e+00,1.348722338676452637e+00,1.348629355430603027e+00,1.348536372184753418e+00,1.348443388938903809e+00,1.348350524902343750e+00,1.348257660865783691e+00,1.348164796829223633e+00,1.348071932792663574e+00,1.347979068756103516e+00,1.347886204719543457e+00,1.347793340682983398e+00,1.347700595855712891e+00,1.347607731819152832e+00,1.347514986991882324e+00,1.347422242164611816e+00,1.347329378128051758e+00,1.347236633300781250e+00,1.347144007682800293e+00,1.347051143646240234e+00,1.346958518028259277e+00,1.346865773200988770e+00,1.346773028373718262e+00,1.346680402755737305e+00,1.346587777137756348e+00,1.346495032310485840e+00,1.346402406692504883e+00,1.346309900283813477e+00,1.346217155456542969e+00,1.346124649047851562e+00,1.346032023429870605e+00,1.345939397811889648e+00,1.345846891403198242e+00,1.345754384994506836e+00,1.345661759376525879e+00,1.345569252967834473e+00,1.345476746559143066e+00,1.345384240150451660e+00,1.345291733741760254e+00,1.345199227333068848e+00,1.345106720924377441e+00,1.345014333724975586e+00,1.344921946525573730e+00,1.344829440116882324e+00,1.344737052917480469e+00,1.344644665718078613e+00,1.344552278518676758e+00,1.344459891319274902e+00,1.344367504119873047e+00,1.344275116920471191e+00,1.344182848930358887e+00,1.344090461730957031e+00,1.343998193740844727e+00,1.343905925750732422e+00,1.343813538551330566e+00,1.343721270561218262e+00,1.343629121780395508e+00,1.343536734580993652e+00,1.343444585800170898e+00,1.343352317810058594e+00,1.343260049819946289e+00,1.061317443847656250e+00,9.975470304489135742e-01,9.750595688819885254e-01,9.635905623435974121e-01,9.541271924972534180e-01,9.457591772079467773e-01,9.415886402130126953e-01,9.399756789207458496e-01,1.342430710792541504e+00,1.342338681221008301e+00,1.342246651649475098e+00,1.342154502868652344e+00,9.682320356369018555e-01,9.475144147872924805e-01,9.274477362632751465e-01
1.248845100402832031e+00,1.248765468597412109e+00,1.248685717582702637e+00,1.248606085777282715e+00,1.248526453971862793e+00,1.248446702957153320e+00,1.248367071151733398e+00,1.248287439346313477e+00,1.248207807540893555e+00,1.248128175735473633e+00,1.248048663139343262e+00,1.247969031333923340e+00,1.247889399528503418e+00,1.247809886932373047e+00,1.247730255126953125e+00,1.247650742530822754e+00,1.247571229934692383e+00,1.247491717338562012e+00,1.247412204742431641e+00,1.247332692146301270e+00,1.247253179550170898e+00,1.247173666954040527e+00,1.247094273567199707e+00,1.247014641761779785e+00,1.246935248374938965e+00,1.246855854988098145e+00,1.246776342391967773e+00,1.246696949005126953e+00,1.246617436408996582e+00,1.246538043022155762e+00,1.246458768844604492e+00,1.246379256248474121e+00,1.246299982070922852e+00,1.246220588684082031e+00,1.246141195297241211e+00,1.246061801910400391e+00,1.245982527732849121e+00,1.245903134346008301e+00,1.245823860168457031e+00,1.245744585990905762e+00,1.245665192604064941e+00,1.245585918426513672e+00,1.245506763458251953e+00,1.245427370071411133e+00,1.245348215103149414e+00,1.245268940925598145e+00,1.245189666748046875e+00,1.245110511779785156e+00,1.245031237602233887e+00,1.244951963424682617e+00,1.244872808456420898e+00,1.244793653488159180e+00,1.244714379310607910e+00,1.244635343551635742e+00,1.244556188583374023e+00,1.244476914405822754e+00,1.244397878646850586e+00,1.244318723678588867e+00,1.244239568710327148e+00,1.244160532951354980e+00,1.244081497192382812e+00,1.244002342224121094e+00,1.243923306465148926e+00,1.243844270706176758e+00,1.052079916000366211e+00,1.006773591041564941e+00,9.874905943870544434e-01,9.743981361389160156e-01,9.674494862556457520e-01,1.025964140892028809e+00,1.243291020393371582e+00,1.243211984634399414e+00,1.243132948875427246e+00,1.243054032325744629e+00,1.242975115776062012e+00,9.835861921310424805e-01,9.659466147422790527e-01,9.527419805526733398e-01,9.379935860633850098e-01,9.233216643333435059e-01
1.162395119667053223e+00,1.162326097488403320e+00,1.162257075309753418e+00,1.162188053131103516e+00,1.162118911743164062e+00,1.162050008773803711e+00,1.161980986595153809e+00,1.161911964416503906e+00,1.161843061447143555e+00,1.161774039268493652e+00,1.161705017089843750e+00,1.161636114120483398e+00,1.161567211151123047e+00,1.161498188972473145e+00,1.161429286003112793e+00,1.161360383033752441e+00,1.161291360855102539e+00,1.161222457885742188e+00,1.161153674125671387e+00,1.161084651947021484e+00,1.161015868186950684e+00,1.160946965217590332e+00,1.160878062248229980e+00,1.160809278488159180e+00,1.160740375518798828e+00,1.160671472549438477e+00,1.160602688789367676e+00,1.160533905029296875e+00,1.160465002059936523e+00,1.160396218299865723e+00,1.160327434539794922e+00,1.160258531570434570e+00,1.160189867019653320e+00,1.160121083259582520e+00,1.160052299499511719e+00,1.159983515739440918e+00,1.159914731979370117e+00,1.159845948219299316e+00,1.159777283668518066e+00,1.159708499908447266e+00,1.159639716148376465e+00,1.159571051597595215e+00,1.159502387046813965e+00,1.159433603286743164e+00,1.159364938735961914e+00,1.159296274185180664e+00,1.159227609634399414e+00,1.159158945083618164e+00,1.159090280532836914e+00,1.159021615982055664e+00,1.158952951431274414e+00,1.158884286880493164e+00,1.158815741539001465e+00,1.158747076988220215e+00,1.158678412437438965e+00,1.158609867095947266e+00,1.158541321754455566e+00,1.158472657203674316e+00,1.158404111862182617e+00,1.158335566520690918e+00,1.158267021179199219e+00,1.158198475837707520e+00,1.158129930496215820e+00,1.158061385154724121e+00,1.157992839813232422e+00,1.157924413681030273e+00,1.157855868339538574e+00,1.157787322998046875e+00,1.157718896865844727e+00,1.157650351524353027e+00,1.157581925392150879e+00,1.033067703247070312e+00,1.015851855278015137e+00,9.988973736763000488e-01,9.843077063560485840e-01,9.713734388351440430e-01,9.598170518875122070e-01,9.484198689460754395e-01,9.358454346656799316e-01,9.234880805015563965e-01
1.087139010429382324e+00,1.087078571319580078e+00,1.087018251419067383e+00,1.086957931518554688e+00,1.086897492408752441e+00,1.086837172508239746e+00,1.086776852607727051e+00,1.086716413497924805e+00,1.086656093597412109e+00,1.086595773696899414e+00,1.086535453796386719e+00,1.086475133895874023e+00,1.086414813995361328e+00,1.086354494094848633e+00,1.086294174194335938e+00,1.086233854293823242e+00,1.086173534393310547e+00,1.086113333702087402e+00,1.086053013801574707e+00,1.085992693901062012e+00,1.085932493209838867e+00,1.085872292518615723e+00,1.085811972618103027e+00,1.085751771926879883e+00,1.085691452026367188e+00,1.085631251335144043e+00,1.085571050643920898e+00,1.085510849952697754e+00,1.085450649261474609e+00,1.085390448570251465e+00,1.085330128669738770e+00,1.085270047187805176e+00,1.085209846496582031e+00,1.085149645805358887e+00,1.085089445114135742e+00,1.085029363632202148e+00,1.084969162940979004e+00,1.084909081459045410e+00,1.084848880767822266e+00,1.084788680076599121e+00,1.084728598594665527e+00,1.084668517112731934e+00,1.084608316421508789e+00,1.084548234939575195e+00,1.084488153457641602e+00,1.084428071975708008e+00,1.084367990493774414e+00,1.084307909011840820e+00,1.084247827529907227e+00,1.084187746047973633e+00,1.084127664566040039e+00,1.084067583084106445e+00,1.084007501602172852e+00,1.083947539329528809e+00,1.083887457847595215e+00,1.083827495574951172e+00,1.083767414093017578e+00,1.083707332611083984e+00,1.083647370338439941e+00,1.083587408065795898e+00,1.083527326583862305e+00,1.083467364311218262e+00,1.083407402038574219e+00,1.083347439765930176e+00,1.083287477493286133e+00,1.083227515220642090e+00,1.083167552947998047e+00,1.083107590675354004e+00,1.083047628402709961e+00,1.082987666130065918e+00,1.037627458572387695e+00,1.022287487983703613e+00,1.006726503372192383e+00,9.906187057495117188e-01,9.782708883285522461e-01,9.690017104148864746e-01,9.626913666725158691e-01,9.507061243057250977e-01,9.380840659141540527e-01,9.253974556922912598e-01
1.021034955978393555e+00,1.020981669425964355e+00,1.020928382873535156e+00,1.020875096321105957e+00,1.020821928977966309e+00,1.020768642425537109e+00,1.020715355873107910e+00,1.020662188529968262e+00,1.020608901977539062e+00,1.020555734634399414e+00,1.020502448081970215e+00,1.020449280738830566e+00,1.020395994186401367e+00,1.020342826843261719e+00,1.020289659500122070e+00,1.020236492156982422e+00,1.020183324813842773e+00,1.020130157470703125e+00,1.020076870918273926e+00,1.020023703575134277e+00,1.019970655441284180e+00,1.019917368888854980e+00,1.019864320755004883e+00,1.019811153411865234e+00,1.019757986068725586e+00,1.019704818725585938e+00,1.019651770591735840e+00,1.019598603248596191e+00,1.019545435905456543e+00,1.019492387771606445e+00,1.019439220428466797e+00,1.019386172294616699e+00,1.019333124160766602e+00,1.019279956817626953e+00,1.019226908683776855e+00,1.019173860549926758e+00,1.019120693206787109e+00,1.019067645072937012e+00,1.019014477729797363e+00,1.018961548805236816e+00,1.018908500671386719e+00,1.018855333328247070e+00,1.018802404403686523e+00,1.018749356269836426e+00,1.018696308135986328e+00,1.018643260002136230e+00,1.018590211868286133e+00,1.018537163734436035e+00,1.018484234809875488e+00,1.018431186676025391e+00,1.018378138542175293e+00,1.018325209617614746e+00,1.018272280693054199e+00,1.018219232559204102e+00,1.018166303634643555e+00,1.018113255500793457e+00,1.018060326576232910e+00,1.018007397651672363e+00,1.017954468727111816e+00,1.017901420593261719e+00,1.017848491668701172e+00,1.017795562744140625e+00,1.017742633819580078e+00,1.017689704895019531e+00,1.017636775970458984e+00,1.017583847045898438e+00,1.017530918121337891e+00,1.017478108406066895e+00,1.017425179481506348e+00,1.017372250556945801e+00,1.017319440841674805e+00,1.017266511917114258e+00,1.017213582992553711e+00,9.948300719261169434e-01,9.840101599693298340e-01,9.873363375663757324e-01,9.966019988059997559e-01,9.827396869659423828e-01,9.674800038337707520e-01,9.488440752029418945e-01
9.625090360641479492e-01,9.624617695808410645e-01,9.624144434928894043e-01,9.623670578002929688e-01,9.623197913169860840e-01,9.622724056243896484e-01,9.622250795364379883e-01,9.621778726577758789e-01,9.621304869651794434e-01,9.620831608772277832e-01,9.620359539985656738e-01,9.619886279106140137e-01,9.619413018226623535e-01,9.618940949440002441e-01,9.618467688560485840e-01,9.617994427680969238e-01,9.617522358894348145e-01,9.617049694061279297e-01,9.616576433181762695e-01,9.616104960441589355e-01,9.615631699562072754e-01,9.615159034729003906e-01,9.614687561988830566e-01,9.614214897155761719e-01,9.613742232322692871e-01,9.613270759582519531e-01,9.612798094749450684e-01,9.612325429916381836e-01,9.611853957176208496e-01,9.611381888389587402e-01,9.610909223556518555e-01,9.610437750816345215e-01,9.609965682029724121e-01,9.609493613243103027e-01,9.609022140502929688e-01,9.608550071716308594e-01,9.608078002929687500e-01,9.607607126235961914e-01,9.607135057449340820e-01,9.606662988662719727e-01,9.606192111968994141e-01,9.605720043182373047e-01,9.605248570442199707e-01,9.604777693748474121e-01,9.604305624961853027e-01,9.603834152221679688e-01,9.603363871574401855e-01,9.602891802787780762e-01,9.602420330047607422e-01,9.601950049400329590e-01,9.601478576660156250e-01,9.601007103919982910e-01,9.600536823272705078e-01,9.600065350532531738e-01,9.599593877792358398e-01,9.599124193191528320e-01,9.598652720451354980e-01,9.598181843757629395e-01,9.597710371017456055e-01,9.597240686416625977e-01,9.596769213676452637e-01,9.596298336982727051e-01,9.595828652381896973e-01,9.595357775688171387e-01,9.594886898994445801e-01,9.594417214393615723e-01,9.593946337699890137e-01,9.593476057052612305e-01,9.593006372451782227e-01,9.592535495758056641e-01,9.592065215110778809e-01,9.591595530509948730e-01,9.591125249862670898e-01,9.590654969215393066e-01,9.590185284614562988e-01,9.589715003967285156e-01,9.589244723320007324e-01,9.588775634765625000e-01,9.588305354118347168e-01,9.587835669517517090e-01
9.103289246559143066e-01,9.102865457534790039e-01,9.102441668510437012e-01,9.102019071578979492e-01,9.101595282554626465e-01,9.101171493530273438e-01,9.100748896598815918e-01,9.100325107574462891e-01,9.099901914596557617e-01,9.099479317665100098e-01,9.099056124687194824e-01,9.098632335662841797e-01,9.098210334777832031e-01,9.097786545753479004e-01,9.097363352775573730e-01,9.096941351890563965e-01,9.096518158912658691e-01,9.096094965934753418e-01,9.095672965049743652e-01,9.095249772071838379e-01,9.094826579093933105e-01,9.094404578208923340e-01,9.093981981277465820e-01,9.093558788299560547e-01,9.093136787414550781e-01,9.092714190483093262e-01,9.092291593551635742e-01,9.091869592666625977e-01,9.091446995735168457e-01,9.091024398803710938e-01,9.090602397918701172e-01,9.090179800987243652e-01,9.089757204055786133e-01,9.089335799217224121e-01,9.088913202285766602e-01,9.088490605354309082e-01,9.088069200515747070e-01,9.087647199630737305e-01,9.087224602699279785e-01,9.086803197860717773e-01,9.086381196975708008e-01,9.085959196090698242e-01,9.085537791252136230e-01,9.085115790367126465e-01,9.084693789482116699e-01,9.084272384643554688e-01,9.083850383758544922e-01,9.083428382873535156e-01,9.083007574081420898e-01,9.082585573196411133e-01,9.082164168357849121e-01,9.081742763519287109e-01,9.081321358680725098e-01,9.080899357795715332e-01,9.080478549003601074e-01,9.080057144165039062e-01,9.079635739326477051e-01,9.079214930534362793e-01,9.078793525695800781e-01,9.078372120857238770e-01,9.077951312065124512e-01,9.077529907226562500e-01,9.077108502388000488e-01,9.076688289642333984e-01,9.076266884803771973e-01,9.075845479965209961e-01,9.075425267219543457e-01,9.075004458427429199e-01,9.074583053588867188e-01,9.074162840843200684e-01,9.073742032051086426e-01,9.073320627212524414e-01,9.072901010513305664e-01,9.072479605674743652e-01,9.072058796882629395e-01,9.071637988090515137e-01,9.071218371391296387e-01,9.070797562599182129e-01,9.070376753807067871e-01,9.069957137107849121e-01
8.635153770446777344e-01,8.634773492813110352e-01,8.634392023086547852e-01,8.634010553359985352e-01,8.633630275726318359e-01,8.633249402046203613e-01,8.632867932319641113e-01,8.632487654685974121e-01,8.632106781005859375e-01,8.631725907325744629e-01,8.631344437599182129e-01,8.630964756011962891e-01,8.630583882331848145e-01,8.630203008651733398e-01,8.629822731018066406e-01,8.629441857337951660e-01,8.629060983657836914e-01,8.628681302070617676e-01,8.628300428390502930e-01,8.627919554710388184e-01,8.627539873123168945e-01,8.627159595489501953e-01,8.626778721809387207e-01,8.626399040222167969e-01,8.626018166542053223e-01,8.625637888908386230e-01,8.625258207321166992e-01,8.624877929687500000e-01,8.624497652053833008e-01,8.624117970466613770e-01,8.623737692832946777e-01,8.623357415199279785e-01,8.622977733612060547e-01,8.622597455978393555e-01,8.622217178344726562e-01,8.621838092803955078e-01,8.621457815170288086e-01,8.621078133583068848e-01,8.620698451995849609e-01,8.620318770408630371e-01,8.619938492774963379e-01,8.619559407234191895e-01,8.619179725646972656e-01,8.618799448013305664e-01,8.618420958518981934e-01,8.618040680885314941e-01,8.617660999298095703e-01,8.617281913757324219e-01,8.616902232170104980e-01,8.616522550582885742e-01,8.616144061088562012e-01,8.615764379501342773e-01,8.615384697914123535e-01,8.615006208419799805e-01,8.614626526832580566e-01,8.614246845245361328e-01,8.613868355751037598e-01,8.613488674163818359e-01,8.613109588623046875e-01,8.612731099128723145e-01,8.612351417541503906e-01,8.611972332000732422e-01,8.611593842506408691e-01,8.611214756965637207e-01,8.610835671424865723e-01,8.610457181930541992e-01,8.610078096389770508e-01,8.609699010848999023e-01,8.609320521354675293e-01,8.608942031860351562e-01,8.608562946319580078e-01,8.608184456825256348e-01,8.607805967330932617e-01,8.607426881790161133e-01,8.607048988342285156e-01,8.606669902801513672e-01,8.606291413307189941e-01,8.605913519859313965e-01,8.605534434318542480e-01,8.605155944824218750e-01
