1.934332251548767090e+00,1.961066484451293945e+00,1.988550066947937012e+00,2.016814947128295898e+00,2.045894861221313477e+00,2.075825691223144531e+00,2.106645345687866211e+00,2.138393878936767578e+00,2.171114206314086914e+00,2.204851150512695312e+00,2.239653110504150391e+00,2.275571346282958984e+00,2.312660694122314453e+00,2.350978851318359375e+00,2.390588283538818359e+00,2.431555032730102539e+00,2.473950624465942383e+00,2.517850637435913086e+00,2.563336849212646484e+00,2.610496997833251953e+00,2.659424543380737305e+00,2.710221529006958008e+00,2.762996673583984375e+00,2.817867994308471680e+00,2.874966859817504883e+00,2.934436798095703125e+00,2.996418476104736328e+00,3.061075448989868164e+00,3.128584146499633789e+00,3.199137926101684570e+00,3.272946834564208984e+00,3.350242137908935547e+00,3.431276798248291016e+00,3.516328573226928711e+00,3.605704069137573242e+00,3.699741125106811523e+00,3.798814535140991211e+00,3.903340339660644531e+00,4.013780593872070312e+00,4.130652904510498047e+00,4.254534721374511719e+00,5.000000000000000000e+00,5.000000000000000000e+00,5.000000000000000000e+00,5.000000000000000000e+00,5.000000000000000000e+00,5.000000000000000000e+00,5.000000000000000000e+00,5.000000000000000000e+00,5.000000000000000000e+00,5.000000000000000000e+00,5.000000000000000000e+00,5.000000000000000000e+00,5.000000000000000000e+00,5.000000000000000000e+00,5.000000000000000000e+00,5.000000000000000000e+00,5.000000000000000000e+00,5.000000000000000000e+00,5.000000000000000000e+00,5.000000000000000000e+00,5.000000000000000000e+00,5.000000000000000000e+00,5.000000000000000000e+00,5.000000000000000000e+00,5.000000000000000000e+00,5.000000000000000000e+00,5.000000000000000000e+00,5.000000000000000000e+00,5.000000000000000000e+00,5.000000000000000000e+00,5.000000000000000000e+00,5.000000000000000000e+00,5.000000000000000000e+00,5.000000000000000000e+00,5.000000000000000000e+00,5.000000000000000000e+00,5.000000000000000000e+00,5.000000000000000000e+00,5.000000000000000000e+00
1.934304118156433105e+00,1.961037635803222656e+00,1.988520383834838867e+00,2.016784191131591797e+00,2.045863389968872070e+00,2.075793266296386719e+00,2.106611967086791992e+00,2.138359546661376953e+00,2.171078681945800781e+00,2.204814434051513672e+00,2.239615440368652344e+00,2.275532484054565430e+00,2.312620401382446289e+00,2.350937128067016602e+00,2.390545129776000977e+00,2.431510448455810547e+00,2.473904371261596680e+00,2.517802953720092773e+00,2.563287496566772461e+00,2.610445499420166016e+00,2.659371376037597656e+00,2.710166215896606445e+00,2.762939453125000000e+00,2.817808389663696289e+00,2.874900817871093750e+00,2.934357166290283203e+00,2.996335744857788086e+00,3.060988903045654297e+00,3.128493785858154297e+00,3.199043273925781250e+00,3.272847890853881836e+00,3.350138664245605469e+00,3.431168079376220703e+00,3.516214370727539062e+00,3.605583906173706055e+00,3.699614763259887695e+00,3.798681259155273438e+00,3.903199434280395508e+00,4.013631820678710938e+00,4.130495071411132812e+00,4.254367828369140625e+00,4.385900020599365234e+00,5.000000000000000000e+00,5.000000000000000000e+00,5.000000000000000000e+00,5.000000000000000000e+00,5.000000000000000000e+00,5.000000000000000000e+00,5.000000000000000000e+00,5.000000000000000000e+00,5.000000000000000000e+00,5.000000000000000000e+00,5.000000000000000000e+00,5.000000000000000000e+00,5.000000000000000000e+00,5.000000000000000000e+00,5.000000000000000000e+00,5.000000000000000000e+00,5.000000000000000000e+00,5.000000000000000000e+00,5.000000000000000000e+00,5.000000000000000000e+00,5.000000000000000000e+00,5.000000000000000000e+00,5.000000000000000000e+00,5.000000000000000000e+00,5.000000000000000000e+00,5.000000000000000000e+00,5.000000000000000000e+00,5.000000000000000000e+00,5.000000000000000000e+00,5.000000000000000000e+00,5.000000000000000000e+00,5.000000000000000000e+00,5.000000000000000000e+00,5.000000000000000000e+00,5.000000000000000000e+00,5.000000000000000000e+00,5.000000000000000000e+00,5.000000000000000000e+00
1.934275865554809570e+00,1.961008548736572266e+00,1.988490343093872070e+00,2.016753673553466797e+00,2.045831918716430664e+00,2.075760841369628906e+00,2.106578588485717773e+00,2.138325214385986328e+00,2.171043157577514648e+00,2.204777717590332031e+00,2.239577531814575195e+00,2.275493383407592773e+00,2.312579870223999023e+00,2.350895404815673828e+00,2.390501976013183594e+00,2.431465864181518555e+00,2.473858356475830078e+00,2.517755031585693359e+00,2.563237905502319336e+00,2.610394239425659180e+00,2.659317970275878906e+00,2.710110902786254883e+00,2.762881994247436523e+00,2.817748546600341797e+00,2.874838590621948242e+00,2.934289932250976562e+00,2.996253013610839844e+00,3.060902833938598633e+00,3.128403663635253906e+00,3.198949098587036133e+00,3.272749423980712891e+00,3.350035190582275391e+00,3.431059598922729492e+00,3.516100406646728516e+00,3.605464220046997070e+00,3.699488639831542969e+00,3.798548460006713867e+00,3.903059244155883789e+00,4.013483047485351562e+00,4.130337715148925781e+00,4.254200935363769531e+00,4.385722160339355469e+00,4.525635719299316406e+00,5.000000000000000000e+00,5.000000000000000000e+00,5.000000000000000000e+00,5.000000000000000000e+00,5.000000000000000000e+00,5.000000000000000000e+00,5.000000000000000000e+00,5.000000000000000000e+00,5.000000000000000000e+00,5.000000000000000000e+00,5.000000000000000000e+00,5.000000000000000000e+00,5.000000000000000000e+00,5.000000000000000000e+00,5.000000000000000000e+00,5.000000000000000000e+00,5.000000000000000000e+00,5.000000000000000000e+00,5.000000000000000000e+00,5.000000000000000000e+00,5.000000000000000000e+00,5.000000000000000000e+00,5.000000000000000000e+00,5.000000000000000000e+00,5.000000000000000000e+00,5.000000000000000000e+00,5.000000000000000000e+00,5.000000000000000000e+00,5.000000000000000000e+00,5.000000000000000000e+00,5.000000000000000000e+00,5.000000000000000000e+00,5.000000000000000000e+00,5.000000000000000000e+00,5.000000000000000000e+00,5.000000000000000000e+00,5.000000000000000000e+00
1.934249520301818848e+00,1.960979580879211426e+00,1.988460659980773926e+00,2.016722917556762695e+00,2.045800447463989258e+00,2.075728416442871094e+00,2.106545209884643555e+00,2.138290643692016602e+00,2.171007633209228516e+00,2.204741239547729492e+00,2.239539623260498047e+00,2.275454282760620117e+00,2.312539577484130859e+00,2.350853681564331055e+00,2.390458822250366211e+00,2.431421279907226562e+00,2.473812103271484375e+00,2.517707347869873047e+00,2.563188314437866211e+00,2.610342741012573242e+00,2.659264802932739258e+00,2.710055589675903320e+00,2.762824296951293945e+00,2.817688703536987305e+00,2.874776363372802734e+00,2.934225082397460938e+00,2.996184110641479492e+00,3.060816764831542969e+00,3.128313302993774414e+00,3.198854446411132812e+00,3.272650480270385742e+00,3.349931478500366211e+00,3.430950880050659180e+00,3.515986204147338867e+00,3.605344057083129883e+00,3.699362277984619141e+00,3.798415184020996094e+00,3.902918577194213867e+00,4.013334751129150391e+00,4.130180358886718750e+00,4.254034042358398438e+00,4.385544776916503906e+00,4.525446891784667969e+00,4.674568653106689453e+00,5.000000000000000000e+00,5.000000000000000000e+00,5.000000000000000000e+00,5.000000000000000000e+00,5.000000000000000000e+00,5.000000000000000000e+00,5.000000000000000000e+00,5.000000000000000000e+00,5.000000000000000000e+00,5.000000000000000000e+00,5.000000000000000000e+00,5.000000000000000000e+00,5.000000000000000000e+00,5.000000000000000000e+00,5.000000000000000000e+00,5.000000000000000000e+00,5.000000000000000000e+00,5.000000000000000000e+00,5.000000000000000000e+00,5.000000000000000000e+00,5.000000000000000000e+00,5.000000000000000000e+00,5.000000000000000000e+00,5.000000000000000000e+00,5.000000000000000000e+00,5.000000000000000000e+00,5.000000000000000000e+00,5.000000000000000000e+00,5.000000000000000000e+00,5.000000000000000000e+00,5.000000000000000000e+00,5.000000000000000000e+00,5.000000000000000000e+00,5.000000000000000000e+00,5.000000000000000000e+00,5.000000000000000000e+00
1.934249520301818848e+00,1.960968136787414551e+00,1.988435029983520508e+00,2.016692399978637695e+00,2.045768737792968750e+00,2.075695991516113281e+00,2.106511592864990234e+00,2.138256072998046875e+00,2.170972108840942383e+00,2.204704523086547852e+00,2.239501953125000000e+00,2.275415182113647461e+00,2.312499284744262695e+00,2.350812196731567383e+00,2.390415906906127930e+00,2.431376695632934570e+00,2.473766088485717773e+00,2.517659425735473633e+00,2.563138723373413086e+00,2.610291719436645508e+00,2.659211635589599609e+00,2.710000276565551758e+00,2.762766838073730469e+00,2.817628860473632812e+00,2.874713897705078125e+00,2.934159994125366211e+00,2.996116399765014648e+00,3.060746192932128906e+00,3.128225088119506836e+00,3.198760032653808594e+00,3.272551536560058594e+00,3.349827766418457031e+00,3.430842161178588867e+00,3.515872001647949219e+00,3.605223894119262695e+00,3.699235677719116211e+00,3.798281908035278320e+00,3.902777671813964844e+00,4.013185977935791016e+00,4.130023002624511719e+00,4.253866672515869141e+00,4.385367393493652344e+00,4.525257587432861328e+00,4.674366950988769531e+00,4.833637237548828125e+00,5.000000000000000000e+00,5.000000000000000000e+00,5.000000000000000000e+00,5.000000000000000000e+00,5.000000000000000000e+00,5.000000000000000000e+00,5.000000000000000000e+00,2.932223796844482422e+00,2.921106100082397461e+00,2.967128515243530273e+00,5.000000000000000000e+00,5.000000000000000000e+00,5.000000000000000000e+00,5.000000000000000000e+00,5.000000000000000000e+00,5.000000000000000000e+00,5.000000000000000000e+00,5.000000000000000000e+00,5.000000000000000000e+00,5.000000000000000000e+00,5.000000000000000000e+00,5.000000000000000000e+00,5.000000000000000000e+00,5.000000000000000000e+00,5.000000000000000000e+00,5.000000000000000000e+00,5.000000000000000000e+00,5.000000000000000000e+00,5.000000000000000000e+00,5.000000000000000000e+00,5.000000000000000000e+00,5.000000000000000000e+00,5.000000000000000000e+00,5.000000000000000000e+00,5.000000000000000000e+00
1.934249520301818848e+00,1.960968136787414551e+00,1.988435029983520508e+00,2.016682386398315430e+00,2.045743942260742188e+00,2.075663328170776367e+00,2.106478214263916016e+00,2.138221740722656250e+00,2.170936584472656250e+00,2.204667806625366211e+00,2.239464044570922852e+00,2.275376319885253906e+00,2.312458992004394531e+00,2.350770473480224609e+00,2.390372753143310547e+00,2.431332111358642578e+00,2.473719835281372070e+00,2.517611742019653320e+00,2.563089370727539062e+00,2.610240221023559570e+00,2.659158229827880859e+00,2.709944963455200195e+00,2.762709140777587891e+00,2.817569017410278320e+00,2.874651670455932617e+00,2.934095144271850586e+00,2.996048927307128906e+00,3.060675382614135742e+00,3.128151416778564453e+00,3.198669672012329102e+00,3.272452831268310547e+00,3.349724531173706055e+00,3.430733680725097656e+00,3.515758275985717773e+00,3.605104207992553711e+00,3.699109792709350586e+00,3.798148870468139648e+00,3.902637481689453125e+00,4.013037204742431641e+00,4.129865646362304688e+00,4.253699779510498047e+00,4.385190010070800781e+00,4.525068759918212891e+00,4.674165248870849609e+00,4.833421707153320312e+00,5.000000000000000000e+00,5.000000000000000000e+00,5.000000000000000000e+00,5.000000000000000000e+00,5.000000000000000000e+00,5.000000000000000000e+00,5.000000000000000000e+00,2.936092138290405273e+00,2.921670198440551758e+00,2.960791110992431641e+00,5.000000000000000000e+00,5.000000000000000000e+00,5.000000000000000000e+00,5.000000000000000000e+00,5.000000000000000000e+00,5.000000000000000000e+00,5.000000000000000000e+00,5.000000000000000000e+00,5.000000000000000000e+00,5.000000000000000000e+00,5.000000000000000000e+00,5.000000000000000000e+00,5.000000000000000000e+00,5.000000000000000000e+00,5.000000000000000000e+00,5.000000000000000000e+00,5.000000000000000000e+00,5.000000000000000000e+00,5.000000000000000000e+00,5.000000000000000000e+00,5.000000000000000000e+00,5.000000000000000000e+00,5.000000000000000000e+00,5.000000000000000000e+00,5.000000000000000000e+00
1.934242606163024902e+00,1.960968136787414551e+00,1.988435029983520508e+00,2.016682386398315430e+00,2.045743942260742188e+00,2.075655460357666016e+00,2.106454610824584961e+00,2.138187170028686523e+00,2.170900821685791016e+00,2.204631328582763672e+00,2.239426374435424805e+00,2.275337219238281250e+00,2.312418699264526367e+00,2.350728750228881836e+00,2.390329599380493164e+00,2.431287765502929688e+00,2.473673820495605469e+00,2.517564058303833008e+00,2.563040018081665039e+00,2.610188961029052734e+00,2.659104824066162109e+00,2.709889411926269531e+00,2.762651681900024414e+00,2.817509174346923828e+00,2.874589443206787109e+00,2.934030294418334961e+00,2.995981216430664062e+00,3.060604810714721680e+00,3.128077745437622070e+00,3.198592662811279297e+00,3.272359848022460938e+00,3.349620819091796875e+00,3.430624961853027344e+00,3.515644073486328125e+00,3.604984283447265625e+00,3.698983430862426758e+00,3.798015594482421875e+00,3.902496814727783203e+00,4.012888431549072266e+00,4.129707813262939453e+00,4.253532409667968750e+00,4.385012149810791016e+00,4.524879932403564453e+00,4.673963546752929688e+00,4.833205699920654297e+00,5.000000000000000000e+00,5.000000000000000000e+00,5.000000000000000000e+00,5.000000000000000000e+00,5.000000000000000000e+00,5.000000000000000000e+00,5.000000000000000000e+00,2.942337036132812500e+00,2.932403087615966797e+00,2.974477529525756836e+00,5.000000000000000000e+00,5.000000000000000000e+00,5.000000000000000000e+00,5.000000000000000000e+00,5.000000000000000000e+00,5.000000000000000000e+00,5.000000000000000000e+00,5.000000000000000000e+00,5.000000000000000000e+00,5.000000000000000000e+00,5.000000000000000000e+00,5.000000000000000000e+00,5.000000000000000000e+00,5.000000000000000000e+00,5.000000000000000000e+00,5.000000000000000000e+00,5.000000000000000000e+00,5.000000000000000000e+00,5.000000000000000000e+00,5.000000000000000000e+00,5.000000000000000000e+00,5.000000000000000000e+00,5.000000000000000000e+00,5.000000000000000000e+00,5.000000000000000000e+00
1.934214234352111816e+00,1.960945487022399902e+00,1.988425612449645996e+00,2.016682386398315430e+00,2.045743942260742188e+00,2.075655460357666016e+00,2.106454610824584961e+00,2.138181447982788086e+00,2.170878410339355469e+00,2.204594612121582031e+00,2.239388465881347656e+00,2.275298118591308594e+00,2.312378406524658203e+00,2.350687026977539062e+00,2.390286684036254883e+00,2.431243181228637695e+00,2.473627805709838867e+00,2.517516374588012695e+00,2.562990427017211914e+00,2.610137462615966797e+00,2.659051656723022461e+00,2.709834098815917969e+00,2.762594223022460938e+00,2.817449331283569336e+00,2.874526977539062500e+00,2.933965444564819336e+00,2.995913505554199219e+00,3.060534238815307617e+00,3.128003835678100586e+00,3.198515415191650391e+00,3.272279262542724609e+00,3.349525451660156250e+00,3.430516242980957031e+00,3.515529870986938477e+00,3.604864120483398438e+00,3.698856830596923828e+00,3.797882318496704102e+00,3.902356147766113281e+00,4.012740135192871094e+00,4.129550457000732422e+00,4.253365516662597656e+00,4.384834766387939453e+00,4.524691104888916016e+00,4.673761844635009766e+00,4.832990169525146484e+00,5.000000000000000000e+00,5.000000000000000000e+00,5.000000000000000000e+00,5.000000000000000000e+00,5.000000000000000000e+00,5.000000000000000000e+00,5.000000000000000000e+00,2.960016250610351562e+00,2.964523077011108398e+00,2.986855030059814453e+00,5.000000000000000000e+00,5.000000000000000000e+00,5.000000000000000000e+00,5.000000000000000000e+00,5.000000000000000000e+00,5.000000000000000000e+00,5.000000000000000000e+00,5.000000000000000000e+00,5.000000000000000000e+00,5.000000000000000000e+00,5.000000000000000000e+00,5.000000000000000000e+00,5.000000000000000000e+00,5.000000000000000000e+00,5.000000000000000000e+00,5.000000000000000000e+00,5.000000000000000000e+00,5.000000000000000000e+00,5.000000000000000000e+00,5.000000000000000000e+00,5.000000000000000000e+00,5.000000000000000000e+00,5.000000000000000000e+00,5.000000000000000000e+00,5.000000000000000000e+00
1.934185981750488281e+00,1.960916399955749512e+00,1.988395690917968750e+00,2.016656160354614258e+00,2.045731782913208008e+00,2.075655460357666016e+00,2.106454610824584961e+00,2.138181447982788086e+00,2.170878410339355469e+00,2.204591035842895508e+00,2.239367485046386719e+00,2.275259256362915039e+00,2.312338113784790039e+00,2.350645542144775391e+00,2.390243530273437500e+00,2.431198596954345703e+00,2.473581552505493164e+00,2.517468452453613281e+00,2.562940835952758789e+00,2.610086202621459961e+00,2.658998250961303711e+00,2.709778785705566406e+00,2.762536525726318359e+00,2.817389488220214844e+00,2.874464750289916992e+00,2.933900356292724609e+00,2.995845794677734375e+00,3.060463666915893555e+00,3.127930164337158203e+00,3.198438405990600586e+00,3.272198438644409180e+00,3.349441289901733398e+00,3.430418729782104492e+00,3.515416145324707031e+00,3.604744434356689453e+00,3.698730945587158203e+00,3.797749519348144531e+00,3.902215957641601562e+00,4.012591361999511719e+00,4.129393577575683594e+00,4.253199100494384766e+00,4.384657382965087891e+00,4.524501800537109375e+00,4.673560619354248047e+00,4.832775115966796875e+00,5.000000000000000000e+00,5.000000000000000000e+00,5.000000000000000000e+00,5.000000000000000000e+00,5.000000000000000000e+00,5.000000000000000000e+00,5.000000000000000000e+00,5.000000000000000000e+00,2.922220230102539062e+00,2.928246498107910156e+00,2.895290136337280273e+00,2.856654644012451172e+00,2.839600563049316406e+00,5.000000000000000000e+00,5.000000000000000000e+00,5.000000000000000000e+00,5.000000000000000000e+00,5.000000000000000000e+00,5.000000000000000000e+00,5.000000000000000000e+00,5.000000000000000000e+00,5.000000000000000000e+00,5.000000000000000000e+00,5.000000000000000000e+00,5.000000000000000000e+00,5.000000000000000000e+00,5.000000000000000000e+00,5.000000000000000000e+00,5.000000000000000000e+00,5.000000000000000000e+00,5.000000000000000000e+00,5.000000000000000000e+00,5.000000000000000000e+00,5.000000000000000000e+00,5.000000000000000000e+00
1.934157609939575195e+00,1.960887193679809570e+00,1.988365769386291504e+00,2.016625404357910156e+00,2.045700073242187500e+00,2.075625181198120117e+00,2.106439113616943359e+00,2.138181447982788086e+00,2.170878410339355469e+00,2.204591035842895508e+00,2.239367485046386719e+00,2.275258302688598633e+00,2.312318563461303711e+00,2.350606203079223633e+00,2.390200614929199219e+00,2.431154012680053711e+00,2.473535537719726562e+00,2.517420768737792969e+00,2.562891244888305664e+00,2.610034704208374023e+00,2.658945083618164062e+00,2.709723472595214844e+00,2.762479066848754883e+00,2.817329645156860352e+00,2.874402523040771484e+00,2.933835506439208984e+00,2.995778083801269531e+00,3.060392856597900391e+00,3.127856254577636719e+00,3.198361158370971680e+00,3.272118091583251953e+00,3.349356651306152344e+00,3.430330038070678711e+00,3.515315532684326172e+00,3.604624509811401367e+00,3.698604583740234375e+00,3.797616243362426758e+00,3.902075290679931641e+00,4.012442588806152344e+00,4.129235744476318359e+00,4.253031730651855469e+00,4.384479999542236328e+00,4.524312973022460938e+00,4.673358440399169922e+00,4.832559108734130859e+00,5.000000000000000000e+00,5.000000000000000000e+00,5.000000000000000000e+00,5.000000000000000000e+00,5.000000000000000000e+00,5.000000000000000000e+00,2.983426809310913086e+00,2.967312812805175781e+00,2.914569139480590820e+00,2.875365734100341797e+00,2.871088504791259766e+00,2.872736930847167969e+00,2.848190546035766602e+00,2.868160724639892578e+00,5.000000000000000000e+00,5.000000000000000000e+00,5.000000000000000000e+00,5.000000000000000000e+00,5.000000000000000000e+00,5.000000000000000000e+00,5.000000000000000000e+00,5.000000000000000000e+00,5.000000000000000000e+00,5.000000000000000000e+00,5.000000000000000000e+00,5.000000000000000000e+00,5.000000000000000000e+00,5.000000000000000000e+00,5.000000000000000000e+00,5.000000000000000000e+00,5.000000000000000000e+00,5.000000000000000000e+00,5.000000000000000000e+00,5.000000000000000000e+00,5.000000000000000000e+00
1.934129357337951660e+00,1.960858106613159180e+00,1.988335847854614258e+00,2.016594648361206055e+00,2.045668363571166992e+00,2.075592756271362305e+00,2.106405735015869141e+00,2.138147115707397461e+00,2.170859575271606445e+00,2.204588890075683594e+00,2.239367485046386719e+00,2.275258302688598633e+00,2.312318563461303711e+00,2.350606203079223633e+00,2.390182971954345703e+00,2.431115150451660156e+00,2.473489284515380859e+00,2.517372846603393555e+00,2.562841892242431641e+00,2.609983444213867188e+00,2.658891677856445312e+00,2.709668159484863281e+00,2.762421607971191406e+00,2.817269802093505859e+00,2.874340057373046875e+00,2.933770656585693359e+00,2.995710372924804688e+00,3.060322284698486328e+00,3.127782583236694336e+00,3.198284387588500977e+00,3.272037267684936523e+00,3.349272012710571289e+00,3.430241346359252930e+00,3.515222311019897461e+00,3.604521036148071289e+00,3.698478221893310547e+00,3.797483205795288086e+00,3.901934623718261719e+00,4.012294292449951172e+00,4.129078865051269531e+00,4.252864837646484375e+00,4.384302616119384766e+00,4.524124145507812500e+00,4.673157215118408203e+00,4.832343578338623047e+00,5.000000000000000000e+00,5.000000000000000000e+00,5.000000000000000000e+00,5.000000000000000000e+00,3.111078262329101562e+00,3.035438537597656250e+00,2.965703248977661133e+00,2.918467283248901367e+00,2.878461122512817383e+00,2.865881919860839844e+00,2.871656417846679688e+00,2.891252756118774414e+00,2.863438606262207031e+00,2.876647233963012695e+00,5.000000000000000000e+00,5.000000000000000000e+00,5.000000000000000000e+00,5.000000000000000000e+00,5.000000000000000000e+00,5.000000000000000000e+00,5.000000000000000000e+00,5.000000000000000000e+00,5.000000000000000000e+00,5.000000000000000000e+00,5.000000000000000000e+00,5.000000000000000000e+00,5.000000000000000000e+00,5.000000000000000000e+00,5.000000000000000000e+00,5.000000000000000000e+00,5.000000000000000000e+00,5.000000000000000000e+00,5.000000000000000000e+00,5.000000000000000000e+00,5.000000000000000000e+00
1.934100985527038574e+00,1.960829019546508789e+00,1.988305926322937012e+00,2.016563892364501953e+00,2.045636653900146484e+00,2.075560092926025391e+00,2.106372117996215820e+00,2.138112306594848633e+00,2.170824050903320312e+00,2.204551935195922852e+00,2.239344596862792969e+00,2.275253057479858398e+00,2.312318563461303711e+00,2.350606203079223633e+00,2.390182971954345703e+00,2.431115150451660156e+00,2.473474025726318359e+00,2.517334938049316406e+00,2.562792301177978516e+00,2.609932184219360352e+00,2.658838510513305664e+00,2.709612607955932617e+00,2.762363910675048828e+00,2.817209959030151367e+00,2.874277830123901367e+00,2.933705806732177734e+00,2.995642900466918945e+00,3.060251712799072266e+00,3.127709150314331055e+00,3.198207139968872070e+00,3.271956682205200195e+00,3.349187612533569336e+00,3.430152654647827148e+00,3.515129089355468750e+00,3.604423046112060547e+00,3.698371648788452148e+00,3.797349929809570312e+00,3.901793956756591797e+00,4.012145519256591797e+00,4.128921031951904297e+00,4.252697944641113281e+00,4.384125232696533203e+00,4.523934841156005859e+00,4.672955513000488281e+00,4.832128047943115234e+00,5.000000000000000000e+00,5.000000000000000000e+00,5.000000000000000000e+00,5.000000000000000000e+00,3.112856149673461914e+00,3.009660005569458008e+00,2.948523759841918945e+00,2.913411140441894531e+00,2.881746768951416016e+00,2.872948646545410156e+00,2.878029823303222656e+00,2.907665252685546875e+00,2.873156309127807617e+00,2.882232189178466797e+00,5.000000000000000000e+00,5.000000000000000000e+00,5.000000000000000000e+00,5.000000000000000000e+00,5.000000000000000000e+00,5.000000000000000000e+00,5.000000000000000000e+00,5.000000000000000000e+00,5.000000000000000000e+00,5.000000000000000000e+00,5.000000000000000000e+00,5.000000000000000000e+00,5.000000000000000000e+00,5.000000000000000000e+00,5.000000000000000000e+00,5.000000000000000000e+00,5.000000000000000000e+00,5.000000000000000000e+00,5.000000000000000000e+00,5.000000000000000000e+00,5.000000000000000000e+00
1.934072732925415039e+00,1.960799932479858398e+00,1.988276004791259766e+00,2.016533136367797852e+00,2.045605182647705078e+00,2.075527429580688477e+00,2.106338500976562500e+00,2.138077735900878906e+00,2.170788288116455078e+00,2.204515218734741211e+00,2.239306688308715820e+00,2.275213956832885742e+00,2.312291622161865234e+00,2.350597620010375977e+00,2.390182971954345703e+00,2.431115150451660156e+00,2.473474025726318359e+00,2.517334938049316406e+00,2.562779664993286133e+00,2.609895229339599609e+00,2.658785104751586914e+00,2.709557294845581055e+00,2.762306451797485352e+00,2.817150115966796875e+00,2.874215602874755859e+00,2.933640956878662109e+00,2.995575189590454102e+00,3.060181379318237305e+00,3.127635240554809570e+00,3.198130130767822266e+00,3.271875858306884766e+00,3.349102973937988281e+00,3.430063962936401367e+00,3.515036106109619141e+00,3.604325056076049805e+00,3.698268651962280273e+00,3.797240257263183594e+00,3.901654958724975586e+00,4.011996746063232422e+00,4.128763675689697266e+00,4.252531051635742188e+00,4.383947849273681641e+00,4.523746490478515625e+00,4.672753810882568359e+00,4.831912517547607422e+00,5.000000000000000000e+00,5.000000000000000000e+00,5.000000000000000000e+00,5.000000000000000000e+00,3.127974987030029297e+00,3.019704341888427734e+00,2.942843198776245117e+00,2.902032375335693359e+00,2.880275011062622070e+00,2.873199939727783203e+00,2.883749961853027344e+00,2.910994768142700195e+00,2.882171392440795898e+00,2.886065483093261719e+00,5.000000000000000000e+00,5.000000000000000000e+00,5.000000000000000000e+00,5.000000000000000000e+00,5.000000000000000000e+00,5.000000000000000000e+00,5.000000000000000000e+00,5.000000000000000000e+00,5.000000000000000000e+00,5.000000000000000000e+00,5.000000000000000000e+00,5.000000000000000000e+00,5.000000000000000000e+00,5.000000000000000000e+00,5.000000000000000000e+00,5.000000000000000000e+00,5.000000000000000000e+00,5.000000000000000000e+00,5.000000000000000000e+00,5.000000000000000000e+00,5.000000000000000000e+00
1.934044361114501953e+00,1.960770845413208008e+00,1.988246083259582520e+00,2.016502380371093750e+00,2.045573472976684570e+00,2.075494766235351562e+00,2.106304883956909180e+00,2.138043165206909180e+00,2.170752525329589844e+00,2.204478502273559570e+00,2.239268779754638672e+00,2.275174856185913086e+00,2.312251091003417969e+00,2.350555658340454102e+00,2.390150785446166992e+00,2.431102991104125977e+00,2.473474025726318359e+00,2.517334938049316406e+00,2.562779664993286133e+00,2.609895229339599609e+00,2.658775329589843750e+00,2.709521770477294922e+00,2.762248992919921875e+00,2.817090272903442383e+00,2.874153375625610352e+00,2.933575868606567383e+00,2.995507717132568359e+00,3.060110807418823242e+00,3.127561569213867188e+00,3.198052883148193359e+00,3.271795272827148438e+00,3.349018335342407227e+00,3.429975271224975586e+00,3.514942884445190430e+00,3.604227066040039062e+00,3.698165416717529297e+00,3.797131538391113281e+00,3.901540279388427734e+00,4.011852741241455078e+00,4.128606319427490234e+00,4.252364158630371094e+00,4.383770465850830078e+00,4.523557186126708984e+00,4.672552108764648438e+00,4.831696987152099609e+00,5.000000000000000000e+00,5.000000000000000000e+00,5.000000000000000000e+00,5.000000000000000000e+00,5.000000000000000000e+00,3.084846735000610352e+00,2.944139003753662109e+00,2.902185440063476562e+00,2.877714395523071289e+00,2.870698690414428711e+00,2.889530658721923828e+00,2.930759668350219727e+00,2.889818191528320312e+00,2.893583297729492188e+00,5.000000000000000000e+00,5.000000000000000000e+00,5.000000000000000000e+00,5.000000000000000000e+00,5.000000000000000000e+00,5.000000000000000000e+00,5.000000000000000000e+00,5.000000000000000000e+00,5.000000000000000000e+00,5.000000000000000000e+00,5.000000000000000000e+00,5.000000000000000000e+00,5.000000000000000000e+00,5.000000000000000000e+00,5.000000000000000000e+00,5.000000000000000000e+00,5.000000000000000000e+00,5.000000000000000000e+00,5.000000000000000000e+00,5.000000000000000000e+00,5.000000000000000000e+00
1.934016108512878418e+00,1.960741758346557617e+00,1.988216161727905273e+00,2.016471624374389648e+00,2.045541763305664062e+00,2.075462341308593750e+00,2.106271266937255859e+00,2.138008594512939453e+00,2.170717000961303711e+00,2.204441547393798828e+00,2.239230871200561523e+00,2.275135517120361328e+00,2.312210559844970703e+00,2.350513935089111328e+00,2.390107631683349609e+00,2.431058168411254883e+00,2.473436594009399414e+00,2.517318248748779297e+00,2.562779664993286133e+00,2.609895229339599609e+00,2.658775329589843750e+00,2.709521770477294922e+00,2.762242794036865234e+00,2.817056179046630859e+00,2.874090909957885742e+00,2.933511257171630859e+00,2.995440006256103516e+00,3.060040235519409180e+00,3.127487897872924805e+00,3.197975873947143555e+00,3.271714448928833008e+00,3.348933935165405273e+00,3.429886579513549805e+00,3.514849662780761719e+00,3.604129314422607422e+00,3.698062419891357422e+00,3.797022819519042969e+00,3.901425361633300781e+00,4.011731624603271484e+00,4.128456592559814453e+00,4.252197265625000000e+00,4.383593082427978516e+00,4.523368358612060547e+00,4.672350883483886719e+00,4.831481456756591797e+00,5.000000000000000000e+00,5.000000000000000000e+00,5.000000000000000000e+00,5.000000000000000000e+00,5.000000000000000000e+00,3.079470396041870117e+00,2.948069572448730469e+00,2.907220602035522461e+00,2.868369579315185547e+00,2.863063335418701172e+00,2.880008935928344727e+00,5.000000000000000000e+00,2.905837774276733398e+00,2.904752492904663086e+00,5.000000000000000000e+00,5.000000000000000000e+00,5.000000000000000000e+00,5.000000000000000000e+00,5.000000000000000000e+00,5.000000000000000000e+00,5.000000000000000000e+00,5.000000000000000000e+00,5.000000000000000000e+00,5.000000000000000000e+00,5.000000000000000000e+00,5.000000000000000000e+00,5.000000000000000000e+00,5.000000000000000000e+00,5.000000000000000000e+00,5.000000000000000000e+00,5.000000000000000000e+00,5.000000000000000000e+00,5.000000000000000000e+00,5.000000000000000000e+00,5.000000000000000000e+00
1.933987736701965332e+00,1.960712671279907227e+00,1.988186240196228027e+00,2.016440868377685547e+00,2.045510053634643555e+00,2.075429677963256836e+00,2.106237649917602539e+00,2.137974023818969727e+00,2.170681238174438477e+00,2.204404830932617188e+00,2.239192962646484375e+00,2.275096416473388672e+00,2.312170028686523438e+00,2.350471973419189453e+00,2.390064477920532227e+00,2.431013345718383789e+00,2.473390102386474609e+00,2.517270326614379883e+00,2.562735795974731445e+00,2.609873533248901367e+00,2.658775329589843750e+00,2.709521770477294922e+00,2.762242794036865234e+00,2.817056179046630859e+00,2.874089002609252930e+00,2.933479070663452148e+00,2.995375156402587891e+00,3.059969663619995117e+00,3.127413988113403320e+00,3.197898864746093750e+00,3.271633863449096680e+00,3.348849296569824219e+00,3.429797887802124023e+00,3.514756679534912109e+00,3.604031324386596680e+00,3.697959184646606445e+00,3.796914100646972656e+00,3.901310682296752930e+00,4.011610031127929688e+00,4.128328323364257812e+00,4.252041816711425781e+00,4.383415699005126953e+00,4.523179531097412109e+00,4.672149658203125000e+00,4.831266403198242188e+00,5.000000000000000000e+00,5.000000000000000000e+00,5.000000000000000000e+00,5.000000000000000000e+00,5.000000000000000000e+00,3.087856054306030273e+00,2.934111833572387695e+00,2.891370296478271484e+00,2.858864068984985352e+00,2.856705427169799805e+00,2.874177455902099609e+00,5.000000000000000000e+00,2.911195039749145508e+00,2.903275489807128906e+00,5.000000000000000000e+00,5.000000000000000000e+00,5.000000000000000000e+00,5.000000000000000000e+00,5.000000000000000000e+00,5.000000000000000000e+00,5.000000000000000000e+00,5.000000000000000000e+00,5.000000000000000000e+00,5.000000000000000000e+00,5.000000000000000000e+00,5.000000000000000000e+00,5.000000000000000000e+00,5.000000000000000000e+00,5.000000000000000000e+00,5.000000000000000000e+00,5.000000000000000000e+00,5.000000000000000000e+00,5.000000000000000000e+00,5.000000000000000000e+00,5.000000000000000000e+00
1.933959484100341797e+00,1.960683584213256836e+00,1.988156318664550781e+00,2.016409873962402344e+00,2.045478343963623047e+00,2.075397014617919922e+00,2.106204032897949219e+00,2.137939453125000000e+00,2.170645713806152344e+00,2.204368114471435547e+00,2.239154815673828125e+00,2.275057315826416016e+00,2.312129735946655273e+00,2.350430250167846680e+00,2.390021085739135742e+00,2.430968761444091797e+00,2.473343849182128906e+00,2.517222404479980469e+00,2.562685966491699219e+00,2.609822034835815430e+00,2.658724308013916016e+00,2.709494590759277344e+00,2.762241363525390625e+00,2.817056179046630859e+00,2.874089002609252930e+00,2.933479070663452148e+00,2.995375156402587891e+00,3.059939861297607422e+00,3.127349138259887695e+00,3.197821617126464844e+00,3.271553039550781250e+00,3.348764657974243164e+00,3.429709196090698242e+00,3.514663457870483398e+00,3.603933334350585938e+00,3.697856187820434570e+00,3.796805381774902344e+00,3.901196002960205078e+00,4.011488914489746094e+00,4.128200054168701172e+00,4.251905441284179688e+00,4.383253574371337891e+00,4.522990703582763672e+00,4.671947956085205078e+00,4.831050872802734375e+00,5.000000000000000000e+00,5.000000000000000000e+00,5.000000000000000000e+00,5.000000000000000000e+00,5.000000000000000000e+00,3.095917463302612305e+00,2.944069623947143555e+00,2.899914026260375977e+00,2.872584104537963867e+00,2.863312721252441406e+00,2.870121479034423828e+00,5.000000000000000000e+00,2.901354789733886719e+00,2.894227504730224609e+00,5.000000000000000000e+00,5.000000000000000000e+00,5.000000000000000000e+00,5.000000000000000000e+00,5.000000000000000000e+00,5.000000000000000000e+00,5.000000000000000000e+00,5.000000000000000000e+00,5.000000000000000000e+00,5.000000000000000000e+00,5.000000000000000000e+00,5.000000000000000000e+00,5.000000000000000000e+00,5.000000000000000000e+00,5.000000000000000000e+00,5.000000000000000000e+00,5.000000000000000000e+00,5.000000000000000000e+00,5.000000000000000000e+00,5.000000000000000000e+00,5.000000000000000000e+00
1.933931112289428711e+00,1.960654377937316895e+00,1.988126397132873535e+00,2.016379117965698242e+00,2.045446634292602539e+00,2.075364351272583008e+00,2.106170415878295898e+00,2.137904882431030273e+00,2.170609951019287109e+00,2.204331159591674805e+00,2.239116907119750977e+00,2.275017976760864258e+00,2.312089204788208008e+00,2.350388526916503906e+00,2.389977931976318359e+00,2.430923938751220703e+00,2.473297595977783203e+00,2.517174482345581055e+00,2.562636375427246094e+00,2.609770536422729492e+00,2.658670902252197266e+00,2.709439039230346680e+00,2.762183666229248047e+00,2.817022562026977539e+00,2.874083042144775391e+00,2.933479070663452148e+00,2.995375156402587891e+00,3.059939861297607422e+00,3.127349138259887695e+00,3.197795152664184570e+00,3.271487951278686523e+00,3.348680257797241211e+00,3.429620504379272461e+00,3.514570236206054688e+00,3.603835344314575195e+00,3.697752952575683594e+00,3.796696901321411133e+00,3.901081323623657227e+00,4.011367797851562500e+00,4.128071308135986328e+00,4.251769065856933594e+00,4.383109092712402344e+00,4.522821903228759766e+00,4.671746730804443359e+00,4.830835342407226562e+00,5.000000000000000000e+00,5.000000000000000000e+00,5.000000000000000000e+00,5.000000000000000000e+00,3.095233201980590820e+00,3.066231727600097656e+00,2.948952436447143555e+00,2.913736820220947266e+00,2.888250827789306641e+00,2.849266290664672852e+00,2.852490901947021484e+00,2.933074951171875000e+00,2.894226551055908203e+00,2.889110803604125977e+00,5.000000000000000000e+00,5.000000000000000000e+00,5.000000000000000000e+00,5.000000000000000000e+00,5.000000000000000000e+00,5.000000000000000000e+00,5.000000000000000000e+00,5.000000000000000000e+00,5.000000000000000000e+00,5.000000000000000000e+00,5.000000000000000000e+00,5.000000000000000000e+00,5.000000000000000000e+00,5.000000000000000000e+00,5.000000000000000000e+00,5.000000000000000000e+00,5.000000000000000000e+00,5.000000000000000000e+00,5.000000000000000000e+00,5.000000000000000000e+00,5.000000000000000000e+00
1.933902859687805176e+00,1.960625290870666504e+00,1.988096475601196289e+00,2.016348361968994141e+00,2.045414924621582031e+00,2.075331926345825195e+00,2.106136798858642578e+00,2.137870311737060547e+00,2.170574188232421875e+00,2.204294443130493164e+00,2.239078998565673828e+00,2.274978876113891602e+00,2.312048673629760742e+00,2.350346565246582031e+00,2.389934778213500977e+00,2.430879116058349609e+00,2.473251342773437500e+00,2.517126560211181641e+00,2.562586545944213867e+00,2.609719038009643555e+00,2.658617496490478516e+00,2.709383487701416016e+00,2.762125968933105469e+00,2.816962480545043945e+00,2.874020576477050781e+00,2.933438301086425781e+00,2.995364189147949219e+00,3.059939861297607422e+00,3.127349138259887695e+00,3.197795152664184570e+00,3.271487951278686523e+00,3.348657369613647461e+00,3.429555654525756836e+00,3.514477252960205078e+00,3.603737592697143555e+00,3.697649955749511719e+00,3.796588182449340820e+00,3.900966882705688477e+00,4.011246204376220703e+00,4.127943038940429688e+00,4.251632690429687500e+00,4.382964134216308594e+00,4.522667407989501953e+00,4.671569824218750000e+00,4.830619812011718750e+00,5.000000000000000000e+00,5.000000000000000000e+00,5.000000000000000000e+00,5.000000000000000000e+00,3.052870988845825195e+00,3.032139778137207031e+00,2.971192121505737305e+00,2.942792415618896484e+00,2.826449394226074219e+00,2.815290212631225586e+00,2.831223964691162109e+00,2.917034864425659180e+00,2.880643844604492188e+00,2.879294157028198242e+00,5.000000000000000000e+00,5.000000000000000000e+00,5.000000000000000000e+00,5.000000000000000000e+00,5.000000000000000000e+00,5.000000000000000000e+00,5.000000000000000000e+00,5.000000000000000000e+00,5.000000000000000000e+00,5.000000000000000000e+00,5.000000000000000000e+00,5.000000000000000000e+00,5.000000000000000000e+00,5.000000000000000000e+00,5.000000000000000000e+00,5.000000000000000000e+00,5.000000000000000000e+00,5.000000000000000000e+00,5.000000000000000000e+00,5.000000000000000000e+00,5.000000000000000000e+00
1.933874487876892090e+00,1.960596203804016113e+00,1.988066554069519043e+00,2.016317605972290039e+00,2.045383453369140625e+00,2.075299263000488281e+00,2.106103181838989258e+00,2.137835502624511719e+00,2.170538663864135742e+00,2.204257726669311523e+00,2.239041090011596680e+00,2.274939775466918945e+00,2.312008142471313477e+00,2.350304841995239258e+00,2.389891386032104492e+00,2.430834531784057617e+00,2.473204851150512695e+00,2.517078638076782227e+00,2.562536954879760742e+00,2.609667301177978516e+00,2.658563852310180664e+00,2.709327936172485352e+00,2.762068033218383789e+00,2.816902399063110352e+00,2.873958110809326172e+00,2.933372735977172852e+00,2.995296239852905273e+00,3.059890270233154297e+00,3.127331495285034180e+00,3.197795152664184570e+00,3.271487951278686523e+00,3.348657369613647461e+00,3.429555654525756836e+00,3.514459133148193359e+00,3.603673219680786133e+00,3.697546958923339844e+00,3.796479940414428711e+00,3.900852203369140625e+00,4.011125087738037109e+00,4.127814292907714844e+00,4.251496315002441406e+00,4.382819175720214844e+00,4.522513389587402344e+00,4.671405315399169922e+00,4.830435276031494141e+00,5.000000000000000000e+00,5.000000000000000000e+00,5.000000000000000000e+00,5.000000000000000000e+00,3.035093069076538086e+00,2.996632575988769531e+00,2.958199024200439453e+00,2.872598886489868164e+00,2.811939001083374023e+00,2.801952123641967773e+00,2.821036577224731445e+00,5.000000000000000000e+00,2.893250226974487305e+00,2.884263038635253906e+00,5.000000000000000000e+00,5.000000000000000000e+00,5.000000000000000000e+00,5.000000000000000000e+00,5.000000000000000000e+00,5.000000000000000000e+00,5.000000000000000000e+00,5.000000000000000000e+00,5.000000000000000000e+00,5.000000000000000000e+00,5.000000000000000000e+00,5.000000000000000000e+00,5.000000000000000000e+00,5.000000000000000000e+00,5.000000000000000000e+00,5.000000000000000000e+00,5.000000000000000000e+00,5.000000000000000000e+00,5.000000000000000000e+00,5.000000000000000000e+00,5.000000000000000000e+00
1.933846235275268555e+00,1.960567116737365723e+00,1.988036632537841797e+00,2.016286849975585938e+00,2.045351743698120117e+00,2.075266599655151367e+00,2.106069803237915039e+00,2.137800931930541992e+00,2.170502901077270508e+00,2.204221010208129883e+00,2.239003181457519531e+00,2.274900436401367188e+00,2.311967849731445312e+00,2.350262880325317383e+00,2.389848232269287109e+00,2.430789709091186523e+00,2.473158597946166992e+00,2.517030477523803711e+00,2.562487125396728516e+00,2.609615802764892578e+00,2.658510446548461914e+00,2.709272146224975586e+00,2.762010335922241211e+00,2.816842317581176758e+00,2.873895645141601562e+00,2.933307647705078125e+00,2.995228290557861328e+00,3.059819459915161133e+00,3.127257585525512695e+00,3.197735309600830078e+00,3.271463155746459961e+00,3.348657369613647461e+00,3.429555654525756836e+00,3.514459133148193359e+00,3.603673219680786133e+00,3.697534561157226562e+00,3.796416282653808594e+00,3.900737524032592773e+00,4.011003971099853516e+00,4.127686023712158203e+00,4.251360416412353516e+00,4.382674217224121094e+00,4.522359371185302734e+00,4.671241283416748047e+00,4.830259799957275391e+00,5.000000000000000000e+00,5.000000000000000000e+00,5.000000000000000000e+00,3.021304607391357422e+00,5.000000000000000000e+00,2.978461742401123047e+00,2.948336124420166016e+00,2.850448131561279297e+00,2.801435708999633789e+00,2.793120622634887695e+00,2.829097509384155273e+00,5.000000000000000000e+00,2.866840124130249023e+00,2.871401548385620117e+00,5.000000000000000000e+00,5.000000000000000000e+00,5.000000000000000000e+00,5.000000000000000000e+00,5.000000000000000000e+00,5.000000000000000000e+00,5.000000000000000000e+00,5.000000000000000000e+00,5.000000000000000000e+00,5.000000000000000000e+00,5.000000000000000000e+00,5.000000000000000000e+00,5.000000000000000000e+00,5.000000000000000000e+00,5.000000000000000000e+00,5.000000000000000000e+00,5.000000000000000000e+00,5.000000000000000000e+00,5.000000000000000000e+00,5.000000000000000000e+00,5.000000000000000000e+00
1.933817863464355469e+00,1.960538029670715332e+00,1.988006711006164551e+00,2.016256093978881836e+00,2.045320034027099609e+00,2.075233936309814453e+00,2.106036186218261719e+00,2.137766361236572266e+00,2.170467376708984375e+00,2.204184055328369141e+00,2.238965034484863281e+00,2.274861335754394531e+00,2.311927318572998047e+00,2.350221157073974609e+00,2.389805078506469727e+00,2.430745124816894531e+00,2.473112106323242188e+00,2.516982555389404297e+00,2.562437534332275391e+00,2.609564304351806641e+00,2.658456802368164062e+00,2.709216594696044922e+00,2.761952638626098633e+00,2.816782236099243164e+00,2.873832941055297852e+00,2.933242559432983398e+00,2.995160341262817383e+00,3.059748649597167969e+00,3.127183437347412109e+00,3.197658061981201172e+00,3.271382093429565430e+00,3.348585844039916992e+00,3.429522037506103516e+00,3.514459133148193359e+00,3.603673219680786133e+00,3.697534561157226562e+00,3.796416282653808594e+00,3.900732517242431641e+00,4.010942459106445312e+00,4.127561569213867188e+00,4.251224040985107422e+00,4.382529735565185547e+00,4.522205352783203125e+00,4.671076774597167969e+00,4.830083847045898438e+00,5.000000000000000000e+00,5.000000000000000000e+00,5.000000000000000000e+00,2.963724851608276367e+00,5.000000000000000000e+00,2.976625919342041016e+00,2.949267387390136719e+00,2.827921390533447266e+00,2.792362689971923828e+00,2.788774013519287109e+00,2.854414224624633789e+00,5.000000000000000000e+00,5.000000000000000000e+00,2.872467279434204102e+00,5.000000000000000000e+00,5.000000000000000000e+00,5.000000000000000000e+00,5.000000000000000000e+00,5.000000000000000000e+00,5.000000000000000000e+00,5.000000000000000000e+00,5.000000000000000000e+00,5.000000000000000000e+00,5.000000000000000000e+00,5.000000000000000000e+00,5.000000000000000000e+00,5.000000000000000000e+00,5.000000000000000000e+00,5.000000000000000000e+00,5.000000000000000000e+00,5.000000000000000000e+00,5.000000000000000000e+00,5.000000000000000000e+00,5.000000000000000000e+00,5.000000000000000000e+00
1.933789610862731934e+00,1.960508942604064941e+00,1.987976789474487305e+00,2.016225337982177734e+00,2.045288324356079102e+00,2.075201511383056641e+00,2.106002569198608398e+00,2.137731790542602539e+00,2.170431613922119141e+00,2.204147338867187500e+00,2.238927125930786133e+00,2.274822235107421875e+00,2.311886787414550781e+00,2.350179433822631836e+00,2.389761686325073242e+00,2.430700302124023438e+00,2.473065853118896484e+00,2.516934633255004883e+00,2.562387704849243164e+00,2.609512805938720703e+00,2.658403396606445312e+00,2.709161043167114258e+00,2.761894941329956055e+00,2.816722154617309570e+00,2.873770475387573242e+00,2.933177471160888672e+00,2.995092391967773438e+00,3.059677600860595703e+00,3.127109527587890625e+00,3.197580575942993164e+00,3.271301031112670898e+00,3.348500967025756836e+00,3.429432868957519531e+00,3.514373779296875000e+00,3.603629112243652344e+00,3.697534561157226562e+00,3.796416282653808594e+00,3.900732517242431641e+00,4.010942459106445312e+00,4.127561569213867188e+00,4.251165390014648438e+00,4.382400035858154297e+00,4.522051334381103516e+00,4.670912265777587891e+00,4.829907894134521484e+00,5.000000000000000000e+00,5.000000000000000000e+00,2.968647718429565430e+00,3.058972835540771484e+00,5.000000000000000000e+00,2.977396965026855469e+00,2.950223922729492188e+00,2.807286739349365234e+00,2.779970169067382812e+00,2.800482511520385742e+00,5.000000000000000000e+00,5.000000000000000000e+00,2.841623067855834961e+00,2.866354703903198242e+00,5.000000000000000000e+00,5.000000000000000000e+00,5.000000000000000000e+00,5.000000000000000000e+00,5.000000000000000000e+00,5.000000000000000000e+00,5.000000000000000000e+00,5.000000000000000000e+00,5.000000000000000000e+00,5.000000000000000000e+00,5.000000000000000000e+00,5.000000000000000000e+00,5.000000000000000000e+00,5.000000000000000000e+00,5.000000000000000000e+00,5.000000000000000000e+00,5.000000000000000000e+00,5.000000000000000000e+00,5.000000000000000000e+00,5.000000000000000000e+00,5.000000000000000000e+00
1.933761239051818848e+00,1.960479855537414551e+00,1.987946867942810059e+00,2.016194581985473633e+00,2.045256614685058594e+00,2.075168848037719727e+00,2.105968952178955078e+00,2.137696981430053711e+00,2.170396089553833008e+00,2.204110622406005859e+00,2.238889217376708984e+00,2.274782896041870117e+00,2.311846494674682617e+00,2.350137472152709961e+00,2.389718532562255859e+00,2.430655479431152344e+00,2.473019599914550781e+00,2.516886711120605469e+00,2.562338113784790039e+00,2.609461069107055664e+00,2.658349990844726562e+00,2.709105491638183594e+00,2.761837244033813477e+00,2.816662311553955078e+00,2.873708009719848633e+00,2.933112382888793945e+00,2.995024681091308594e+00,3.059606790542602539e+00,3.127035379409790039e+00,3.197503089904785156e+00,3.271219968795776367e+00,3.348416090011596680e+00,3.429343938827514648e+00,3.514280319213867188e+00,3.603530883789062500e+00,3.697433233261108398e+00,3.796360015869140625e+00,3.900726079940795898e+00,4.010942459106445312e+00,4.127561569213867188e+00,4.251165390014648438e+00,4.382400035858154297e+00,4.521996021270751953e+00,4.670777797698974609e+00,4.829731941223144531e+00,4.999920368194580078e+00,5.000000000000000000e+00,5.000000000000000000e+00,5.000000000000000000e+00,5.000000000000000000e+00,2.978013038635253906e+00,2.950736999511718750e+00,2.788118362426757812e+00,2.771452188491821289e+00,2.814992666244506836e+00,5.000000000000000000e+00,5.000000000000000000e+00,5.000000000000000000e+00,5.000000000000000000e+00,5.000000000000000000e+00,5.000000000000000000e+00,5.000000000000000000e+00,5.000000000000000000e+00,5.000000000000000000e+00,5.000000000000000000e+00,5.000000000000000000e+00,5.000000000000000000e+00,5.000000000000000000e+00,5.000000000000000000e+00,5.000000000000000000e+00,5.000000000000000000e+00,5.000000000000000000e+00,5.000000000000000000e+00,5.000000000000000000e+00,5.000000000000000000e+00,5.000000000000000000e+00,5.000000000000000000e+00,5.000000000000000000e+00,5.000000000000000000e+00,5.000000000000000000e+00
1.933732986450195312e+00,1.960450768470764160e+00,1.987916946411132812e+00,2.016163825988769531e+00,2.045225143432617188e+00,2.075136184692382812e+00,2.105935335159301758e+00,2.137662410736083984e+00,2.170360326766967773e+00,2.204073905944824219e+00,2.238851308822631836e+00,2.274743795394897461e+00,2.311805963516235352e+00,2.350095748901367188e+00,2.389675378799438477e+00,2.430610895156860352e+00,2.472973346710205078e+00,2.516838788986206055e+00,2.562288284301757812e+00,2.609409570693969727e+00,2.658296346664428711e+00,2.709049940109252930e+00,2.761779308319091797e+00,2.816602230072021484e+00,2.873645544052124023e+00,2.933047294616699219e+00,2.994956731796264648e+00,3.059535980224609375e+00,3.126961469650268555e+00,3.197425842285156250e+00,3.271139144897460938e+00,3.348331212997436523e+00,3.429254770278930664e+00,3.514186620712280273e+00,3.603432655334472656e+00,3.697329759597778320e+00,3.796250820159912109e+00,3.900610923767089844e+00,4.010870456695556641e+00,4.127545356750488281e+00,4.251165390014648438e+00,4.382400035858154297e+00,4.521996021270751953e+00,4.670777797698974609e+00,4.829682350158691406e+00,4.999780654907226562e+00,5.000000000000000000e+00,5.000000000000000000e+00,5.000000000000000000e+00,5.000000000000000000e+00,2.973860025405883789e+00,2.950623512268066406e+00,2.769434928894042969e+00,2.769132614135742188e+00,2.829889535903930664e+00,5.000000000000000000e+00,5.000000000000000000e+00,5.000000000000000000e+00,5.000000000000000000e+00,5.000000000000000000e+00,5.000000000000000000e+00,5.000000000000000000e+00,5.000000000000000000e+00,5.000000000000000000e+00,5.000000000000000000e+00,5.000000000000000000e+00,5.000000000000000000e+00,5.000000000000000000e+00,5.000000000000000000e+00,5.000000000000000000e+00,5.000000000000000000e+00,5.000000000000000000e+00,5.000000000000000000e+00,5.000000000000000000e+00,5.000000000000000000e+00,5.000000000000000000e+00,5.000000000000000000e+00,5.000000000000000000e+00,5.000000000000000000e+00,5.000000000000000000e+00
1.933704614639282227e+00,1.960421681404113770e+00,1.987887024879455566e+00,2.016133069992065430e+00,2.045193433761596680e+00,2.075103521347045898e+00,2.105901718139648438e+00,2.137627840042114258e+00,2.170324563980102539e+00,2.204036951065063477e+00,2.238813400268554688e+00,2.274704694747924805e+00,2.311765432357788086e+00,2.350054025650024414e+00,2.389631986618041992e+00,2.430566072463989258e+00,2.472927093505859375e+00,2.516790866851806641e+00,2.562238693237304688e+00,2.609358072280883789e+00,2.658242940902709961e+00,2.708994626998901367e+00,2.761721611022949219e+00,2.816542148590087891e+00,2.873583078384399414e+00,2.932981967926025391e+00,2.994888782501220703e+00,3.059465169906616211e+00,3.126887321472167969e+00,3.197348356246948242e+00,3.271058082580566406e+00,3.348246335983276367e+00,3.429165840148925781e+00,3.514093160629272461e+00,3.603334188461303711e+00,3.697226285934448242e+00,3.796141862869262695e+00,3.900495767593383789e+00,4.010748863220214844e+00,4.127416610717773438e+00,4.251074790954589844e+00,4.382371902465820312e+00,4.521996021270751953e+00,4.670777797698974609e+00,4.829682350158691406e+00,4.999780654907226562e+00,5.000000000000000000e+00,5.000000000000000000e+00,5.000000000000000000e+00,5.000000000000000000e+00,2.974045991897583008e+00,2.948585987091064453e+00,2.771408081054687500e+00,2.779849052429199219e+00,5.000000000000000000e+00,5.000000000000000000e+00,5.000000000000000000e+00,5.000000000000000000e+00,5.000000000000000000e+00,5.000000000000000000e+00,5.000000000000000000e+00,5.000000000000000000e+00,5.000000000000000000e+00,5.000000000000000000e+00,5.000000000000000000e+00,5.000000000000000000e+00,5.000000000000000000e+00,5.000000000000000000e+00,5.000000000000000000e+00,5.000000000000000000e+00,5.000000000000000000e+00,5.000000000000000000e+00,5.000000000000000000e+00,5.000000000000000000e+00,5.000000000000000000e+00,5.000000000000000000e+00,5.000000000000000000e+00,5.000000000000000000e+00,5.000000000000000000e+00,5.000000000000000000e+00
1.933676362037658691e+00,1.960392594337463379e+00,1.987857103347778320e+00,2.016102313995361328e+00,2.045161724090576172e+00,2.075071096420288086e+00,2.105868339538574219e+00,2.137593269348144531e+00,2.170289039611816406e+00,2.204000234603881836e+00,2.238775491714477539e+00,2.274665594100952148e+00,2.311725139617919922e+00,2.350012063980102539e+00,2.389588832855224609e+00,2.430521488189697266e+00,2.472880601882934570e+00,2.516742944717407227e+00,2.562188863754272461e+00,2.609306573867797852e+00,2.658189535140991211e+00,2.708939075469970703e+00,2.761663913726806641e+00,2.816482067108154297e+00,2.873520374298095703e+00,2.932916879653930664e+00,2.994820833206176758e+00,3.059394359588623047e+00,3.126813411712646484e+00,3.197271108627319336e+00,3.270977020263671875e+00,3.348161458969116211e+00,3.429076910018920898e+00,3.513999700546264648e+00,3.603235960006713867e+00,3.697122335433959961e+00,3.796032667160034180e+00,3.900380611419677734e+00,4.010626792907714844e+00,4.127287387847900391e+00,4.250938415527343750e+00,4.382226467132568359e+00,4.521883010864257812e+00,4.670733451843261719e+00,4.829682350158691406e+00,4.999780654907226562e+00,5.000000000000000000e+00,5.000000000000000000e+00,5.000000000000000000e+00,5.000000000000000000e+00,2.982448101043701172e+00,2.954811096191406250e+00,2.796418905258178711e+00,2.789548873901367188e+00,2.840593099594116211e+00,5.000000000000000000e+00,5.000000000000000000e+00,5.000000000000000000e+00,5.000000000000000000e+00,5.000000000000000000e+00,5.000000000000000000e+00,5.000000000000000000e+00,5.000000000000000000e+00,5.000000000000000000e+00,5.000000000000000000e+00,5.000000000000000000e+00,5.000000000000000000e+00,5.000000000000000000e+00,5.000000000000000000e+00,5.000000000000000000e+00,5.000000000000000000e+00,5.000000000000000000e+00,5.000000000000000000e+00,5.000000000000000000e+00,5.000000000000000000e+00,5.000000000000000000e+00,5.000000000000000000e+00,5.000000000000000000e+00,5.000000000000000000e+00,5.000000000000000000e+00
1.933648109436035156e+00,1.960363507270812988e+00,1.987827181816101074e+00,2.016071557998657227e+00,2.045130014419555664e+00,2.075038433074951172e+00,2.105834722518920898e+00,2.137558698654174805e+00,2.170253276824951172e+00,2.203963518142700195e+00,2.238737583160400391e+00,2.274626255035400391e+00,2.311684608459472656e+00,2.349970340728759766e+00,2.389545679092407227e+00,2.430476665496826172e+00,2.472834348678588867e+00,2.516695022583007812e+00,2.562139272689819336e+00,2.609255075454711914e+00,2.658135890960693359e+00,2.708883523941040039e+00,2.761606216430664062e+00,2.816421985626220703e+00,2.873457908630371094e+00,2.932851791381835938e+00,2.994752645492553711e+00,3.059323310852050781e+00,3.126739501953125000e+00,3.197193622589111328e+00,3.270896196365356445e+00,3.348076820373535156e+00,3.428987741470336914e+00,3.513906240463256836e+00,3.603137731552124023e+00,3.697018861770629883e+00,3.795923709869384766e+00,3.900265455245971680e+00,4.010505199432373047e+00,4.127158641815185547e+00,4.250801563262939453e+00,4.382081031799316406e+00,4.521728038787841797e+00,4.670568466186523438e+00,4.829540729522705078e+00,4.999716758728027344e+00,5.000000000000000000e+00,5.000000000000000000e+00,5.000000000000000000e+00,5.000000000000000000e+00,5.000000000000000000e+00,2.993247747421264648e+00,2.832889795303344727e+00,2.804654598236083984e+00,2.824699163436889648e+00,5.000000000000000000e+00,5.000000000000000000e+00,5.000000000000000000e+00,5.000000000000000000e+00,5.000000000000000000e+00,5.000000000000000000e+00,5.000000000000000000e+00,5.000000000000000000e+00,5.000000000000000000e+00,5.000000000000000000e+00,5.000000000000000000e+00,5.000000000000000000e+00,5.000000000000000000e+00,5.000000000000000000e+00,5.000000000000000000e+00,5.000000000000000000e+00,5.000000000000000000e+00,5.000000000000000000e+00,5.000000000000000000e+00,5.000000000000000000e+00,5.000000000000000000e+00,5.000000000000000000e+00,5.000000000000000000e+00,5.000000000000000000e+00,5.000000000000000000e+00
1.933619737625122070e+00,1.960334420204162598e+00,1.987797260284423828e+00,2.016040802001953125e+00,2.045098304748535156e+00,2.075005769729614258e+00,2.105801105499267578e+00,2.137524127960205078e+00,2.170217752456665039e+00,2.203926801681518555e+00,2.238699436187744141e+00,2.274587154388427734e+00,2.311644077301025391e+00,2.349928617477416992e+00,2.389502286911010742e+00,2.430432081222534180e+00,2.472788095474243164e+00,2.516646862030029297e+00,2.562089681625366211e+00,2.609203577041625977e+00,2.658082485198974609e+00,2.708827972412109375e+00,2.761548519134521484e+00,2.816361904144287109e+00,2.873395442962646484e+00,2.932786703109741211e+00,2.994684934616088867e+00,3.059252500534057617e+00,3.126665353775024414e+00,3.197116374969482422e+00,3.270815134048461914e+00,3.347991943359375000e+00,3.428898811340332031e+00,3.513812780380249023e+00,3.603039503097534180e+00,3.696915388107299805e+00,3.795814514160156250e+00,3.900150299072265625e+00,4.010383605957031250e+00,4.127029418945312500e+00,4.250664710998535156e+00,4.381935596466064453e+00,4.521573543548583984e+00,4.670403003692626953e+00,4.829364299774169922e+00,4.999527454376220703e+00,5.000000000000000000e+00,5.000000000000000000e+00,5.000000000000000000e+00,5.000000000000000000e+00,5.000000000000000000e+00,5.000000000000000000e+00,2.846267938613891602e+00,2.811308383941650391e+00,2.832291603088378906e+00,5.000000000000000000e+00,5.000000000000000000e+00,5.000000000000000000e+00,5.000000000000000000e+00,5.000000000000000000e+00,5.000000000000000000e+00,5.000000000000000000e+00,5.000000000000000000e+00,5.000000000000000000e+00,5.000000000000000000e+00,5.000000000000000000e+00,5.000000000000000000e+00,5.000000000000000000e+00,5.000000000000000000e+00,5.000000000000000000e+00,5.000000000000000000e+00,5.000000000000000000e+00,5.000000000000000000e+00,5.000000000000000000e+00,5.000000000000000000e+00,5.000000000000000000e+00,5.000000000000000000e+00,5.000000000000000000e+00,5.000000000000000000e+00,5.000000000000000000e+00
1.933591485023498535e+00,1.960305333137512207e+00,1.987767338752746582e+00,2.016010046005249023e+00,2.045066833496093750e+00,2.074973344802856445e+00,2.105767488479614258e+00,2.137489557266235352e+00,2.170181989669799805e+00,2.203890085220336914e+00,2.238661527633666992e+00,2.274548053741455078e+00,2.311603784561157227e+00,2.349886655807495117e+00,2.389459133148193359e+00,2.430387258529663086e+00,2.472741842269897461e+00,2.516598939895629883e+00,2.562039852142333984e+00,2.609151840209960938e+00,2.658029079437255859e+00,2.708772420883178711e+00,2.761490821838378906e+00,2.816301822662353516e+00,2.873332977294921875e+00,2.932721614837646484e+00,2.994616985321044922e+00,3.059181690216064453e+00,3.126591444015502930e+00,3.197038888931274414e+00,3.270734071731567383e+00,3.347907066345214844e+00,3.428809881210327148e+00,3.513719320297241211e+00,3.602941274642944336e+00,3.696811914443969727e+00,3.795705556869506836e+00,3.900035142898559570e+00,4.010261535644531250e+00,4.126900672912597656e+00,4.250527381896972656e+00,4.381790637969970703e+00,4.521418571472167969e+00,4.670238018035888672e+00,4.829187870025634766e+00,4.999338150024414062e+00,5.000000000000000000e+00,5.000000000000000000e+00,5.000000000000000000e+00,5.000000000000000000e+00,5.000000000000000000e+00,5.000000000000000000e+00,2.849723339080810547e+00,2.817880868911743164e+00,2.844044685363769531e+00,5.000000000000000000e+00,5.000000000000000000e+00,5.000000000000000000e+00,5.000000000000000000e+00,5.000000000000000000e+00,5.000000000000000000e+00,5.000000000000000000e+00,5.000000000000000000e+00,5.000000000000000000e+00,5.000000000000000000e+00,5.000000000000000000e+00,5.000000000000000000e+00,5.000000000000000000e+00,5.000000000000000000e+00,5.000000000000000000e+00,5.000000000000000000e+00,5.000000000000000000e+00,5.000000000000000000e+00,5.000000000000000000e+00,5.000000000000000000e+00,5.000000000000000000e+00,5.000000000000000000e+00,5.000000000000000000e+00,5.000000000000000000e+00,5.000000000000000000e+00
1.933563113212585449e+00,1.960276246070861816e+00,1.987737417221069336e+00,2.015979290008544922e+00,2.045035123825073242e+00,2.074940681457519531e+00,2.105733871459960938e+00,2.137454986572265625e+00,2.170146226882934570e+00,2.203853130340576172e+00,2.238623619079589844e+00,2.274508953094482422e+00,2.311563253402709961e+00,2.349844932556152344e+00,2.389415979385375977e+00,2.430342435836791992e+00,2.472695589065551758e+00,2.516551017761230469e+00,2.561990261077880859e+00,2.609100341796875000e+00,2.657975435256958008e+00,2.708716869354248047e+00,2.761433124542236328e+00,2.816241741180419922e+00,2.873270511627197266e+00,2.932656526565551758e+00,2.994549036026000977e+00,3.059110879898071289e+00,3.126517295837402344e+00,3.196961641311645508e+00,3.270653247833251953e+00,3.347822189331054688e+00,3.428720951080322266e+00,3.513625860214233398e+00,3.602842807769775391e+00,3.696708440780639648e+00,3.795596599578857422e+00,3.899919986724853516e+00,4.010139942169189453e+00,4.126771926879882812e+00,4.250391006469726562e+00,4.381645202636718750e+00,4.521264076232910156e+00,4.670073032379150391e+00,4.829010963439941406e+00,4.999149322509765625e+00,5.000000000000000000e+00,5.000000000000000000e+00,5.000000000000000000e+00,5.000000000000000000e+00,5.000000000000000000e+00,5.000000000000000000e+00,2.852760553359985352e+00,2.826279401779174805e+00,2.866878747940063477e+00,3.249985933303833008e+00,5.000000000000000000e+00,5.000000000000000000e+00,5.000000000000000000e+00,5.000000000000000000e+00,5.000000000000000000e+00,5.000000000000000000e+00,5.000000000000000000e+00,5.000000000000000000e+00,5.000000000000000000e+00,5.000000000000000000e+00,5.000000000000000000e+00,5.000000000000000000e+00,5.000000000000000000e+00,5.000000000000000000e+00,5.000000000000000000e+00,5.000000000000000000e+00,5.000000000000000000e+00,5.000000000000000000e+00,5.000000000000000000e+00,5.000000000000000000e+00,5.000000000000000000e+00,5.000000000000000000e+00,5.000000000000000000e+00,5.000000000000000000e+00
1.933534860610961914e+00,1.960247159004211426e+00,1.987707495689392090e+00,2.015948295593261719e+00,2.045003414154052734e+00,2.074908018112182617e+00,2.105700492858886719e+00,2.137420415878295898e+00,2.170110702514648438e+00,2.203816413879394531e+00,2.238585710525512695e+00,2.274469614028930664e+00,2.311522722244262695e+00,2.349803209304809570e+00,2.389372825622558594e+00,2.430297851562500000e+00,2.472649335861206055e+00,2.516502857208251953e+00,2.561940431594848633e+00,2.609048843383789062e+00,2.657922029495239258e+00,2.708661317825317383e+00,2.761375188827514648e+00,2.816181898117065430e+00,2.873208045959472656e+00,2.932591438293457031e+00,2.994481325149536133e+00,3.059040069580078125e+00,3.126443386077880859e+00,3.196884155273437500e+00,3.270572185516357422e+00,3.347737312316894531e+00,3.428631782531738281e+00,3.513532400131225586e+00,3.602744579315185547e+00,3.696605205535888672e+00,3.795487403869628906e+00,3.899804830551147461e+00,4.010018348693847656e+00,4.126642704010009766e+00,4.250254154205322266e+00,4.381499767303466797e+00,4.521109104156494141e+00,4.669908046722412109e+00,4.828834533691406250e+00,4.998960018157958984e+00,5.000000000000000000e+00,5.000000000000000000e+00,5.000000000000000000e+00,5.000000000000000000e+00,5.000000000000000000e+00,5.000000000000000000e+00,2.858079433441162109e+00,2.837127685546875000e+00,5.000000000000000000e+00,3.258967161178588867e+00,5.000000000000000000e+00,5.000000000000000000e+00,5.000000000000000000e+00,5.000000000000000000e+00,5.000000000000000000e+00,5.000000000000000000e+00,5.000000000000000000e+00,5.000000000000000000e+00,5.000000000000000000e+00,5.000000000000000000e+00,5.000000000000000000e+00,5.000000000000000000e+00,5.000000000000000000e+00,5.000000000000000000e+00,5.000000000000000000e+00,5.000000000000000000e+00,5.000000000000000000e+00,5.000000000000000000e+00,5.000000000000000000e+00,5.000000000000000000e+00,5.000000000000000000e+00,5.000000000000000000e+00,5.000000000000000000e+00,5.000000000000000000e+00
1.933506488800048828e+00,1.960218071937561035e+00,1.987677693367004395e+00,2.015917539596557617e+00,2.044971704483032227e+00,2.074875354766845703e+00,2.105666875839233398e+00,2.137385845184326172e+00,2.170074939727783203e+00,2.203779697418212891e+00,2.238547801971435547e+00,2.274430513381958008e+00,2.311482429504394531e+00,2.349761247634887695e+00,2.389329433441162109e+00,2.430253028869628906e+00,2.472603082656860352e+00,2.516454935073852539e+00,2.561890840530395508e+00,2.608997344970703125e+00,2.657868623733520508e+00,2.708605766296386719e+00,2.761317491531372070e+00,2.816121816635131836e+00,2.873145580291748047e+00,2.932526350021362305e+00,2.994413375854492188e+00,3.058969259262084961e+00,3.126369476318359375e+00,3.196806907653808594e+00,3.270491123199462891e+00,3.347652435302734375e+00,3.428542852401733398e+00,3.513438940048217773e+00,3.602646350860595703e+00,3.696501731872558594e+00,3.795378446578979492e+00,3.899689674377441406e+00,4.009896278381347656e+00,4.126513957977294922e+00,4.250117301940917969e+00,4.381354331970214844e+00,4.520954608917236328e+00,4.669742584228515625e+00,4.828658103942871094e+00,4.998770236968994141e+00,5.000000000000000000e+00,5.000000000000000000e+00,5.000000000000000000e+00,5.000000000000000000e+00,5.000000000000000000e+00,5.000000000000000000e+00,2.863417863845825195e+00,2.848140001296997070e+00,5.000000000000000000e+00,3.265368223190307617e+00,5.000000000000000000e+00,5.000000000000000000e+00,5.000000000000000000e+00,5.000000000000000000e+00,5.000000000000000000e+00,5.000000000000000000e+00,5.000000000000000000e+00,5.000000000000000000e+00,5.000000000000000000e+00,5.000000000000000000e+00,5.000000000000000000e+00,5.000000000000000000e+00,5.000000000000000000e+00,5.000000000000000000e+00,5.000000000000000000e+00,5.000000000000000000e+00,5.000000000000000000e+00,5.000000000000000000e+00,5.000000000000000000e+00,5.000000000000000000e+00,5.000000000000000000e+00,5.000000000000000000e+00,5.000000000000000000e+00,5.000000000000000000e+00
1.933478236198425293e+00,1.960188984870910645e+00,1.987647771835327148e+00,2.015886783599853516e+00,2.044939994812011719e+00,2.074842929840087891e+00,2.105633258819580078e+00,2.137351274490356445e+00,2.170039415359497070e+00,2.203742980957031250e+00,2.238509893417358398e+00,2.274391412734985352e+00,2.311441898345947266e+00,2.349719524383544922e+00,2.389286279678344727e+00,2.430208444595336914e+00,2.472556829452514648e+00,2.516407012939453125e+00,2.561841249465942383e+00,2.608945846557617188e+00,2.657814979553222656e+00,2.708550214767456055e+00,2.761259794235229492e+00,2.816061735153198242e+00,2.873083114624023438e+00,2.932461261749267578e+00,2.994345426559448242e+00,3.058898448944091797e+00,3.126295328140258789e+00,3.196729421615600586e+00,3.270410299301147461e+00,3.347567796707153320e+00,3.428453922271728516e+00,3.513345479965209961e+00,3.602548122406005859e+00,3.696398258209228516e+00,3.795269012451171875e+00,3.899574756622314453e+00,4.009774684906005859e+00,4.126385211944580078e+00,4.249980449676513672e+00,4.381208896636962891e+00,4.520799636840820312e+00,4.669577598571777344e+00,4.821076393127441406e+00,4.819886207580566406e+00,4.818696975708007812e+00,4.817508220672607422e+00,4.816320419311523438e+00,4.815132617950439453e+00,4.813945770263671875e+00,4.812759399414062500e+00,4.811573505401611328e+00,2.869273185729980469e+00,4.809204101562500000e+00,3.277686834335327148e+00,4.806836605072021484e+00,4.805653572082519531e+00,4.804471492767333984e+00,4.803289890289306641e+00,4.802108764648437500e+00,4.800928115844726562e+00,4.799748420715332031e+00,4.798569202423095703e+00,4.797389984130859375e+00,4.796212196350097656e+00,4.795034408569335938e+00,4.793857097625732422e+00,4.792681217193603516e+00,4.791505336761474609e+00,4.790329933166503906e+00,4.789155006408691406e+00,4.787981033325195312e+00,4.786807537078857422e+00,4.785634517669677734e+00,4.784461975097656250e+00,4.783290386199951172e+00,4.782119274139404297e+00,4.780948162078857422e+00,4.779778003692626953e+00
1.933449983596801758e+00,1.960159897804260254e+00,1.987617850303649902e+00,2.015856027603149414e+00,2.044908523559570312e+00,2.074810266494750977e+00,2.105599641799926758e+00,2.137316703796386719e+00,2.170003652572631836e+00,2.203706264495849609e+00,2.238471984863281250e+00,2.274352312088012695e+00,2.311401367187500000e+00,2.349677801132202148e+00,2.389243125915527344e+00,2.430163621902465820e+00,2.472510576248168945e+00,2.516359090805053711e+00,2.561791419982910156e+00,2.608894348144531250e+00,2.657761573791503906e+00,2.708494663238525391e+00,2.761202096939086914e+00,2.816001653671264648e+00,2.873020410537719727e+00,2.932396173477172852e+00,2.994277477264404297e+00,3.058827161788940430e+00,3.126221418380737305e+00,3.196652173995971680e+00,3.270329236984252930e+00,3.347482919692993164e+00,3.428364992141723633e+00,3.513252258300781250e+00,3.602449893951416016e+00,3.696294784545898438e+00,3.751410007476806641e+00,3.750689744949340820e+00,3.749969482421875000e+00,3.749249696731567383e+00,3.748529672622680664e+00,3.747810363769531250e+00,3.747091293334960938e+00,3.746372222900390625e+00,3.745653629302978516e+00,3.744935512542724609e+00,3.744217634201049805e+00,3.743499994277954102e+00,3.742782115936279297e+00,3.742065191268920898e+00,3.741348266601562500e+00,3.740631818771362305e+00,2.843415975570678711e+00,2.862667083740234375e+00,3.738483905792236328e+00,3.737767934799194336e+00,3.737052679061889648e+00,3.736337900161743164e+00,3.735623121261596680e+00,3.734908819198608398e+00,3.734194755554199219e+00,3.733480930328369141e+00,3.732767343521118164e+00,3.732053756713867188e+00,3.731340646743774414e+00,3.730628013610839844e+00,3.729915618896484375e+00,3.729203462600708008e+00,3.728491544723510742e+00,3.727779865264892578e+00,3.727067947387695312e+00,3.726356983184814453e+00,3.725646018981933594e+00,3.724935531616210938e+00,3.724225282669067383e+00,3.723515272140502930e+00,3.722805500030517578e+00,3.722095727920532227e+00,3.721386432647705078e+00,3.720677375793457031e+00
1.933421611785888672e+00,1.960130810737609863e+00,1.987587928771972656e+00,2.015825271606445312e+00,2.044876813888549805e+00,2.074777603149414062e+00,2.105566263198852539e+00,2.137282133102416992e+00,2.169968128204345703e+00,2.203669309616088867e+00,2.238434076309204102e+00,2.274312973022460938e+00,2.311361074447631836e+00,2.349635839462280273e+00,2.389199972152709961e+00,2.430119037628173828e+00,2.472464084625244141e+00,2.516311168670654297e+00,2.561741590499877930e+00,2.608842849731445312e+00,2.657708168029785156e+00,2.708439111709594727e+00,2.761144399642944336e+00,2.815941810607910156e+00,2.872957944869995117e+00,2.932331085205078125e+00,2.994209766387939453e+00,3.058756351470947266e+00,3.070213556289672852e+00,3.069730997085571289e+00,3.069248437881469727e+00,3.068766117095947266e+00,3.068284034729003906e+00,3.067801713943481445e+00,3.067320108413696289e+00,3.066838264465332031e+00,3.066356897354125977e+00,3.065875291824340820e+00,3.065394163131713867e+00,3.064913034439086914e+00,3.064431905746459961e+00,3.063951253890991211e+00,3.063470602035522461e+00,3.062989950180053711e+00,3.062509536743164062e+00,3.062029600143432617e+00,3.061549425125122070e+00,3.061069488525390625e+00,3.060589790344238281e+00,3.060110092163085938e+00,2.799162387847900391e+00,2.786600112915039062e+00,2.791153192520141602e+00,3.058193206787109375e+00,3.057714462280273438e+00,3.057235956192016602e+00,3.056757450103759766e+00,3.056278944015502930e+00,3.055800676345825195e+00,3.055322647094726562e+00,3.054844617843627930e+00,3.054366827011108398e+00,3.053889274597167969e+00,3.053411960601806641e+00,3.052934646606445312e+00,3.052457094192504883e+00,3.051980257034301758e+00,3.051503419876098633e+00,3.051026582717895508e+00,3.050550222396850586e+00,3.050073862075805664e+00,3.049597501754760742e+00,3.049121379852294922e+00,3.048645257949829102e+00,3.048169374465942383e+00,3.047693729400634766e+00,3.047218322753906250e+00,3.046742916107177734e+00,3.046267747879028320e+00,3.045792818069458008e+00
1.933393359184265137e+00,1.960101723670959473e+00,1.987558007240295410e+00,2.015794515609741211e+00,2.044845104217529297e+00,2.074745178222656250e+00,2.105532646179199219e+00,2.137247562408447266e+00,2.169932365417480469e+00,2.203632593154907227e+00,2.238396167755126953e+00,2.274273872375488281e+00,2.311320543289184570e+00,2.349594116210937500e+00,2.389156579971313477e+00,2.430074214935302734e+00,2.472417831420898438e+00,2.516263246536254883e+00,2.561691999435424805e+00,2.598733425140380859e+00,2.598387479782104492e+00,2.598041772842407227e+00,2.597696304321289062e+00,2.597350835800170898e+00,2.597005128860473633e+00,2.596659898757934570e+00,2.596314668655395508e+00,2.595969438552856445e+00,2.595624446868896484e+00,2.595279455184936523e+00,2.594934701919555664e+00,2.594589710235595703e+00,2.594245195388793945e+00,2.593900680541992188e+00,2.593555927276611328e+00,2.593211650848388672e+00,2.592867374420166016e+00,2.592523097991943359e+00,2.592178821563720703e+00,2.591835021972656250e+00,2.591490983963012695e+00,2.591146945953369141e+00,2.590803384780883789e+00,2.590459585189819336e+00,2.590116024017333984e+00,2.589772462844848633e+00,2.589429140090942383e+00,2.589085817337036133e+00,2.588742494583129883e+00,2.588399410247802734e+00,2.588056564331054688e+00,2.587713479995727539e+00,2.587370634078979492e+00,2.587027788162231445e+00,2.586684942245483398e+00,2.586342573165893555e+00,2.585999965667724609e+00,2.585657835006713867e+00,2.585315465927124023e+00,2.584973335266113281e+00,2.584631204605102539e+00,2.584289073944091797e+00,2.583947181701660156e+00,2.583605289459228516e+00,2.583263635635375977e+00,2.582921981811523438e+00,2.582580566406250000e+00,2.582239151000976562e+00,2.581897497177124023e+00,2.581556320190429688e+00,2.581215143203735352e+00,2.580873966217041016e+00,2.580533027648925781e+00,2.580192089080810547e+00,2.579851150512695312e+00,2.579510211944580078e+00,2.579169750213623047e+00,2.578829050064086914e+00,2.578488588333129883e+00,2.578148365020751953e+00
1.933365106582641602e+00,1.960072636604309082e+00,1.987528085708618164e+00,2.015763759613037109e+00,2.044813394546508789e+00,2.074712514877319336e+00,2.105499029159545898e+00,2.137212991714477539e+00,2.169896841049194336e+00,2.203595638275146484e+00,2.238358259201049805e+00,2.252522706985473633e+00,2.252263069152832031e+00,2.252003192901611328e+00,2.251743555068969727e+00,2.251483917236328125e+00,2.251224517822265625e+00,2.250964879989624023e+00,2.250705480575561523e+00,2.250446081161499023e+00,2.250186920166015625e+00,2.249927520751953125e+00,2.249668359756469727e+00,2.249409198760986328e+00,2.249150037765502930e+00,2.248891115188598633e+00,2.248632192611694336e+00,2.248373270034790039e+00,2.248114347457885742e+00,2.247855663299560547e+00,2.247596979141235352e+00,2.247338056564331055e+00,2.247079610824584961e+00,2.246821165084838867e+00,2.246562480926513672e+00,2.246304035186767578e+00,2.246045827865600586e+00,2.245787620544433594e+00,2.245529174804687500e+00,2.245270967483520508e+00,2.245012998580932617e+00,2.244754791259765625e+00,2.244496822357177734e+00,2.244238853454589844e+00,2.243980884552001953e+00,2.243723154067993164e+00,2.243465423583984375e+00,2.243207693099975586e+00,2.242949962615966797e+00,2.242692470550537109e+00,2.242434978485107422e+00,2.242177248001098633e+00,2.241919994354248047e+00,2.241662740707397461e+00,2.241405248641967773e+00,2.241147994995117188e+00,2.240890741348266602e+00,2.240633726119995117e+00,2.240376710891723633e+00,2.240119695663452148e+00,2.239862680435180664e+00,2.239605903625488281e+00,2.239349126815795898e+00,2.239092350006103516e+00,2.238835573196411133e+00,2.238579034805297852e+00,2.238322496414184570e+00,2.238065958023071289e+00,2.237809658050537109e+00,2.237553119659423828e+00,2.237296819686889648e+00,2.237040519714355469e+00,2.236784219741821289e+00,2.236528158187866211e+00,2.236272096633911133e+00,2.236016035079956055e+00,2.235759973526000977e+00,2.235504150390625000e+00,2.235248088836669922e+00,2.234992265701293945e+00
1.933336734771728516e+00,1.960043549537658691e+00,1.987498164176940918e+00,1.987713932991027832e+00,1.987511634826660156e+00,1.987309455871582031e+00,1.987107157707214355e+00,1.986905097961425781e+00,1.986702680587768555e+00,1.986500620841979980e+00,1.986298680305480957e+00,1.986096620559692383e+00,1.985894680023193359e+00,1.985692858695983887e+00,1.985490918159484863e+00,1.985288977622985840e+00,1.985087156295776367e+00,1.984885454177856445e+00,1.984683752059936523e+00,1.984482049942016602e+00,1.984280467033386230e+00,1.984078645706176758e+00,1.983877062797546387e+00,1.983675599098205566e+00,1.983474135398864746e+00,1.983272790908813477e+00,1.983071327209472656e+00,1.982870101928710938e+00,1.982668519020080566e+00,1.982467293739318848e+00,1.982266068458557129e+00,1.982064962387084961e+00,1.981863737106323242e+00,1.981662750244140625e+00,1.981461644172668457e+00,1.981260418891906738e+00,1.981059432029724121e+00,1.980858564376831055e+00,1.980657696723937988e+00,1.980456829071044922e+00,1.980256080627441406e+00,1.980055093765258789e+00,1.979854345321655273e+00,1.979653596878051758e+00,1.979452967643737793e+00,1.979252457618713379e+00,1.979051828384399414e+00,1.978851318359375000e+00,1.978650689125061035e+00,1.978450179100036621e+00,1.978249788284301758e+00,1.978049397468566895e+00,1.977849125862121582e+00,1.977648854255676270e+00,1.977448582649230957e+00,1.977248191833496094e+00,1.977048039436340332e+00,1.976847887039184570e+00,1.976647853851318359e+00,1.976447820663452148e+00,1.976247668266296387e+00,1.976047635078430176e+00,1.975847721099853516e+00,1.975647926330566406e+00,1.975448131561279297e+00,1.975248336791992188e+00,1.975048542022705078e+00,1.974848866462707520e+00,1.974649190902709961e+00,1.974449515342712402e+00,1.974249958992004395e+00,1.974050402641296387e+00,1.973850965499877930e+00,1.973651409149169922e+00,1.973451852798461914e+00,1.973252415657043457e+00,1.973053097724914551e+00,1.972853779792785645e+00,1.972654461860656738e+00,1.972455263137817383e+00
1.777808308601379395e+00,1.777646422386169434e+00,1.777484536170959473e+00,1.777322769165039062e+00,1.777161002159118652e+00,1.776999354362487793e+00,1.776837706565856934e+00,1.776676058769226074e+00,1.776514291763305664e+00,1.776352763175964355e+00,1.776191115379333496e+00,1.776029706001281738e+00,1.775868177413940430e+00,1.775706768035888672e+00,1.775545239448547363e+00,1.775383710861206055e+00,1.775222301483154297e+00,1.775061011314392090e+00,1.774899721145629883e+00,1.774738430976867676e+00,1.774577140808105469e+00,1.774415969848632812e+00,1.774254560470581055e+00,1.774093389511108398e+00,1.773932218551635742e+00,1.773771166801452637e+00,1.773610115051269531e+00,1.773449063301086426e+00,1.773287773132324219e+00,1.773126840591430664e+00,1.772965908050537109e+00,1.772804975509643555e+00,1.772644042968750000e+00,1.772483110427856445e+00,1.772322297096252441e+00,1.772161364555358887e+00,1.772000551223754883e+00,1.771839737892150879e+00,1.771679043769836426e+00,1.771518349647521973e+00,1.771357655525207520e+00,1.771197080612182617e+00,1.771036267280578613e+00,1.770875692367553711e+00,1.770715117454528809e+00,1.770554542541503906e+00,1.770394086837768555e+00,1.770233631134033203e+00,1.770073056221008301e+00,1.769912600517272949e+00,1.769752264022827148e+00,1.769591927528381348e+00,1.769431591033935547e+00,1.769271254539489746e+00,1.769111037254333496e+00,1.768950581550598145e+00,1.768790364265441895e+00,1.768630266189575195e+00,1.768470048904418945e+00,1.768309950828552246e+00,1.768149852752685547e+00,1.767989873886108398e+00,1.767829537391662598e+00,1.767669558525085449e+00,1.767509579658508301e+00,1.767349720001220703e+00,1.767189741134643555e+00,1.767029881477355957e+00,1.766870021820068359e+00,1.766710042953491211e+00,1.766550183296203613e+00,1.766390442848205566e+00,1.766230702400207520e+00,1.766071081161499023e+00,1.765911340713500977e+00,1.765751719474792480e+00,1.765592098236083984e+00,1.765432476997375488e+00,1.765272974967956543e+00,1.765113472938537598e+00
1.607603788375854492e+00,1.607471466064453125e+00,1.607339024543762207e+00,1.607206702232360840e+00,1.607074499130249023e+00,1.606942296028137207e+00,1.606810092926025391e+00,1.606677889823913574e+00,1.606545686721801758e+00,1.606413364410400391e+00,1.606281280517578125e+00,1.606149196624755859e+00,1.606017112731933594e+00,1.605885028839111328e+00,1.605753064155578613e+00,1.605621099472045898e+00,1.605488896369934082e+00,1.605356931686401367e+00,1.605224967002868652e+00,1.605093121528625488e+00,1.604961156845092773e+00,1.604829311370849609e+00,1.604697346687316895e+00,1.604565501213073730e+00,1.604433655738830566e+00,1.604301929473876953e+00,1.604170083999633789e+00,1.604038357734680176e+00,1.603906631469726562e+00,1.603774785995483398e+00,1.603643059730529785e+00,1.603511452674865723e+00,1.603379845619201660e+00,1.603248238563537598e+00,1.603116631507873535e+00,1.602985024452209473e+00,1.602853298187255859e+00,1.602721810340881348e+00,1.602590322494506836e+00,1.602458834648132324e+00,1.602327346801757812e+00,1.602195858955383301e+00,1.602064251899719238e+00,1.601932883262634277e+00,1.601801514625549316e+00,1.601670145988464355e+00,1.601538777351379395e+00,1.601407527923583984e+00,1.601276278495788574e+00,1.601144790649414062e+00,1.601013541221618652e+00,1.600882291793823242e+00,1.600751161575317383e+00,1.600619912147521973e+00,1.600488781929016113e+00,1.600357651710510254e+00,1.600226402282714844e+00,1.600095272064208984e+00,1.599964141845703125e+00,1.599833130836486816e+00,1.599702000617980957e+00,1.599570989608764648e+00,1.599439859390258789e+00,1.599308967590332031e+00,1.599177956581115723e+00,1.599047064781188965e+00,1.598916172981262207e+00,1.598785281181335449e+00,1.598654389381408691e+00,1.598523378372192383e+00,1.598392605781555176e+00,1.598261833190917969e+00,1.598131060600280762e+00,1.598000288009643555e+00,1.597869515419006348e+00,1.597738862037658691e+00,1.597608089447021484e+00,1.597477436065673828e+00,1.597346782684326172e+00,1.597216010093688965e+00
1.467141866683959961e+00,1.467031717300415039e+00,1.466921448707580566e+00,1.466811180114746094e+00,1.466701030731201172e+00,1.466590881347656250e+00,1.466480731964111328e+00,1.466370701789855957e+00,1.466260552406311035e+00,1.466150403022766113e+00,1.466040372848510742e+00,1.465930342674255371e+00,1.465820312500000000e+00,1.465710282325744629e+00,1.465600252151489258e+00,1.465490341186523438e+00,1.465380191802978516e+00,1.465270280838012695e+00,1.465160369873046875e+00,1.465050458908081055e+00,1.464940547943115234e+00,1.464830756187438965e+00,1.464720845222473145e+00,1.464610934257507324e+00,1.464501023292541504e+00,1.464391231536865234e+00,1.464281439781188965e+00,1.464171767234802246e+00,1.464061975479125977e+00,1.463952064514160156e+00,1.463842391967773438e+00,1.463732600212097168e+00,1.463622927665710449e+00,1.463513255119323730e+00,1.463403582572937012e+00,1.463294029235839844e+00,1.463184237480163574e+00,1.463074684143066406e+00,1.462965011596679688e+00,1.462855458259582520e+00,1.462745904922485352e+00,1.462636351585388184e+00,1.462526917457580566e+00,1.462417244911193848e+00,1.462307691574096680e+00,1.462198257446289062e+00,1.462088823318481445e+00,1.461979389190673828e+00,1.461869955062866211e+00,1.461760401725769043e+00,1.461650967597961426e+00,1.461541652679443359e+00,1.461432218551635742e+00,1.461322903633117676e+00,1.461213588714599609e+00,1.461104273796081543e+00,1.460994839668273926e+00,1.460885643959045410e+00,1.460776329040527344e+00,1.460667133331298828e+00,1.460557818412780762e+00,1.460448622703552246e+00,1.460339426994323730e+00,1.460230112075805664e+00,1.460120916366577148e+00,1.460011839866638184e+00,1.459902644157409668e+00,1.459793567657470703e+00,1.459684491157531738e+00,1.459575295448303223e+00,1.459466218948364258e+00,1.459357142448425293e+00,1.459248065948486328e+00,1.459139108657836914e+00,1.459029912948608398e+00,1.458920955657958984e+00,1.458811998367309570e+00,1.458703041076660156e+00,1.458594083786010742e+00,1.458485245704650879e+00
1.349252939224243164e+00,1.349159717559814453e+00,1.349066615104675293e+00,1.348973274230957031e+00,1.348880171775817871e+00,1.348786950111389160e+00,1.348693847656250000e+00,1.348600745201110840e+00,1.348507642745971680e+00,1.348414540290832520e+00,1.348321318626403809e+00,1.348228216171264648e+00,1.348135113716125488e+00,1.348042130470275879e+00,1.347949028015136719e+00,1.347856044769287109e+00,1.347762942314147949e+00,1.347669959068298340e+00,1.347576975822448730e+00,1.347483992576599121e+00,1.347391009330749512e+00,1.347298145294189453e+00,1.347205162048339844e+00,1.347112178802490234e+00,1.347019314765930176e+00,1.346926331520080566e+00,1.346833467483520508e+00,1.346740603446960449e+00,1.346647739410400391e+00,1.346554875373840332e+00,1.346462011337280273e+00,1.346369147300720215e+00,1.346276402473449707e+00,1.346183538436889648e+00,1.346090793609619141e+00,1.345998048782348633e+00,1.345905184745788574e+00,1.345812439918518066e+00,1.345719695091247559e+00,1.345626950263977051e+00,1.345534324645996094e+00,1.345441579818725586e+00,1.345348954200744629e+00,1.345256090164184570e+00,1.345163464546203613e+00,1.345070838928222656e+00,1.344978213310241699e+00,1.344885587692260742e+00,1.344792962074279785e+00,1.344700455665588379e+00,1.344607710838317871e+00,1.344515204429626465e+00,1.344422578811645508e+00,1.344330072402954102e+00,1.344237565994262695e+00,1.344145059585571289e+00,1.344052433967590332e+00,1.343959927558898926e+00,1.343867421150207520e+00,1.343775033950805664e+00,1.343682527542114258e+00,1.343590140342712402e+00,1.343497753143310547e+00,1.343405127525329590e+00,1.343312740325927734e+00,1.343220353126525879e+00,1.343127965927124023e+00,1.343035697937011719e+00,1.342943310737609863e+00,1.342850923538208008e+00,1.342758536338806152e+00,1.342666268348693848e+00,1.342573881149291992e+00,1.342481613159179688e+00,1.342389345169067383e+00,1.342297077178955078e+00,1.342204809188842773e+00,1.342112541198730469e+00,1.342020273208618164e+00,1.341928124427795410e+00
1.248900413513183594e+00,1.248820543289184570e+00,1.248740673065185547e+00,1.248660802841186523e+00,1.248580932617187500e+00,1.248501181602478027e+00,1.248421311378479004e+00,1.248341560363769531e+00,1.248261809349060059e+00,1.248181939125061035e+00,1.248102188110351562e+00,1.248022437095642090e+00,1.247942686080932617e+00,1.247862935066223145e+00,1.247783184051513672e+00,1.247703433036804199e+00,1.247623801231384277e+00,1.247543931007385254e+00,1.247464299201965332e+00,1.247384667396545410e+00,1.247304916381835938e+00,1.247225284576416016e+00,1.247145652770996094e+00,1.247065901756286621e+00,1.246986389160156250e+00,1.246906757354736328e+00,1.246827125549316406e+00,1.246747493743896484e+00,1.246667981147766113e+00,1.246588349342346191e+00,1.246508717536926270e+00,1.246429204940795898e+00,1.246349692344665527e+00,1.246270060539245605e+00,1.246190547943115234e+00,1.246111035346984863e+00,1.246031641960144043e+00,1.245952010154724121e+00,1.245872497558593750e+00,1.245793104171752930e+00,1.245713591575622559e+00,1.245634198188781738e+00,1.245554685592651367e+00,1.245475172996520996e+00,1.245395779609680176e+00,1.245316386222839355e+00,1.245236992835998535e+00,1.245157599449157715e+00,1.245078206062316895e+00,1.244998812675476074e+00,1.244919419288635254e+00,1.244840025901794434e+00,1.244760751724243164e+00,1.244681358337402344e+00,1.244602084159851074e+00,1.244522809982299805e+00,1.244443416595458984e+00,1.244364142417907715e+00,1.244284749031066895e+00,1.244205594062805176e+00,1.244126319885253906e+00,1.244047045707702637e+00,1.243967771530151367e+00,1.243888497352600098e+00,1.243809223175048828e+00,1.243730068206787109e+00,1.243650913238525391e+00,1.243571639060974121e+00,1.243492484092712402e+00,1.243413329124450684e+00,1.243334054946899414e+00,1.243255019187927246e+00,1.243175864219665527e+00,1.243096709251403809e+00,1.243017554283142090e+00,1.242938518524169922e+00,1.242859363555908203e+00,1.242780208587646484e+00,1.242701172828674316e+00,1.242622137069702148e+00
1.162442207336425781e+00,1.162372946739196777e+00,1.162303805351257324e+00,1.162234663963317871e+00,1.162165403366088867e+00,1.162096261978149414e+00,1.162027120590209961e+00,1.161957979202270508e+00,1.161888837814331055e+00,1.161819815635681152e+00,1.161750674247741699e+00,1.161681413650512695e+00,1.161612391471862793e+00,1.161543250083923340e+00,1.161474227905273438e+00,1.161405205726623535e+00,1.161336064338684082e+00,1.161266922950744629e+00,1.161197900772094727e+00,1.161128878593444824e+00,1.161059856414794922e+00,1.160990834236145020e+00,1.160921812057495117e+00,1.160852789878845215e+00,1.160783767700195312e+00,1.160714745521545410e+00,1.160645842552185059e+00,1.160576820373535156e+00,1.160507917404174805e+00,1.160438895225524902e+00,1.160369992256164551e+00,1.160300970077514648e+00,1.160232067108154297e+00,1.160163164138793945e+00,1.160094141960144043e+00,1.160025238990783691e+00,1.159956336021423340e+00,1.159887433052062988e+00,1.159818530082702637e+00,1.159749627113342285e+00,1.159680843353271484e+00,1.159611940383911133e+00,1.159543156623840332e+00,1.159474253654479980e+00,1.159405350685119629e+00,1.159336566925048828e+00,1.159267783164978027e+00,1.159198880195617676e+00,1.159130096435546875e+00,1.159061312675476074e+00,1.158992528915405273e+00,1.158923745155334473e+00,1.158854961395263672e+00,1.158786177635192871e+00,1.158717393875122070e+00,1.158648729324340820e+00,1.158579945564270020e+00,1.158511161804199219e+00,1.158442378044128418e+00,1.158373713493347168e+00,1.158305048942565918e+00,1.158236384391784668e+00,1.158167719841003418e+00,1.158099055290222168e+00,1.158030271530151367e+00,1.157961606979370117e+00,1.157892942428588867e+00,1.157824277877807617e+00,1.157755732536315918e+00,1.157687067985534668e+00,1.157618403434753418e+00,1.157549738883972168e+00,1.157481193542480469e+00,1.157412528991699219e+00,1.157343983650207520e+00,1.157275438308715820e+00,1.157206892967224121e+00,1.157138228416442871e+00,1.157069683074951172e+00,1.157001137733459473e+00
1.087179422378540039e+00,1.087118864059448242e+00,1.087058424949645996e+00,1.086997866630554199e+00,1.086937308311462402e+00,1.086876869201660156e+00,1.086816430091857910e+00,1.086755871772766113e+00,1.086695432662963867e+00,1.086634993553161621e+00,1.086574554443359375e+00,1.086513996124267578e+00,1.086453557014465332e+00,1.086393117904663086e+00,1.086332678794860840e+00,1.086272358894348145e+00,1.086211919784545898e+00,1.086151480674743652e+00,1.086091041564941406e+00,1.086030602455139160e+00,1.085970282554626465e+00,1.085909843444824219e+00,1.085849523544311523e+00,1.085789084434509277e+00,1.085728645324707031e+00,1.085668325424194336e+00,1.085608005523681641e+00,1.085547685623168945e+00,1.085487365722656250e+00,1.085427045822143555e+00,1.085366725921630859e+00,1.085306286811828613e+00,1.085245966911315918e+00,1.085185766220092773e+00,1.085125446319580078e+00,1.085065126419067383e+00,1.085004806518554688e+00,1.084944605827331543e+00,1.084884285926818848e+00,1.084823966026306152e+00,1.084763765335083008e+00,1.084703445434570312e+00,1.084643244743347168e+00,1.084583044052124023e+00,1.084522724151611328e+00,1.084462523460388184e+00,1.084402322769165039e+00,1.084342122077941895e+00,1.084281921386718750e+00,1.084221720695495605e+00,1.084161520004272461e+00,1.084101319313049316e+00,1.084041118621826172e+00,1.083980917930603027e+00,1.083920836448669434e+00,1.083860635757446289e+00,1.083800435066223145e+00,1.083740353584289551e+00,1.083680152893066406e+00,1.083620071411132812e+00,1.083559870719909668e+00,1.083499789237976074e+00,1.083439707756042480e+00,1.083379626274108887e+00,1.083319425582885742e+00,1.083259344100952148e+00,1.083199262619018555e+00,1.083139181137084961e+00,1.083079099655151367e+00,1.083019137382507324e+00,1.082959055900573730e+00,1.082898855209350586e+00,1.082838892936706543e+00,1.082778811454772949e+00,1.082718849182128906e+00,1.082658767700195312e+00,1.082598805427551270e+00,1.082538723945617676e+00,1.082478761672973633e+00,1.082418680191040039e+00
1.021069884300231934e+00,1.021016478538513184e+00,1.020963191986083984e+00,1.020909786224365234e+00,1.020856380462646484e+00,1.020802974700927734e+00,1.020749688148498535e+00,1.020696282386779785e+00,1.020642995834350586e+00,1.020589590072631836e+00,1.020536303520202637e+00,1.020482897758483887e+00,1.020429611206054688e+00,1.020376324653625488e+00,1.020323038101196289e+00,1.020269751548767090e+00,1.020216464996337891e+00,1.020163178443908691e+00,1.020109772682189941e+00,1.020056486129760742e+00,1.020003199577331543e+00,1.019949913024902344e+00,1.019896745681762695e+00,1.019843459129333496e+00,1.019790172576904297e+00,1.019736886024475098e+00,1.019683599472045898e+00,1.019630432128906250e+00,1.019577145576477051e+00,1.019523978233337402e+00,1.019470810890197754e+00,1.019417524337768555e+00,1.019364237785339355e+00,1.019311070442199707e+00,1.019257903099060059e+00,1.019204735755920410e+00,1.019151568412780762e+00,1.019098281860351562e+00,1.019045114517211914e+00,1.018991947174072266e+00,1.018938779830932617e+00,1.018885612487792969e+00,1.018832445144653320e+00,1.018779277801513672e+00,1.018726229667663574e+00,1.018672943115234375e+00,1.018619894981384277e+00,1.018566727638244629e+00,1.018513679504394531e+00,1.018460512161254883e+00,1.018407464027404785e+00,1.018354296684265137e+00,1.018301129341125488e+00,1.018248081207275391e+00,1.018195033073425293e+00,1.018141865730285645e+00,1.018088817596435547e+00,1.018035769462585449e+00,1.017982602119445801e+00,1.017929553985595703e+00,1.017876505851745605e+00,1.017823457717895508e+00,1.017770409584045410e+00,1.017717480659484863e+00,1.017664432525634766e+00,1.017611265182495117e+00,1.017558336257934570e+00,1.017505288124084473e+00,1.017452239990234375e+00,1.017399311065673828e+00,1.017346262931823730e+00,1.017293214797973633e+00,1.017240285873413086e+00,1.017187237739562988e+00,1.017134308815002441e+00,1.017081379890441895e+00,1.017028331756591797e+00,1.016975402832031250e+00,1.016922354698181152e+00,1.016869425773620605e+00
