4.887826442718505859e+00,5.000000000000000000e+00,5.000000000000000000e+00,5.000000000000000000e+00,5.000000000000000000e+00,5.000000000000000000e+00,5.000000000000000000e+00,5.000000000000000000e+00,5.000000000000000000e+00,5.000000000000000000e+00,5.000000000000000000e+00,5.000000000000000000e+00,5.000000000000000000e+00,5.000000000000000000e+00,5.000000000000000000e+00,5.000000000000000000e+00,5.000000000000000000e+00,5.000000000000000000e+00,5.000000000000000000e+00,5.000000000000000000e+00,5.000000000000000000e+00,5.000000000000000000e+00,5.000000000000000000e+00,5.000000000000000000e+00,5.000000000000000000e+00,5.000000000000000000e+00,5.000000000000000000e+00,5.000000000000000000e+00,5.000000000000000000e+00,5.000000000000000000e+00,5.000000000000000000e+00,5.000000000000000000e+00,5.000000000000000000e+00,5.000000000000000000e+00,5.000000000000000000e+00,5.000000000000000000e+00,5.000000000000000000e+00,5.000000000000000000e+00,5.000000000000000000e+00,5.000000000000000000e+00,5.000000000000000000e+00,5.000000000000000000e+00,5.000000000000000000e+00,5.000000000000000000e+00,5.000000000000000000e+00,5.000000000000000000e+00,5.000000000000000000e+00,5.000000000000000000e+00,5.000000000000000000e+00,5.000000000000000000e+00,5.000000000000000000e+00,5.000000000000000000e+00,5.000000000000000000e+00,5.000000000000000000e+00,5.000000000000000000e+00,4.993097782135009766e+00,4.792247295379638672e+00,4.606930732727050781e+00,4.435413360595703125e+00,4.276208400726318359e+00,4.128036499023437500e+00,3.989789247512817383e+00,3.860501766204833984e+00,3.739330291748046875e+00,3.625534057617187500e+00,3.518430233001708984e+00,3.417461633682250977e+00,3.322126388549804688e+00,3.231965541839599609e+00,3.146577835083007812e+00,3.065608978271484375e+00,2.988702535629272461e+00,2.915560483932495117e+00,2.845912694931030273e+00,2.779515027999877930e+00,2.716144800186157227e+00,2.655599832534790039e+00,2.597695112228393555e+00,2.542261600494384766e+00,2.489144563674926758e+00
4.887700080871582031e+00,5.000000000000000000e+00,5.000000000000000000e+00,5.000000000000000000e+00,5.000000000000000000e+00,5.000000000000000000e+00,5.000000000000000000e+00,5.000000000000000000e+00,5.000000000000000000e+00,5.000000000000000000e+00,5.000000000000000000e+00,5.000000000000000000e+00,5.000000000000000000e+00,5.000000000000000000e+00,5.000000000000000000e+00,5.000000000000000000e+00,5.000000000000000000e+00,5.000000000000000000e+00,5.000000000000000000e+00,5.000000000000000000e+00,5.000000000000000000e+00,5.000000000000000000e+00,5.000000000000000000e+00,5.000000000000000000e+00,5.000000000000000000e+00,5.000000000000000000e+00,5.000000000000000000e+00,5.000000000000000000e+00,5.000000000000000000e+00,5.000000000000000000e+00,5.000000000000000000e+00,5.000000000000000000e+00,5.000000000000000000e+00,5.000000000000000000e+00,5.000000000000000000e+00,5.000000000000000000e+00,5.000000000000000000e+00,5.000000000000000000e+00,5.000000000000000000e+00,5.000000000000000000e+00,5.000000000000000000e+00,5.000000000000000000e+00,5.000000000000000000e+00,5.000000000000000000e+00,5.000000000000000000e+00,5.000000000000000000e+00,5.000000000000000000e+00,5.000000000000000000e+00,5.000000000000000000e+00,5.000000000000000000e+00,5.000000000000000000e+00,5.000000000000000000e+00,5.000000000000000000e+00,5.000000000000000000e+00,5.000000000000000000e+00,4.993267059326171875e+00,4.792403221130371094e+00,4.607075214385986328e+00,4.435546875000000000e+00,4.276332855224609375e+00,4.128152370452880859e+00,3.989897489547729492e+00,3.860603094100952148e+00,3.739389181137084961e+00,3.625545740127563477e+00,3.518429279327392578e+00,3.417460441589355469e+00,3.322137117385864258e+00,3.232010364532470703e+00,3.146644592285156250e+00,3.065672636032104492e+00,2.988762855529785156e+00,2.915617942810058594e+00,2.845967531204223633e+00,2.779567241668701172e+00,2.716194629669189453e+00,2.655647516250610352e+00,2.597740650177001953e+00,2.542305469512939453e+00,2.489186525344848633e+00
4.887573719024658203e+00,5.000000000000000000e+00,5.000000000000000000e+00,5.000000000000000000e+00,5.000000000000000000e+00,5.000000000000000000e+00,5.000000000000000000e+00,5.000000000000000000e+00,5.000000000000000000e+00,5.000000000000000000e+00,5.000000000000000000e+00,5.000000000000000000e+00,5.000000000000000000e+00,5.000000000000000000e+00,5.000000000000000000e+00,5.000000000000000000e+00,5.000000000000000000e+00,5.000000000000000000e+00,5.000000000000000000e+00,5.000000000000000000e+00,5.000000000000000000e+00,5.000000000000000000e+00,5.000000000000000000e+00,5.000000000000000000e+00,5.000000000000000000e+00,5.000000000000000000e+00,5.000000000000000000e+00,5.000000000000000000e+00,5.000000000000000000e+00,5.000000000000000000e+00,5.000000000000000000e+00,5.000000000000000000e+00,5.000000000000000000e+00,5.000000000000000000e+00,5.000000000000000000e+00,5.000000000000000000e+00,5.000000000000000000e+00,5.000000000000000000e+00,5.000000000000000000e+00,5.000000000000000000e+00,5.000000000000000000e+00,5.000000000000000000e+00,5.000000000000000000e+00,5.000000000000000000e+00,5.000000000000000000e+00,5.000000000000000000e+00,5.000000000000000000e+00,5.000000000000000000e+00,5.000000000000000000e+00,5.000000000000000000e+00,5.000000000000000000e+00,5.000000000000000000e+00,5.000000000000000000e+00,5.000000000000000000e+00,5.000000000000000000e+00,4.993436336517333984e+00,4.792559146881103516e+00,4.607219219207763672e+00,4.435680389404296875e+00,4.276456832885742188e+00,4.128267765045166016e+00,3.989959716796875000e+00,3.860611915588378906e+00,3.739387750625610352e+00,3.625544548034667969e+00,3.518444776535034180e+00,3.417513370513916016e+00,3.322211742401123047e+00,3.232081174850463867e+00,3.146711587905883789e+00,3.065736055374145508e+00,2.988823413848876953e+00,2.915675401687622070e+00,2.846022129058837891e+00,2.779619455337524414e+00,2.716244697570800781e+00,2.655695199966430664e+00,2.597786426544189453e+00,2.542349100112915039e+00,2.489228487014770508e+00
4.887447357177734375e+00,5.000000000000000000e+00,5.000000000000000000e+00,5.000000000000000000e+00,5.000000000000000000e+00,5.000000000000000000e+00,5.000000000000000000e+00,5.000000000000000000e+00,5.000000000000000000e+00,5.000000000000000000e+00,5.000000000000000000e+00,5.000000000000000000e+00,5.000000000000000000e+00,5.000000000000000000e+00,5.000000000000000000e+00,5.000000000000000000e+00,5.000000000000000000e+00,5.000000000000000000e+00,5.000000000000000000e+00,5.000000000000000000e+00,5.000000000000000000e+00,5.000000000000000000e+00,5.000000000000000000e+00,5.000000000000000000e+00,5.000000000000000000e+00,5.000000000000000000e+00,5.000000000000000000e+00,5.000000000000000000e+00,5.000000000000000000e+00,5.000000000000000000e+00,5.000000000000000000e+00,5.000000000000000000e+00,5.000000000000000000e+00,5.000000000000000000e+00,5.000000000000000000e+00,5.000000000000000000e+00,5.000000000000000000e+00,5.000000000000000000e+00,5.000000000000000000e+00,5.000000000000000000e+00,5.000000000000000000e+00,5.000000000000000000e+00,5.000000000000000000e+00,5.000000000000000000e+00,5.000000000000000000e+00,5.000000000000000000e+00,5.000000000000000000e+00,5.000000000000000000e+00,5.000000000000000000e+00,5.000000000000000000e+00,5.000000000000000000e+00,5.000000000000000000e+00,5.000000000000000000e+00,5.000000000000000000e+00,5.000000000000000000e+00,4.993605613708496094e+00,4.792715072631835938e+00,4.607363224029541016e+00,4.435813903808593750e+00,4.276523590087890625e+00,4.128273963928222656e+00,3.989958286285400391e+00,3.860610723495483398e+00,3.739408731460571289e+00,3.625607490539550781e+00,3.518527984619140625e+00,3.417592525482177734e+00,3.322286605834960938e+00,3.232151746749877930e+00,3.146778583526611328e+00,3.065799713134765625e+00,2.988883733749389648e+00,2.915732860565185547e+00,2.846076965332031250e+00,2.779671669006347656e+00,2.716294527053833008e+00,2.655742883682250977e+00,2.597831964492797852e+00,2.542392730712890625e+00,2.489270448684692383e+00
4.887320995330810547e+00,5.000000000000000000e+00,5.000000000000000000e+00,5.000000000000000000e+00,5.000000000000000000e+00,5.000000000000000000e+00,5.000000000000000000e+00,5.000000000000000000e+00,5.000000000000000000e+00,5.000000000000000000e+00,5.000000000000000000e+00,5.000000000000000000e+00,5.000000000000000000e+00,5.000000000000000000e+00,5.000000000000000000e+00,5.000000000000000000e+00,5.000000000000000000e+00,5.000000000000000000e+00,5.000000000000000000e+00,5.000000000000000000e+00,5.000000000000000000e+00,5.000000000000000000e+00,5.000000000000000000e+00,5.000000000000000000e+00,5.000000000000000000e+00,5.000000000000000000e+00,5.000000000000000000e+00,5.000000000000000000e+00,5.000000000000000000e+00,5.000000000000000000e+00,5.000000000000000000e+00,5.000000000000000000e+00,5.000000000000000000e+00,5.000000000000000000e+00,5.000000000000000000e+00,5.000000000000000000e+00,5.000000000000000000e+00,5.000000000000000000e+00,5.000000000000000000e+00,5.000000000000000000e+00,5.000000000000000000e+00,5.000000000000000000e+00,5.000000000000000000e+00,5.000000000000000000e+00,5.000000000000000000e+00,5.000000000000000000e+00,5.000000000000000000e+00,5.000000000000000000e+00,5.000000000000000000e+00,5.000000000000000000e+00,5.000000000000000000e+00,5.000000000000000000e+00,5.000000000000000000e+00,5.000000000000000000e+00,5.000000000000000000e+00,4.993774414062500000e+00,4.792868137359619141e+00,4.607434272766113281e+00,4.435815334320068359e+00,4.276521682739257812e+00,4.128272533416748047e+00,3.989986181259155273e+00,3.860686063766479492e+00,3.739503383636474609e+00,3.625696420669555664e+00,3.518611907958984375e+00,3.417671442031860352e+00,3.322361230850219727e+00,3.232222557067871094e+00,3.146845579147338867e+00,3.065863370895385742e+00,2.988944292068481445e+00,2.915790557861328125e+00,2.846131801605224609e+00,2.779724121093750000e+00,2.716344356536865234e+00,2.655790567398071289e+00,2.597877740859985352e+00,2.542436599731445312e+00,2.489312410354614258e+00
4.887194633483886719e+00,5.000000000000000000e+00,5.000000000000000000e+00,5.000000000000000000e+00,5.000000000000000000e+00,5.000000000000000000e+00,5.000000000000000000e+00,5.000000000000000000e+00,5.000000000000000000e+00,5.000000000000000000e+00,5.000000000000000000e+00,5.000000000000000000e+00,5.000000000000000000e+00,5.000000000000000000e+00,5.000000000000000000e+00,5.000000000000000000e+00,5.000000000000000000e+00,5.000000000000000000e+00,5.000000000000000000e+00,5.000000000000000000e+00,5.000000000000000000e+00,5.000000000000000000e+00,5.000000000000000000e+00,5.000000000000000000e+00,5.000000000000000000e+00,5.000000000000000000e+00,5.000000000000000000e+00,5.000000000000000000e+00,5.000000000000000000e+00,5.000000000000000000e+00,5.000000000000000000e+00,5.000000000000000000e+00,5.000000000000000000e+00,5.000000000000000000e+00,5.000000000000000000e+00,5.000000000000000000e+00,5.000000000000000000e+00,5.000000000000000000e+00,5.000000000000000000e+00,5.000000000000000000e+00,5.000000000000000000e+00,5.000000000000000000e+00,5.000000000000000000e+00,5.000000000000000000e+00,5.000000000000000000e+00,5.000000000000000000e+00,5.000000000000000000e+00,5.000000000000000000e+00,5.000000000000000000e+00,5.000000000000000000e+00,5.000000000000000000e+00,5.000000000000000000e+00,5.000000000000000000e+00,5.000000000000000000e+00,5.000000000000000000e+00,4.993851661682128906e+00,4.792866230010986328e+00,4.607432365417480469e+00,4.435813426971435547e+00,4.276557922363281250e+00,4.128362655639648438e+00,3.990093946456909180e+00,3.860786914825439453e+00,3.739597797393798828e+00,3.625785350799560547e+00,3.518695592880249023e+00,3.417750597000122070e+00,3.322435855865478516e+00,3.232293128967285156e+00,3.146912574768066406e+00,3.065926790237426758e+00,2.989004611968994141e+00,2.915848016738891602e+00,2.846186637878417969e+00,2.779776334762573242e+00,2.716394424438476562e+00,2.655838251113891602e+00,2.597923278808593750e+00,2.542480230331420898e+00,2.489354372024536133e+00
4.887078762054443359e+00,5.000000000000000000e+00,5.000000000000000000e+00,5.000000000000000000e+00,5.000000000000000000e+00,5.000000000000000000e+00,5.000000000000000000e+00,5.000000000000000000e+00,5.000000000000000000e+00,5.000000000000000000e+00,5.000000000000000000e+00,5.000000000000000000e+00,5.000000000000000000e+00,5.000000000000000000e+00,5.000000000000000000e+00,5.000000000000000000e+00,5.000000000000000000e+00,5.000000000000000000e+00,5.000000000000000000e+00,5.000000000000000000e+00,5.000000000000000000e+00,5.000000000000000000e+00,5.000000000000000000e+00,5.000000000000000000e+00,5.000000000000000000e+00,5.000000000000000000e+00,5.000000000000000000e+00,5.000000000000000000e+00,5.000000000000000000e+00,5.000000000000000000e+00,5.000000000000000000e+00,5.000000000000000000e+00,5.000000000000000000e+00,5.000000000000000000e+00,5.000000000000000000e+00,5.000000000000000000e+00,5.000000000000000000e+00,5.000000000000000000e+00,5.000000000000000000e+00,5.000000000000000000e+00,5.000000000000000000e+00,5.000000000000000000e+00,5.000000000000000000e+00,5.000000000000000000e+00,5.000000000000000000e+00,5.000000000000000000e+00,5.000000000000000000e+00,5.000000000000000000e+00,5.000000000000000000e+00,5.000000000000000000e+00,5.000000000000000000e+00,5.000000000000000000e+00,5.000000000000000000e+00,5.000000000000000000e+00,5.000000000000000000e+00,4.993849277496337891e+00,4.792863845825195312e+00,4.607480049133300781e+00,4.435922622680664062e+00,4.276681900024414062e+00,4.128477573394775391e+00,3.990201711654663086e+00,3.860887765884399414e+00,3.739692449569702148e+00,3.625874519348144531e+00,3.518779277801513672e+00,3.417829513549804688e+00,3.322510480880737305e+00,3.232363939285278320e+00,3.146979570388793945e+00,3.065990447998046875e+00,2.989065170288085938e+00,2.915905475616455078e+00,2.846241474151611328e+00,2.779828548431396484e+00,2.716444253921508789e+00,2.655885934829711914e+00,2.597969055175781250e+00,2.542524099349975586e+00,2.489396095275878906e+00
4.886963844299316406e+00,5.000000000000000000e+00,5.000000000000000000e+00,5.000000000000000000e+00,5.000000000000000000e+00,5.000000000000000000e+00,5.000000000000000000e+00,5.000000000000000000e+00,5.000000000000000000e+00,5.000000000000000000e+00,5.000000000000000000e+00,5.000000000000000000e+00,5.000000000000000000e+00,5.000000000000000000e+00,5.000000000000000000e+00,5.000000000000000000e+00,5.000000000000000000e+00,5.000000000000000000e+00,5.000000000000000000e+00,5.000000000000000000e+00,5.000000000000000000e+00,5.000000000000000000e+00,5.000000000000000000e+00,5.000000000000000000e+00,5.000000000000000000e+00,5.000000000000000000e+00,5.000000000000000000e+00,5.000000000000000000e+00,5.000000000000000000e+00,5.000000000000000000e+00,5.000000000000000000e+00,5.000000000000000000e+00,5.000000000000000000e+00,5.000000000000000000e+00,5.000000000000000000e+00,5.000000000000000000e+00,5.000000000000000000e+00,5.000000000000000000e+00,5.000000000000000000e+00,5.000000000000000000e+00,5.000000000000000000e+00,5.000000000000000000e+00,4.197877883911132812e+00,4.197199344635009766e+00,5.000000000000000000e+00,5.000000000000000000e+00,5.000000000000000000e+00,5.000000000000000000e+00,5.000000000000000000e+00,5.000000000000000000e+00,5.000000000000000000e+00,5.000000000000000000e+00,5.000000000000000000e+00,5.000000000000000000e+00,5.000000000000000000e+00,4.993911743164062500e+00,4.792996883392333984e+00,4.607623577117919922e+00,4.436055660247802734e+00,4.276805400848388672e+00,4.128592967987060547e+00,3.990309476852416992e+00,3.860988616943359375e+00,3.739787101745605469e+00,3.625962972640991211e+00,3.518863201141357422e+00,3.417908430099487305e+00,3.322585105895996094e+00,3.232434511184692383e+00,3.147046566009521484e+00,3.066054105758666992e+00,2.989125490188598633e+00,2.915962934494018555e+00,2.846296310424804688e+00,2.779881000518798828e+00,2.716494083404541016e+00,2.655933618545532227e+00,2.598014593124389648e+00,2.542567729949951172e+00,2.489438056945800781e+00
4.886848926544189453e+00,5.000000000000000000e+00,5.000000000000000000e+00,5.000000000000000000e+00,5.000000000000000000e+00,5.000000000000000000e+00,5.000000000000000000e+00,5.000000000000000000e+00,5.000000000000000000e+00,5.000000000000000000e+00,5.000000000000000000e+00,5.000000000000000000e+00,5.000000000000000000e+00,5.000000000000000000e+00,5.000000000000000000e+00,5.000000000000000000e+00,5.000000000000000000e+00,5.000000000000000000e+00,5.000000000000000000e+00,5.000000000000000000e+00,5.000000000000000000e+00,5.000000000000000000e+00,5.000000000000000000e+00,5.000000000000000000e+00,5.000000000000000000e+00,5.000000000000000000e+00,5.000000000000000000e+00,5.000000000000000000e+00,5.000000000000000000e+00,5.000000000000000000e+00,5.000000000000000000e+00,5.000000000000000000e+00,5.000000000000000000e+00,5.000000000000000000e+00,5.000000000000000000e+00,5.000000000000000000e+00,5.000000000000000000e+00,5.000000000000000000e+00,5.000000000000000000e+00,5.000000000000000000e+00,5.000000000000000000e+00,5.000000000000000000e+00,4.190959930419921875e+00,4.192843437194824219e+00,5.000000000000000000e+00,5.000000000000000000e+00,5.000000000000000000e+00,5.000000000000000000e+00,5.000000000000000000e+00,5.000000000000000000e+00,5.000000000000000000e+00,5.000000000000000000e+00,5.000000000000000000e+00,5.000000000000000000e+00,5.000000000000000000e+00,4.994080543518066406e+00,4.793152332305908203e+00,4.607767105102539062e+00,4.436188697814941406e+00,4.276929378509521484e+00,4.128708362579345703e+00,3.990417003631591797e+00,3.861089468002319336e+00,3.739881753921508789e+00,3.626051902770996094e+00,3.518946886062622070e+00,3.417987585067749023e+00,3.322659969329833984e+00,3.232505321502685547e+00,3.147113561630249023e+00,3.066117525100708008e+00,2.989186048507690430e+00,2.916020631790161133e+00,2.846351146697998047e+00,2.779933214187622070e+00,2.716544151306152344e+00,2.655981540679931641e+00,2.598060369491577148e+00,2.542611598968505859e+00,2.489480018615722656e+00
4.886734485626220703e+00,5.000000000000000000e+00,5.000000000000000000e+00,5.000000000000000000e+00,5.000000000000000000e+00,5.000000000000000000e+00,5.000000000000000000e+00,5.000000000000000000e+00,5.000000000000000000e+00,5.000000000000000000e+00,5.000000000000000000e+00,5.000000000000000000e+00,5.000000000000000000e+00,5.000000000000000000e+00,5.000000000000000000e+00,5.000000000000000000e+00,5.000000000000000000e+00,5.000000000000000000e+00,5.000000000000000000e+00,5.000000000000000000e+00,5.000000000000000000e+00,5.000000000000000000e+00,5.000000000000000000e+00,5.000000000000000000e+00,5.000000000000000000e+00,5.000000000000000000e+00,5.000000000000000000e+00,5.000000000000000000e+00,5.000000000000000000e+00,5.000000000000000000e+00,5.000000000000000000e+00,5.000000000000000000e+00,5.000000000000000000e+00,5.000000000000000000e+00,5.000000000000000000e+00,5.000000000000000000e+00,5.000000000000000000e+00,5.000000000000000000e+00,5.000000000000000000e+00,5.000000000000000000e+00,5.000000000000000000e+00,4.194935798645019531e+00,4.175588607788085938e+00,4.177620887756347656e+00,5.000000000000000000e+00,5.000000000000000000e+00,5.000000000000000000e+00,5.000000000000000000e+00,5.000000000000000000e+00,5.000000000000000000e+00,5.000000000000000000e+00,5.000000000000000000e+00,5.000000000000000000e+00,5.000000000000000000e+00,5.000000000000000000e+00,4.994249343872070312e+00,4.793307781219482422e+00,4.607911109924316406e+00,4.436321735382080078e+00,4.277052879333496094e+00,4.128823757171630859e+00,3.990524768829345703e+00,3.861190319061279297e+00,3.739976406097412109e+00,3.626140832901000977e+00,3.519030570983886719e+00,3.418066501617431641e+00,3.322734594345092773e+00,3.232575893402099609e+00,3.147180557250976562e+00,3.066181182861328125e+00,2.989246606826782227e+00,2.916078090667724609e+00,2.846405982971191406e+00,2.779985427856445312e+00,2.716593980789184570e+00,2.656029224395751953e+00,2.598105907440185547e+00,2.542655229568481445e+00,2.489521980285644531e+00
4.886620044708251953e+00,5.000000000000000000e+00,5.000000000000000000e+00,5.000000000000000000e+00,5.000000000000000000e+00,5.000000000000000000e+00,5.000000000000000000e+00,5.000000000000000000e+00,5.000000000000000000e+00,5.000000000000000000e+00,5.000000000000000000e+00,5.000000000000000000e+00,5.000000000000000000e+00,5.000000000000000000e+00,5.000000000000000000e+00,5.000000000000000000e+00,5.000000000000000000e+00,5.000000000000000000e+00,5.000000000000000000e+00,5.000000000000000000e+00,5.000000000000000000e+00,5.000000000000000000e+00,5.000000000000000000e+00,5.000000000000000000e+00,5.000000000000000000e+00,5.000000000000000000e+00,5.000000000000000000e+00,5.000000000000000000e+00,5.000000000000000000e+00,5.000000000000000000e+00,5.000000000000000000e+00,5.000000000000000000e+00,5.000000000000000000e+00,5.000000000000000000e+00,5.000000000000000000e+00,5.000000000000000000e+00,5.000000000000000000e+00,5.000000000000000000e+00,5.000000000000000000e+00,5.000000000000000000e+00,4.112344741821289062e+00,4.111027717590332031e+00,4.118667125701904297e+00,4.153232097625732422e+00,4.177586078643798828e+00,4.228239059448242188e+00,5.000000000000000000e+00,5.000000000000000000e+00,5.000000000000000000e+00,5.000000000000000000e+00,5.000000000000000000e+00,5.000000000000000000e+00,5.000000000000000000e+00,5.000000000000000000e+00,5.000000000000000000e+00,4.994417667388916016e+00,4.793463230133056641e+00,4.608054637908935547e+00,4.436454772949218750e+00,4.277176856994628906e+00,4.128939151763916016e+00,3.990632534027099609e+00,3.861291170120239258e+00,3.740070581436157227e+00,3.626229763031005859e+00,3.519114494323730469e+00,3.418145656585693359e+00,3.322809219360351562e+00,3.232646703720092773e+00,3.147247791290283203e+00,3.066244840621948242e+00,2.989306926727294922e+00,2.916135549545288086e+00,2.846460580825805664e+00,2.780037641525268555e+00,2.716644048690795898e+00,2.656076908111572266e+00,2.598151683807373047e+00,2.542698860168457031e+00,2.489563703536987305e+00
4.886505126953125000e+00,5.000000000000000000e+00,5.000000000000000000e+00,5.000000000000000000e+00,5.000000000000000000e+00,5.000000000000000000e+00,5.000000000000000000e+00,5.000000000000000000e+00,5.000000000000000000e+00,5.000000000000000000e+00,5.000000000000000000e+00,5.000000000000000000e+00,5.000000000000000000e+00,5.000000000000000000e+00,5.000000000000000000e+00,5.000000000000000000e+00,5.000000000000000000e+00,5.000000000000000000e+00,5.000000000000000000e+00,5.000000000000000000e+00,5.000000000000000000e+00,5.000000000000000000e+00,5.000000000000000000e+00,5.000000000000000000e+00,5.000000000000000000e+00,5.000000000000000000e+00,5.000000000000000000e+00,5.000000000000000000e+00,5.000000000000000000e+00,5.000000000000000000e+00,5.000000000000000000e+00,5.000000000000000000e+00,5.000000000000000000e+00,5.000000000000000000e+00,5.000000000000000000e+00,5.000000000000000000e+00,5.000000000000000000e+00,5.000000000000000000e+00,5.000000000000000000e+00,5.000000000000000000e+00,4.105349540710449219e+00,4.119999408721923828e+00,4.120144367218017578e+00,4.141550540924072266e+00,4.163818359375000000e+00,4.212637424468994141e+00,5.000000000000000000e+00,5.000000000000000000e+00,5.000000000000000000e+00,5.000000000000000000e+00,5.000000000000000000e+00,5.000000000000000000e+00,5.000000000000000000e+00,5.000000000000000000e+00,5.000000000000000000e+00,4.994586467742919922e+00,4.793618679046630859e+00,4.608198165893554688e+00,4.436588287353515625e+00,4.277300834655761719e+00,4.129054546356201172e+00,3.990740299224853516e+00,3.861392021179199219e+00,3.740165233612060547e+00,3.626318693161010742e+00,3.519198179244995117e+00,3.418224811553955078e+00,3.322883844375610352e+00,3.232717275619506836e+00,3.147314786911010742e+00,3.066308498382568359e+00,2.989367485046386719e+00,2.916193246841430664e+00,2.846515417098999023e+00,2.780090093612670898e+00,2.716693878173828125e+00,2.656124591827392578e+00,2.598197221755981445e+00,2.542742729187011719e+00,2.489605665206909180e+00
4.886390686035156250e+00,5.000000000000000000e+00,5.000000000000000000e+00,5.000000000000000000e+00,5.000000000000000000e+00,5.000000000000000000e+00,5.000000000000000000e+00,5.000000000000000000e+00,5.000000000000000000e+00,5.000000000000000000e+00,5.000000000000000000e+00,5.000000000000000000e+00,5.000000000000000000e+00,5.000000000000000000e+00,5.000000000000000000e+00,5.000000000000000000e+00,5.000000000000000000e+00,5.000000000000000000e+00,5.000000000000000000e+00,5.000000000000000000e+00,5.000000000000000000e+00,5.000000000000000000e+00,5.000000000000000000e+00,5.000000000000000000e+00,5.000000000000000000e+00,5.000000000000000000e+00,5.000000000000000000e+00,5.000000000000000000e+00,5.000000000000000000e+00,5.000000000000000000e+00,5.000000000000000000e+00,5.000000000000000000e+00,5.000000000000000000e+00,5.000000000000000000e+00,5.000000000000000000e+00,5.000000000000000000e+00,5.000000000000000000e+00,5.000000000000000000e+00,5.000000000000000000e+00,5.000000000000000000e+00,4.104374408721923828e+00,4.139484405517578125e+00,4.131258010864257812e+00,4.154460906982421875e+00,4.175617694854736328e+00,4.237192153930664062e+00,5.000000000000000000e+00,5.000000000000000000e+00,5.000000000000000000e+00,5.000000000000000000e+00,5.000000000000000000e+00,5.000000000000000000e+00,5.000000000000000000e+00,5.000000000000000000e+00,5.000000000000000000e+00,4.994755268096923828e+00,4.793774127960205078e+00,4.608341693878173828e+00,4.436721324920654297e+00,4.277424335479736328e+00,4.129169940948486328e+00,3.990848064422607422e+00,3.861493110656738281e+00,3.740259885787963867e+00,3.626407623291015625e+00,3.519282102584838867e+00,3.418303728103637695e+00,3.322958707809448242e+00,3.232788085937500000e+00,3.147381782531738281e+00,3.066371917724609375e+00,2.989427804946899414e+00,2.916250705718994141e+00,2.846570253372192383e+00,2.780142307281494141e+00,2.716743707656860352e+00,2.656172275543212891e+00,2.598242998123168945e+00,2.542786359786987305e+00,2.489647626876831055e+00
4.886276245117187500e+00,5.000000000000000000e+00,5.000000000000000000e+00,5.000000000000000000e+00,5.000000000000000000e+00,5.000000000000000000e+00,5.000000000000000000e+00,5.000000000000000000e+00,5.000000000000000000e+00,5.000000000000000000e+00,5.000000000000000000e+00,5.000000000000000000e+00,5.000000000000000000e+00,5.000000000000000000e+00,5.000000000000000000e+00,5.000000000000000000e+00,5.000000000000000000e+00,5.000000000000000000e+00,5.000000000000000000e+00,5.000000000000000000e+00,5.000000000000000000e+00,5.000000000000000000e+00,5.000000000000000000e+00,5.000000000000000000e+00,5.000000000000000000e+00,5.000000000000000000e+00,5.000000000000000000e+00,5.000000000000000000e+00,5.000000000000000000e+00,5.000000000000000000e+00,5.000000000000000000e+00,5.000000000000000000e+00,5.000000000000000000e+00,5.000000000000000000e+00,5.000000000000000000e+00,5.000000000000000000e+00,5.000000000000000000e+00,5.000000000000000000e+00,5.000000000000000000e+00,5.000000000000000000e+00,4.100876331329345703e+00,4.158667564392089844e+00,4.160630702972412109e+00,4.184146404266357422e+00,4.204630374908447266e+00,4.240400791168212891e+00,5.000000000000000000e+00,5.000000000000000000e+00,5.000000000000000000e+00,5.000000000000000000e+00,5.000000000000000000e+00,5.000000000000000000e+00,5.000000000000000000e+00,5.000000000000000000e+00,5.000000000000000000e+00,4.994914054870605469e+00,4.793922424316406250e+00,4.608480453491210938e+00,4.436851501464843750e+00,4.277546882629394531e+00,4.129285335540771484e+00,3.990955829620361328e+00,3.861593484878540039e+00,3.740354537963867188e+00,3.626496791839599609e+00,3.519365787506103516e+00,3.418382883071899414e+00,3.323033332824707031e+00,3.232858657836914062e+00,3.147448778152465820e+00,3.066435575485229492e+00,2.989488363265991211e+00,2.916308164596557617e+00,2.846625089645385742e+00,2.780194520950317383e+00,2.716793775558471680e+00,2.656219959259033203e+00,2.598288536071777344e+00,2.542829990386962891e+00,2.489689588546752930e+00
4.886161804199218750e+00,5.000000000000000000e+00,5.000000000000000000e+00,5.000000000000000000e+00,5.000000000000000000e+00,5.000000000000000000e+00,5.000000000000000000e+00,5.000000000000000000e+00,5.000000000000000000e+00,5.000000000000000000e+00,5.000000000000000000e+00,5.000000000000000000e+00,5.000000000000000000e+00,5.000000000000000000e+00,5.000000000000000000e+00,5.000000000000000000e+00,5.000000000000000000e+00,5.000000000000000000e+00,5.000000000000000000e+00,5.000000000000000000e+00,5.000000000000000000e+00,5.000000000000000000e+00,5.000000000000000000e+00,5.000000000000000000e+00,5.000000000000000000e+00,5.000000000000000000e+00,5.000000000000000000e+00,5.000000000000000000e+00,5.000000000000000000e+00,5.000000000000000000e+00,5.000000000000000000e+00,5.000000000000000000e+00,5.000000000000000000e+00,5.000000000000000000e+00,5.000000000000000000e+00,5.000000000000000000e+00,5.000000000000000000e+00,5.000000000000000000e+00,5.000000000000000000e+00,5.000000000000000000e+00,4.096559524536132812e+00,4.166311740875244141e+00,4.160251617431640625e+00,4.184995651245117188e+00,4.220803737640380859e+00,4.244284152984619141e+00,5.000000000000000000e+00,5.000000000000000000e+00,5.000000000000000000e+00,5.000000000000000000e+00,5.000000000000000000e+00,5.000000000000000000e+00,5.000000000000000000e+00,5.000000000000000000e+00,5.000000000000000000e+00,4.995069503784179688e+00,4.794065475463867188e+00,4.608613014221191406e+00,4.436974048614501953e+00,4.277660846710205078e+00,4.129391193389892578e+00,3.991056442260742188e+00,3.861689090728759766e+00,3.740445375442504883e+00,3.626583337783813477e+00,3.519448041915893555e+00,3.418461799621582031e+00,3.323107957839965820e+00,3.232929468154907227e+00,3.147515773773193359e+00,3.066499233245849609e+00,2.989548683166503906e+00,2.916365623474121094e+00,2.846679925918579102e+00,2.780246973037719727e+00,2.716843605041503906e+00,2.656267881393432617e+00,2.598334312438964844e+00,2.542873859405517578e+00,2.489731550216674805e+00
4.886046886444091797e+00,5.000000000000000000e+00,5.000000000000000000e+00,5.000000000000000000e+00,5.000000000000000000e+00,5.000000000000000000e+00,5.000000000000000000e+00,5.000000000000000000e+00,5.000000000000000000e+00,5.000000000000000000e+00,5.000000000000000000e+00,5.000000000000000000e+00,5.000000000000000000e+00,5.000000000000000000e+00,5.000000000000000000e+00,5.000000000000000000e+00,5.000000000000000000e+00,5.000000000000000000e+00,5.000000000000000000e+00,5.000000000000000000e+00,5.000000000000000000e+00,5.000000000000000000e+00,5.000000000000000000e+00,5.000000000000000000e+00,5.000000000000000000e+00,5.000000000000000000e+00,5.000000000000000000e+00,5.000000000000000000e+00,5.000000000000000000e+00,5.000000000000000000e+00,5.000000000000000000e+00,5.000000000000000000e+00,5.000000000000000000e+00,5.000000000000000000e+00,5.000000000000000000e+00,5.000000000000000000e+00,5.000000000000000000e+00,5.000000000000000000e+00,5.000000000000000000e+00,5.000000000000000000e+00,4.114582061767578125e+00,4.158101558685302734e+00,4.142285823822021484e+00,4.159327030181884766e+00,4.191858291625976562e+00,4.249334812164306641e+00,5.000000000000000000e+00,5.000000000000000000e+00,5.000000000000000000e+00,5.000000000000000000e+00,5.000000000000000000e+00,5.000000000000000000e+00,5.000000000000000000e+00,5.000000000000000000e+00,5.000000000000000000e+00,4.995224952697753906e+00,4.794208526611328125e+00,4.608745098114013672e+00,4.437096595764160156e+00,4.277774810791015625e+00,4.129497528076171875e+00,3.991155147552490234e+00,3.861781835556030273e+00,3.740532636642456055e+00,3.626664876937866211e+00,3.519525289535522461e+00,3.418534278869628906e+00,3.323177099227905273e+00,3.232995748519897461e+00,3.147579431533813477e+00,3.066560268402099609e+00,2.989607572555541992e+00,2.916422605514526367e+00,2.846734762191772461e+00,2.780299186706542969e+00,2.716893672943115234e+00,2.656315565109252930e+00,2.598379850387573242e+00,2.542917490005493164e+00,2.489773273468017578e+00
4.885931968688964844e+00,5.000000000000000000e+00,5.000000000000000000e+00,5.000000000000000000e+00,5.000000000000000000e+00,5.000000000000000000e+00,5.000000000000000000e+00,5.000000000000000000e+00,5.000000000000000000e+00,5.000000000000000000e+00,5.000000000000000000e+00,5.000000000000000000e+00,5.000000000000000000e+00,5.000000000000000000e+00,5.000000000000000000e+00,5.000000000000000000e+00,5.000000000000000000e+00,5.000000000000000000e+00,5.000000000000000000e+00,5.000000000000000000e+00,5.000000000000000000e+00,5.000000000000000000e+00,5.000000000000000000e+00,5.000000000000000000e+00,5.000000000000000000e+00,5.000000000000000000e+00,5.000000000000000000e+00,5.000000000000000000e+00,5.000000000000000000e+00,5.000000000000000000e+00,5.000000000000000000e+00,5.000000000000000000e+00,5.000000000000000000e+00,5.000000000000000000e+00,5.000000000000000000e+00,5.000000000000000000e+00,5.000000000000000000e+00,5.000000000000000000e+00,5.000000000000000000e+00,4.182782649993896484e+00,4.149431228637695312e+00,4.157465457916259766e+00,4.132053375244140625e+00,4.157404899597167969e+00,4.158989906311035156e+00,4.280982017517089844e+00,5.000000000000000000e+00,5.000000000000000000e+00,5.000000000000000000e+00,5.000000000000000000e+00,5.000000000000000000e+00,5.000000000000000000e+00,5.000000000000000000e+00,5.000000000000000000e+00,5.000000000000000000e+00,4.995380401611328125e+00,4.794352054595947266e+00,4.608877182006835938e+00,4.437219142913818359e+00,4.277888774871826172e+00,4.129603862762451172e+00,3.991254329681396484e+00,3.861874818801879883e+00,3.740619659423828125e+00,3.626746892929077148e+00,3.519602537155151367e+00,3.418606996536254883e+00,3.323246002197265625e+00,3.233060836791992188e+00,3.147641181945800781e+00,3.066618919372558594e+00,2.989663362503051758e+00,2.916475534439086914e+00,2.846785068511962891e+00,2.780347824096679688e+00,2.716940641403198242e+00,2.656360864639282227e+00,2.598423957824707031e+00,2.542960405349731445e+00,2.489814996719360352e+00
4.885817527770996094e+00,5.000000000000000000e+00,5.000000000000000000e+00,5.000000000000000000e+00,5.000000000000000000e+00,5.000000000000000000e+00,5.000000000000000000e+00,5.000000000000000000e+00,5.000000000000000000e+00,5.000000000000000000e+00,5.000000000000000000e+00,5.000000000000000000e+00,5.000000000000000000e+00,5.000000000000000000e+00,5.000000000000000000e+00,5.000000000000000000e+00,5.000000000000000000e+00,5.000000000000000000e+00,5.000000000000000000e+00,5.000000000000000000e+00,5.000000000000000000e+00,5.000000000000000000e+00,5.000000000000000000e+00,5.000000000000000000e+00,5.000000000000000000e+00,5.000000000000000000e+00,5.000000000000000000e+00,5.000000000000000000e+00,5.000000000000000000e+00,5.000000000000000000e+00,5.000000000000000000e+00,5.000000000000000000e+00,5.000000000000000000e+00,5.000000000000000000e+00,5.000000000000000000e+00,5.000000000000000000e+00,5.000000000000000000e+00,5.000000000000000000e+00,5.000000000000000000e+00,4.172901630401611328e+00,4.319860458374023438e+00,4.167059421539306641e+00,4.145180702209472656e+00,4.194573879241943359e+00,4.172150611877441406e+00,4.326093673706054688e+00,5.000000000000000000e+00,5.000000000000000000e+00,5.000000000000000000e+00,5.000000000000000000e+00,5.000000000000000000e+00,5.000000000000000000e+00,5.000000000000000000e+00,5.000000000000000000e+00,5.000000000000000000e+00,4.995535373687744141e+00,4.794495105743408203e+00,4.609009742736816406e+00,4.437341690063476562e+00,4.278002738952636719e+00,4.129710197448730469e+00,3.991353511810302734e+00,3.861967563629150391e+00,3.740706682205200195e+00,3.626828670501708984e+00,3.519679546356201172e+00,3.418679952621459961e+00,3.323314666748046875e+00,3.233125925064086914e+00,3.147702932357788086e+00,3.066677570343017578e+00,2.989718914031982422e+00,2.916528463363647461e+00,2.846835613250732422e+00,2.780395984649658203e+00,2.716986656188964844e+00,2.656404972076416016e+00,2.598466157913208008e+00,2.543000698089599609e+00,2.489853620529174805e+00
4.885703086853027344e+00,5.000000000000000000e+00,5.000000000000000000e+00,5.000000000000000000e+00,5.000000000000000000e+00,5.000000000000000000e+00,5.000000000000000000e+00,5.000000000000000000e+00,5.000000000000000000e+00,5.000000000000000000e+00,5.000000000000000000e+00,5.000000000000000000e+00,5.000000000000000000e+00,5.000000000000000000e+00,5.000000000000000000e+00,5.000000000000000000e+00,5.000000000000000000e+00,5.000000000000000000e+00,5.000000000000000000e+00,5.000000000000000000e+00,5.000000000000000000e+00,5.000000000000000000e+00,5.000000000000000000e+00,5.000000000000000000e+00,5.000000000000000000e+00,5.000000000000000000e+00,5.000000000000000000e+00,5.000000000000000000e+00,5.000000000000000000e+00,5.000000000000000000e+00,5.000000000000000000e+00,5.000000000000000000e+00,5.000000000000000000e+00,5.000000000000000000e+00,5.000000000000000000e+00,5.000000000000000000e+00,5.000000000000000000e+00,5.000000000000000000e+00,5.000000000000000000e+00,4.177155494689941406e+00,4.285754203796386719e+00,4.218103408813476562e+00,4.220257282257080078e+00,4.215326309204101562e+00,4.223016738891601562e+00,4.370840072631835938e+00,5.000000000000000000e+00,5.000000000000000000e+00,5.000000000000000000e+00,5.000000000000000000e+00,5.000000000000000000e+00,5.000000000000000000e+00,5.000000000000000000e+00,5.000000000000000000e+00,5.000000000000000000e+00,4.995690822601318359e+00,4.794638156890869141e+00,4.609141826629638672e+00,4.437464237213134766e+00,4.278116703033447266e+00,4.129816055297851562e+00,3.991452932357788086e+00,3.862060546875000000e+00,3.740793943405151367e+00,3.626910686492919922e+00,3.519756793975830078e+00,3.418752670288085938e+00,3.323383569717407227e+00,3.233191013336181641e+00,3.147764682769775391e+00,3.066735982894897461e+00,2.989774703979492188e+00,2.916581392288208008e+00,2.846885919570922852e+00,2.780444145202636719e+00,2.717032670974731445e+00,2.656448841094970703e+00,2.598508119583129883e+00,2.543040752410888672e+00,2.489892244338989258e+00
4.885588645935058594e+00,5.000000000000000000e+00,5.000000000000000000e+00,5.000000000000000000e+00,5.000000000000000000e+00,5.000000000000000000e+00,5.000000000000000000e+00,5.000000000000000000e+00,5.000000000000000000e+00,5.000000000000000000e+00,5.000000000000000000e+00,5.000000000000000000e+00,5.000000000000000000e+00,5.000000000000000000e+00,5.000000000000000000e+00,5.000000000000000000e+00,5.000000000000000000e+00,5.000000000000000000e+00,5.000000000000000000e+00,5.000000000000000000e+00,5.000000000000000000e+00,5.000000000000000000e+00,5.000000000000000000e+00,5.000000000000000000e+00,5.000000000000000000e+00,5.000000000000000000e+00,5.000000000000000000e+00,5.000000000000000000e+00,5.000000000000000000e+00,5.000000000000000000e+00,5.000000000000000000e+00,5.000000000000000000e+00,5.000000000000000000e+00,5.000000000000000000e+00,5.000000000000000000e+00,5.000000000000000000e+00,5.000000000000000000e+00,5.000000000000000000e+00,5.000000000000000000e+00,4.269188404083251953e+00,4.313914299011230469e+00,4.267640590667724609e+00,5.000000000000000000e+00,4.228783607482910156e+00,4.245983600616455078e+00,4.388379096984863281e+00,5.000000000000000000e+00,5.000000000000000000e+00,5.000000000000000000e+00,5.000000000000000000e+00,5.000000000000000000e+00,5.000000000000000000e+00,5.000000000000000000e+00,5.000000000000000000e+00,5.000000000000000000e+00,4.995846271514892578e+00,4.794781208038330078e+00,4.609274387359619141e+00,4.437587261199951172e+00,4.278230667114257812e+00,4.129922389984130859e+00,3.991552114486694336e+00,3.862153530120849609e+00,3.740881204605102539e+00,3.626992464065551758e+00,3.519834041595458984e+00,3.418825387954711914e+00,3.323452234268188477e+00,3.233256101608276367e+00,3.147826433181762695e+00,3.066794633865356445e+00,2.989830255508422852e+00,2.916634082794189453e+00,2.846936464309692383e+00,2.780492305755615234e+00,2.717078447341918945e+00,2.656492710113525391e+00,2.598550081253051758e+00,2.543081045150756836e+00,2.489930868148803711e+00
4.885474205017089844e+00,5.000000000000000000e+00,5.000000000000000000e+00,5.000000000000000000e+00,5.000000000000000000e+00,5.000000000000000000e+00,5.000000000000000000e+00,5.000000000000000000e+00,5.000000000000000000e+00,5.000000000000000000e+00,5.000000000000000000e+00,5.000000000000000000e+00,5.000000000000000000e+00,5.000000000000000000e+00,5.000000000000000000e+00,5.000000000000000000e+00,5.000000000000000000e+00,5.000000000000000000e+00,5.000000000000000000e+00,5.000000000000000000e+00,5.000000000000000000e+00,5.000000000000000000e+00,5.000000000000000000e+00,5.000000000000000000e+00,5.000000000000000000e+00,5.000000000000000000e+00,5.000000000000000000e+00,5.000000000000000000e+00,5.000000000000000000e+00,5.000000000000000000e+00,5.000000000000000000e+00,5.000000000000000000e+00,5.000000000000000000e+00,5.000000000000000000e+00,5.000000000000000000e+00,5.000000000000000000e+00,5.000000000000000000e+00,5.000000000000000000e+00,5.000000000000000000e+00,5.000000000000000000e+00,4.342579364776611328e+00,4.307140350341796875e+00,5.000000000000000000e+00,4.231790542602539062e+00,4.264994144439697266e+00,4.424704074859619141e+00,5.000000000000000000e+00,5.000000000000000000e+00,5.000000000000000000e+00,5.000000000000000000e+00,5.000000000000000000e+00,5.000000000000000000e+00,5.000000000000000000e+00,5.000000000000000000e+00,5.000000000000000000e+00,4.996001720428466797e+00,4.794924259185791016e+00,4.609406471252441406e+00,4.437709808349609375e+00,4.278344631195068359e+00,4.130028724670410156e+00,3.991651296615600586e+00,3.862246513366699219e+00,3.740968227386474609e+00,3.627074480056762695e+00,3.519911050796508789e+00,3.418898344039916992e+00,3.323521137237548828e+00,3.233321428298950195e+00,3.147887706756591797e+00,3.066853284835815430e+00,2.989886045455932617e+00,2.916687250137329102e+00,2.846987009048461914e+00,2.780540466308593750e+00,2.717124462127685547e+00,2.656536817550659180e+00,2.598592281341552734e+00,2.543121337890625000e+00,2.489969491958618164e+00
4.885359764099121094e+00,5.000000000000000000e+00,5.000000000000000000e+00,5.000000000000000000e+00,5.000000000000000000e+00,5.000000000000000000e+00,5.000000000000000000e+00,5.000000000000000000e+00,5.000000000000000000e+00,5.000000000000000000e+00,5.000000000000000000e+00,5.000000000000000000e+00,5.000000000000000000e+00,5.000000000000000000e+00,5.000000000000000000e+00,5.000000000000000000e+00,5.000000000000000000e+00,5.000000000000000000e+00,5.000000000000000000e+00,5.000000000000000000e+00,5.000000000000000000e+00,5.000000000000000000e+00,5.000000000000000000e+00,5.000000000000000000e+00,5.000000000000000000e+00,5.000000000000000000e+00,5.000000000000000000e+00,5.000000000000000000e+00,5.000000000000000000e+00,5.000000000000000000e+00,5.000000000000000000e+00,5.000000000000000000e+00,5.000000000000000000e+00,5.000000000000000000e+00,5.000000000000000000e+00,5.000000000000000000e+00,5.000000000000000000e+00,5.000000000000000000e+00,5.000000000000000000e+00,5.000000000000000000e+00,4.373127937316894531e+00,4.377710342407226562e+00,5.000000000000000000e+00,4.237096786499023438e+00,5.000000000000000000e+00,5.000000000000000000e+00,5.000000000000000000e+00,5.000000000000000000e+00,5.000000000000000000e+00,5.000000000000000000e+00,5.000000000000000000e+00,5.000000000000000000e+00,5.000000000000000000e+00,5.000000000000000000e+00,5.000000000000000000e+00,4.996157169342041016e+00,4.795067310333251953e+00,4.609539031982421875e+00,4.437832355499267578e+00,4.278458595275878906e+00,4.130135059356689453e+00,3.991750478744506836e+00,3.862339258193969727e+00,3.741055011749267578e+00,3.627156496047973633e+00,3.519988298416137695e+00,3.418970823287963867e+00,3.323590040206909180e+00,3.233386516571044922e+00,3.147949457168579102e+00,3.066911697387695312e+00,2.989941596984863281e+00,2.916740179061889648e+00,2.847037315368652344e+00,2.780588626861572266e+00,2.717170476913452148e+00,2.656580686569213867e+00,2.598634243011474609e+00,2.543161630630493164e+00,2.490008115768432617e+00
4.885235309600830078e+00,5.000000000000000000e+00,5.000000000000000000e+00,5.000000000000000000e+00,5.000000000000000000e+00,5.000000000000000000e+00,5.000000000000000000e+00,5.000000000000000000e+00,5.000000000000000000e+00,5.000000000000000000e+00,5.000000000000000000e+00,5.000000000000000000e+00,5.000000000000000000e+00,5.000000000000000000e+00,5.000000000000000000e+00,5.000000000000000000e+00,5.000000000000000000e+00,5.000000000000000000e+00,5.000000000000000000e+00,5.000000000000000000e+00,5.000000000000000000e+00,5.000000000000000000e+00,5.000000000000000000e+00,5.000000000000000000e+00,5.000000000000000000e+00,5.000000000000000000e+00,5.000000000000000000e+00,5.000000000000000000e+00,5.000000000000000000e+00,5.000000000000000000e+00,5.000000000000000000e+00,5.000000000000000000e+00,5.000000000000000000e+00,5.000000000000000000e+00,5.000000000000000000e+00,5.000000000000000000e+00,5.000000000000000000e+00,5.000000000000000000e+00,5.000000000000000000e+00,5.000000000000000000e+00,4.351862907409667969e+00,4.342030048370361328e+00,5.000000000000000000e+00,4.220591545104980469e+00,5.000000000000000000e+00,5.000000000000000000e+00,5.000000000000000000e+00,5.000000000000000000e+00,5.000000000000000000e+00,5.000000000000000000e+00,5.000000000000000000e+00,5.000000000000000000e+00,5.000000000000000000e+00,5.000000000000000000e+00,5.000000000000000000e+00,4.996312618255615234e+00,4.795210838317871094e+00,4.609671115875244141e+00,4.437954902648925781e+00,4.278572559356689453e+00,4.130240917205810547e+00,3.991849899291992188e+00,3.862432241439819336e+00,3.741142272949218750e+00,3.627238512039184570e+00,3.520065546035766602e+00,3.419043540954589844e+00,3.323658704757690430e+00,3.233451604843139648e+00,3.148011207580566406e+00,3.066970348358154297e+00,2.989997386932373047e+00,2.916793107986450195e+00,2.847087860107421875e+00,2.780636787414550781e+00,2.717216491699218750e+00,2.656624794006347656e+00,2.598676443099975586e+00,2.543201923370361328e+00,2.490046739578247070e+00
4.885108947753906250e+00,5.000000000000000000e+00,5.000000000000000000e+00,5.000000000000000000e+00,5.000000000000000000e+00,5.000000000000000000e+00,5.000000000000000000e+00,5.000000000000000000e+00,5.000000000000000000e+00,5.000000000000000000e+00,5.000000000000000000e+00,5.000000000000000000e+00,5.000000000000000000e+00,5.000000000000000000e+00,5.000000000000000000e+00,5.000000000000000000e+00,5.000000000000000000e+00,5.000000000000000000e+00,5.000000000000000000e+00,5.000000000000000000e+00,5.000000000000000000e+00,5.000000000000000000e+00,5.000000000000000000e+00,5.000000000000000000e+00,5.000000000000000000e+00,5.000000000000000000e+00,5.000000000000000000e+00,5.000000000000000000e+00,5.000000000000000000e+00,5.000000000000000000e+00,5.000000000000000000e+00,5.000000000000000000e+00,5.000000000000000000e+00,5.000000000000000000e+00,5.000000000000000000e+00,5.000000000000000000e+00,5.000000000000000000e+00,5.000000000000000000e+00,5.000000000000000000e+00,5.000000000000000000e+00,4.322939395904541016e+00,4.285261631011962891e+00,5.000000000000000000e+00,4.176091670989990234e+00,5.000000000000000000e+00,5.000000000000000000e+00,5.000000000000000000e+00,5.000000000000000000e+00,5.000000000000000000e+00,5.000000000000000000e+00,5.000000000000000000e+00,5.000000000000000000e+00,5.000000000000000000e+00,5.000000000000000000e+00,5.000000000000000000e+00,4.996468067169189453e+00,4.795353889465332031e+00,4.609803676605224609e+00,4.438077926635742188e+00,4.278686523437500000e+00,4.130347251892089844e+00,3.991949081420898438e+00,3.862525224685668945e+00,3.741229295730590820e+00,3.627320289611816406e+00,3.520142555236816406e+00,3.419116258621215820e+00,3.323727607727050781e+00,3.233516693115234375e+00,3.148072957992553711e+00,3.067028999328613281e+00,2.990053176879882812e+00,2.916846036911010742e+00,2.847138404846191406e+00,2.780684947967529297e+00,2.717262268066406250e+00,2.656668663024902344e+00,2.598718404769897461e+00,2.543242216110229492e+00,2.490085363388061523e+00
4.884982109069824219e+00,5.000000000000000000e+00,5.000000000000000000e+00,5.000000000000000000e+00,5.000000000000000000e+00,5.000000000000000000e+00,5.000000000000000000e+00,5.000000000000000000e+00,5.000000000000000000e+00,5.000000000000000000e+00,5.000000000000000000e+00,5.000000000000000000e+00,5.000000000000000000e+00,5.000000000000000000e+00,5.000000000000000000e+00,5.000000000000000000e+00,5.000000000000000000e+00,5.000000000000000000e+00,5.000000000000000000e+00,5.000000000000000000e+00,5.000000000000000000e+00,5.000000000000000000e+00,5.000000000000000000e+00,5.000000000000000000e+00,5.000000000000000000e+00,5.000000000000000000e+00,5.000000000000000000e+00,5.000000000000000000e+00,5.000000000000000000e+00,5.000000000000000000e+00,5.000000000000000000e+00,5.000000000000000000e+00,5.000000000000000000e+00,5.000000000000000000e+00,5.000000000000000000e+00,5.000000000000000000e+00,5.000000000000000000e+00,5.000000000000000000e+00,5.000000000000000000e+00,5.000000000000000000e+00,5.000000000000000000e+00,4.253764629364013672e+00,5.000000000000000000e+00,4.158280372619628906e+00,5.000000000000000000e+00,5.000000000000000000e+00,5.000000000000000000e+00,5.000000000000000000e+00,5.000000000000000000e+00,5.000000000000000000e+00,5.000000000000000000e+00,5.000000000000000000e+00,5.000000000000000000e+00,5.000000000000000000e+00,5.000000000000000000e+00,4.996623516082763672e+00,4.795496940612792969e+00,4.609935760498046875e+00,4.438200473785400391e+00,4.278800487518310547e+00,4.130453586578369141e+00,3.992048263549804688e+00,3.862617969512939453e+00,3.741316556930541992e+00,3.627402305603027344e+00,3.520219802856445312e+00,3.419189214706420898e+00,3.323796272277832031e+00,3.233581781387329102e+00,3.148134708404541016e+00,3.067087650299072266e+00,2.990108728408813477e+00,2.916899204254150391e+00,2.847188949584960938e+00,2.780733108520507812e+00,2.717308282852172852e+00,2.656712532043457031e+00,2.598760604858398438e+00,2.543282508850097656e+00,2.490123987197875977e+00
4.884855747222900391e+00,5.000000000000000000e+00,5.000000000000000000e+00,5.000000000000000000e+00,5.000000000000000000e+00,5.000000000000000000e+00,5.000000000000000000e+00,5.000000000000000000e+00,5.000000000000000000e+00,5.000000000000000000e+00,5.000000000000000000e+00,5.000000000000000000e+00,5.000000000000000000e+00,5.000000000000000000e+00,5.000000000000000000e+00,5.000000000000000000e+00,5.000000000000000000e+00,5.000000000000000000e+00,5.000000000000000000e+00,5.000000000000000000e+00,5.000000000000000000e+00,5.000000000000000000e+00,5.000000000000000000e+00,5.000000000000000000e+00,5.000000000000000000e+00,5.000000000000000000e+00,5.000000000000000000e+00,5.000000000000000000e+00,5.000000000000000000e+00,5.000000000000000000e+00,5.000000000000000000e+00,5.000000000000000000e+00,5.000000000000000000e+00,5.000000000000000000e+00,5.000000000000000000e+00,5.000000000000000000e+00,5.000000000000000000e+00,5.000000000000000000e+00,5.000000000000000000e+00,5.000000000000000000e+00,5.000000000000000000e+00,4.224915504455566406e+00,5.000000000000000000e+00,4.139932155609130859e+00,5.000000000000000000e+00,5.000000000000000000e+00,5.000000000000000000e+00,5.000000000000000000e+00,5.000000000000000000e+00,5.000000000000000000e+00,5.000000000000000000e+00,5.000000000000000000e+00,5.000000000000000000e+00,5.000000000000000000e+00,5.000000000000000000e+00,4.996778964996337891e+00,4.795640468597412109e+00,4.610068321228027344e+00,4.438323020935058594e+00,4.278914451599121094e+00,4.130559921264648438e+00,3.992147684097290039e+00,3.862710952758789062e+00,3.741403818130493164e+00,3.627484321594238281e+00,3.520297050476074219e+00,3.419261932373046875e+00,3.323865175247192383e+00,3.233646869659423828e+00,3.148196458816528320e+00,3.067146062850952148e+00,2.990164518356323242e+00,2.916952133178710938e+00,2.847239494323730469e+00,2.780781030654907227e+00,2.717354297637939453e+00,2.656756639480590820e+00,2.598802328109741211e+00,2.543322801589965820e+00,2.490162611007690430e+00
4.884728908538818359e+00,5.000000000000000000e+00,5.000000000000000000e+00,5.000000000000000000e+00,5.000000000000000000e+00,5.000000000000000000e+00,5.000000000000000000e+00,5.000000000000000000e+00,5.000000000000000000e+00,5.000000000000000000e+00,5.000000000000000000e+00,5.000000000000000000e+00,5.000000000000000000e+00,5.000000000000000000e+00,5.000000000000000000e+00,5.000000000000000000e+00,5.000000000000000000e+00,5.000000000000000000e+00,5.000000000000000000e+00,5.000000000000000000e+00,5.000000000000000000e+00,5.000000000000000000e+00,5.000000000000000000e+00,5.000000000000000000e+00,5.000000000000000000e+00,5.000000000000000000e+00,5.000000000000000000e+00,5.000000000000000000e+00,5.000000000000000000e+00,5.000000000000000000e+00,5.000000000000000000e+00,5.000000000000000000e+00,5.000000000000000000e+00,5.000000000000000000e+00,5.000000000000000000e+00,5.000000000000000000e+00,5.000000000000000000e+00,5.000000000000000000e+00,5.000000000000000000e+00,5.000000000000000000e+00,5.000000000000000000e+00,4.227816581726074219e+00,5.000000000000000000e+00,4.128422260284423828e+00,5.000000000000000000e+00,5.000000000000000000e+00,5.000000000000000000e+00,5.000000000000000000e+00,5.000000000000000000e+00,5.000000000000000000e+00,5.000000000000000000e+00,5.000000000000000000e+00,5.000000000000000000e+00,5.000000000000000000e+00,5.000000000000000000e+00,4.996934413909912109e+00,4.795783519744873047e+00,4.610200405120849609e+00,4.438445568084716797e+00,4.279028415679931641e+00,4.130665779113769531e+00,3.992246866226196289e+00,3.862803936004638672e+00,3.741491079330444336e+00,3.627566337585449219e+00,3.520374298095703125e+00,3.419334888458251953e+00,3.323934078216552734e+00,3.233711719512939453e+00,3.148258209228515625e+00,3.067204713821411133e+00,2.990219831466674805e+00,2.917005062103271484e+00,2.847289800643920898e+00,2.780829191207885742e+00,2.717400312423706055e+00,2.656800508499145508e+00,2.598844528198242188e+00,2.543363094329833984e+00,2.490201234817504883e+00
4.884680747985839844e+00,5.000000000000000000e+00,5.000000000000000000e+00,5.000000000000000000e+00,5.000000000000000000e+00,5.000000000000000000e+00,5.000000000000000000e+00,5.000000000000000000e+00,5.000000000000000000e+00,5.000000000000000000e+00,5.000000000000000000e+00,5.000000000000000000e+00,5.000000000000000000e+00,5.000000000000000000e+00,5.000000000000000000e+00,5.000000000000000000e+00,5.000000000000000000e+00,5.000000000000000000e+00,5.000000000000000000e+00,5.000000000000000000e+00,5.000000000000000000e+00,5.000000000000000000e+00,5.000000000000000000e+00,5.000000000000000000e+00,5.000000000000000000e+00,5.000000000000000000e+00,5.000000000000000000e+00,5.000000000000000000e+00,5.000000000000000000e+00,5.000000000000000000e+00,5.000000000000000000e+00,5.000000000000000000e+00,5.000000000000000000e+00,5.000000000000000000e+00,5.000000000000000000e+00,5.000000000000000000e+00,5.000000000000000000e+00,5.000000000000000000e+00,5.000000000000000000e+00,5.000000000000000000e+00,5.000000000000000000e+00,4.206422805786132812e+00,5.000000000000000000e+00,4.116055011749267578e+00,5.000000000000000000e+00,5.000000000000000000e+00,5.000000000000000000e+00,5.000000000000000000e+00,5.000000000000000000e+00,5.000000000000000000e+00,5.000000000000000000e+00,5.000000000000000000e+00,5.000000000000000000e+00,5.000000000000000000e+00,5.000000000000000000e+00,4.997089862823486328e+00,4.795927047729492188e+00,4.610332965850830078e+00,4.438568115234375000e+00,4.279142856597900391e+00,4.130772113800048828e+00,3.992346048355102539e+00,3.862896919250488281e+00,3.741578102111816406e+00,3.627648115158081055e+00,3.520451068878173828e+00,3.419407606124877930e+00,3.324002742767333984e+00,3.233776807785034180e+00,3.148319959640502930e+00,3.067263364791870117e+00,2.990275621414184570e+00,2.917058229446411133e+00,2.847340345382690430e+00,2.780877351760864258e+00,2.717446327209472656e+00,2.656844615936279297e+00,2.598886489868164062e+00,2.543403387069702148e+00,2.490239858627319336e+00
4.872986316680908203e+00,4.871771335601806641e+00,4.870556831359863281e+00,4.869342803955078125e+00,4.868129253387451172e+00,4.866916656494140625e+00,4.865704059600830078e+00,4.864492893218994141e+00,4.863281726837158203e+00,4.862071037292480469e+00,4.860861301422119141e+00,4.859652519226074219e+00,4.858443737030029297e+00,4.857235908508300781e+00,4.856028079986572266e+00,4.854821681976318359e+00,4.853615760803222656e+00,4.852410316467285156e+00,4.851205348968505859e+00,4.850000858306884766e+00,4.848796844482421875e+00,4.847593784332275391e+00,4.846391201019287109e+00,4.845189094543457031e+00,4.843987941741943359e+00,4.842787265777587891e+00,4.841586589813232422e+00,4.840387344360351562e+00,4.839188098907470703e+00,4.837989807128906250e+00,4.836791992187500000e+00,4.835594654083251953e+00,4.834397792816162109e+00,4.833201885223388672e+00,4.832006454467773438e+00,4.830811977386474609e+00,4.829617500305175781e+00,4.828423500061035156e+00,4.827230453491210938e+00,4.826038360595703125e+00,4.824846267700195312e+00,4.823655128479003906e+00,4.242036342620849609e+00,4.088418483734130859e+00,4.820084571838378906e+00,4.818895339965820312e+00,4.817707061767578125e+00,4.816519737243652344e+00,4.815331935882568359e+00,4.814145565032958984e+00,4.812959194183349609e+00,4.811773777008056641e+00,4.810589313507080078e+00,4.809404850006103516e+00,4.808220863342285156e+00,4.807037830352783203e+00,4.796070098876953125e+00,4.610465526580810547e+00,4.438691139221191406e+00,4.279256343841552734e+00,4.130878448486328125e+00,3.992445468902587891e+00,3.862989425659179688e+00,3.741665363311767578e+00,3.627730131149291992e+00,3.520528316497802734e+00,3.419480562210083008e+00,3.324071645736694336e+00,3.233842134475708008e+00,3.148381710052490234e+00,3.067322015762329102e+00,2.990331172943115234e+00,2.917111158370971680e+00,2.847390890121459961e+00,2.780925512313842773e+00,2.717492341995239258e+00,2.656888484954833984e+00,2.598928451538085938e+00,2.543443679809570312e+00,2.490278482437133789e+00
3.776934623718261719e+00,3.776204824447631836e+00,3.775475025177001953e+00,3.774745225906372070e+00,3.774016380310058594e+00,3.773287057876586914e+00,3.772558689117431641e+00,3.771830081939697266e+00,3.771101951599121094e+00,3.770374298095703125e+00,3.769646644592285156e+00,3.768919706344604492e+00,3.768192529678344727e+00,3.767465591430664062e+00,3.766739368438720703e+00,3.766013145446777344e+00,3.765287637710571289e+00,3.764561653137207031e+00,3.763836622238159180e+00,3.763111591339111328e+00,3.762386560440063477e+00,3.761662483215332031e+00,3.760938167572021484e+00,3.760214567184448242e+00,3.759490728378295898e+00,3.758767127990722656e+00,3.758044242858886719e+00,3.757321357727050781e+00,3.756599187850952148e+00,3.755876779556274414e+00,3.755154609680175781e+00,3.754433155059814453e+00,3.753711700439453125e+00,3.752990722656250000e+00,3.752269744873046875e+00,3.751549482345581055e+00,3.750828981399536133e+00,3.750108718872070312e+00,3.749389171600341797e+00,3.748669624328613281e+00,3.747950553894042969e+00,3.747231483459472656e+00,3.746512651443481445e+00,3.745794534683227539e+00,3.745076417922973633e+00,3.744358777999877930e+00,3.743641138076782227e+00,3.742923736572265625e+00,3.742207050323486328e+00,3.741490125656127930e+00,3.740773916244506836e+00,3.740057706832885742e+00,3.739341497421264648e+00,3.738626241683959961e+00,3.737910747528076172e+00,3.737195968627929688e+00,3.736480951309204102e+00,3.735766649246215820e+00,3.735052347183227539e+00,3.734338045120239258e+00,3.733624696731567383e+00,3.732911109924316406e+00,3.732198238372802734e+00,3.731485128402709961e+00,3.627812147140502930e+00,3.520605325698852539e+00,3.419553279876708984e+00,3.324140548706054688e+00,3.233907222747802734e+00,3.148443460464477539e+00,3.067380666732788086e+00,2.990386962890625000e+00,2.917164087295532227e+00,2.847441434860229492e+00,2.780973672866821289e+00,2.717538356781005859e+00,2.656932353973388672e+00,2.598970651626586914e+00,2.543483972549438477e+00,2.490317106246948242e+00
3.083403587341308594e+00,3.082916736602783203e+00,3.082430124282836914e+00,3.081944227218627930e+00,3.081457853317260742e+00,3.080972194671630859e+00,3.080486059188842773e+00,3.080000400543212891e+00,3.079514980316162109e+00,3.079029560089111328e+00,3.078544378280639648e+00,3.078059434890747070e+00,3.077574253082275391e+00,3.077089786529541016e+00,3.076605081558227539e+00,3.076120615005493164e+00,3.075636386871337891e+00,3.075152397155761719e+00,3.074668169021606445e+00,3.074184179306030273e+00,3.073700666427612305e+00,3.073217153549194336e+00,3.072733879089355469e+00,3.072250604629516602e+00,3.071767330169677734e+00,3.071284532546997070e+00,3.070801734924316406e+00,3.070319175720214844e+00,3.069836616516113281e+00,3.069354295730590820e+00,3.068872213363647461e+00,3.068390130996704102e+00,3.067908287048339844e+00,3.067426443099975586e+00,3.066944837570190430e+00,3.066463708877563477e+00,3.065982341766357422e+00,3.065501451492309570e+00,3.065020322799682617e+00,3.064539670944213867e+00,3.064059019088745117e+00,3.063578367233276367e+00,3.063098192214965820e+00,3.062617778778076172e+00,3.062137842178344727e+00,3.061657905578613281e+00,3.061177968978881836e+00,3.060698509216308594e+00,3.060219049453735352e+00,3.059739828109741211e+00,3.059260606765747070e+00,3.058781623840332031e+00,3.058302879333496094e+00,3.057824134826660156e+00,3.057345628738403320e+00,3.056867122650146484e+00,3.056388854980468750e+00,3.055910825729370117e+00,3.055432796478271484e+00,3.054955005645751953e+00,3.054477214813232422e+00,3.053999900817871094e+00,3.053522586822509766e+00,3.053045272827148438e+00,3.052568197250366211e+00,3.052091360092163086e+00,3.051614761352539062e+00,3.051137924194335938e+00,3.050661325454711914e+00,3.050185203552246094e+00,3.049708843231201172e+00,2.990442752838134766e+00,2.917217254638671875e+00,2.847491979598999023e+00,2.781021833419799805e+00,2.717584371566772461e+00,2.656976461410522461e+00,2.599012851715087891e+00,2.543524265289306641e+00,2.490355491638183594e+00
2.605055570602416992e+00,2.604708194732666016e+00,2.604361057281494141e+00,2.604013919830322266e+00,2.603667020797729492e+00,2.603319883346557617e+00,2.602972984313964844e+00,2.602626323699951172e+00,2.602279424667358398e+00,2.601933002471923828e+00,2.601586341857910156e+00,2.601239919662475586e+00,2.600893735885620117e+00,2.600547552108764648e+00,2.600201368331909180e+00,2.599855422973632812e+00,2.599509239196777344e+00,2.599163532257080078e+00,2.598817586898803711e+00,2.598472118377685547e+00,2.598126411437988281e+00,2.597781181335449219e+00,2.597435712814331055e+00,2.597090244293212891e+00,2.596745014190673828e+00,2.596400022506713867e+00,2.596055030822753906e+00,2.595710039138793945e+00,2.595365047454833984e+00,2.595020532608032227e+00,2.594675779342651367e+00,2.594331264495849609e+00,2.593986749649047852e+00,2.593642234802246094e+00,2.593297958374023438e+00,2.592953681945800781e+00,2.592609643936157227e+00,2.592265605926513672e+00,2.591921567916870117e+00,2.591578006744384766e+00,2.591233968734741211e+00,2.590890645980834961e+00,2.590546846389770508e+00,2.590203523635864258e+00,2.589859962463378906e+00,2.589516639709472656e+00,2.589173555374145508e+00,2.588830471038818359e+00,2.588487625122070312e+00,2.588144540786743164e+00,2.587801694869995117e+00,2.587458848953247070e+00,2.587116241455078125e+00,2.586773872375488281e+00,2.586431264877319336e+00,2.586088657379150391e+00,2.585746526718139648e+00,2.585404396057128906e+00,2.585062265396118164e+00,2.584720134735107422e+00,2.584378242492675781e+00,2.584036588668823242e+00,2.583694696426391602e+00,2.583353042602539062e+00,2.583011388778686523e+00,2.582670211791992188e+00,2.582328557968139648e+00,2.581987380981445312e+00,2.581646203994750977e+00,2.581305027008056641e+00,2.580964088439941406e+00,2.580623149871826172e+00,2.580282211303710938e+00,2.579941511154174805e+00,2.579600811004638672e+00,2.579260349273681641e+00,2.578919649124145508e+00,2.578579187393188477e+00,2.543564558029174805e+00,2.490394115447998047e+00
2.255193233489990234e+00,2.254933118820190430e+00,2.254672765731811523e+00,2.254412651062011719e+00,2.254152536392211914e+00,2.253892421722412109e+00,2.253632545471191406e+00,2.253372430801391602e+00,2.253112554550170898e+00,2.252852678298950195e+00,2.252592802047729492e+00,2.252333402633666992e+00,2.252073526382446289e+00,2.251814126968383789e+00,2.251554489135742188e+00,2.251295089721679688e+00,2.251035690307617188e+00,2.250776290893554688e+00,2.250517129898071289e+00,2.250257730484008789e+00,2.249998569488525391e+00,2.249739408493041992e+00,2.249480485916137695e+00,2.249221563339233398e+00,2.248962402343750000e+00,2.248703718185424805e+00,2.248444795608520508e+00,2.248186111450195312e+00,2.247927427291870117e+00,2.247668743133544922e+00,2.247410297393798828e+00,2.247151613235473633e+00,2.246893167495727539e+00,2.246634960174560547e+00,2.246376514434814453e+00,2.246118307113647461e+00,2.245860099792480469e+00,2.245601654052734375e+00,2.245343685150146484e+00,2.245085716247558594e+00,2.244827747344970703e+00,2.244569778442382812e+00,2.244311809539794922e+00,2.244054079055786133e+00,2.243796348571777344e+00,2.243538618087768555e+00,2.243281126022338867e+00,2.243023633956909180e+00,2.242765903472900391e+00,2.242508411407470703e+00,2.242251157760620117e+00,2.241993904113769531e+00,2.241736650466918945e+00,2.241479396820068359e+00,2.241222143173217773e+00,2.240965127944946289e+00,2.240708112716674805e+00,2.240451097488403320e+00,2.240194082260131836e+00,2.239937305450439453e+00,2.239680528640747070e+00,2.239423751831054688e+00,2.239167213439941406e+00,2.238910436630249023e+00,2.238653898239135742e+00,2.238397359848022461e+00,2.238140821456909180e+00,2.237884521484375000e+00,2.237628221511840820e+00,2.237372159957885742e+00,2.237115859985351562e+00,2.236859560012817383e+00,2.236603498458862305e+00,2.236347436904907227e+00,2.236091613769531250e+00,2.235835552215576172e+00,2.235579729080200195e+00,2.235323905944824219e+00,2.235068082809448242e+00,2.234812498092651367e+00
1.988178372383117676e+00,1.987976074218750000e+00,1.987773776054382324e+00,1.987571716308593750e+00,1.987369418144226074e+00,1.987167239189147949e+00,1.986965060234069824e+00,1.986763238906860352e+00,1.986561059951782227e+00,1.986359119415283203e+00,1.986157059669494629e+00,1.985955119132995605e+00,1.985753417015075684e+00,1.985551595687866211e+00,1.985349774360656738e+00,1.985147953033447266e+00,1.984946250915527344e+00,1.984744787216186523e+00,1.984543085098266602e+00,1.984341502189636230e+00,1.984139800071716309e+00,1.983938336372375488e+00,1.983737111091613770e+00,1.983535528182983398e+00,1.983334183692932129e+00,1.983132839202880859e+00,1.982931494712829590e+00,1.982730388641357422e+00,1.982529163360595703e+00,1.982327938079833984e+00,1.982126712799072266e+00,1.981925606727600098e+00,1.981724739074707031e+00,1.981523633003234863e+00,1.981322646141052246e+00,1.981121659278869629e+00,1.980920791625976562e+00,1.980720043182373047e+00,1.980519294738769531e+00,1.980318427085876465e+00,1.980117678642272949e+00,1.979916930198669434e+00,1.979716420173645020e+00,1.979515790939331055e+00,1.979315280914306641e+00,1.979114651679992676e+00,1.978914141654968262e+00,1.978713870048522949e+00,1.978513479232788086e+00,1.978312969207763672e+00,1.978112697601318359e+00,1.977912545204162598e+00,1.977712273597717285e+00,1.977512001991271973e+00,1.977311849594116211e+00,1.977111697196960449e+00,1.976911783218383789e+00,1.976711750030517578e+00,1.976511597633361816e+00,1.976311683654785156e+00,1.976111650466918945e+00,1.975911974906921387e+00,1.975712060928344727e+00,1.975512266159057617e+00,1.975312471389770508e+00,1.975112676620483398e+00,1.974913239479064941e+00,1.974713563919067383e+00,1.974513888359069824e+00,1.974314332008361816e+00,1.974114775657653809e+00,1.973915457725524902e+00,1.973716020584106445e+00,1.973516583442687988e+00,1.973317146301269531e+00,1.973117828369140625e+00,1.972918748855590820e+00,1.972719430923461914e+00,1.972520232200622559e+00,1.972321033477783203e+00
1.777698874473571777e+00,1.777537107467651367e+00,1.777375459671020508e+00,1.777213811874389648e+00,1.777052044868469238e+00,1.776890397071838379e+00,1.776728749275207520e+00,1.776567339897155762e+00,1.776405692100524902e+00,1.776244163513183594e+00,1.776082634925842285e+00,1.775921344757080078e+00,1.775759935379028320e+00,1.775598406791687012e+00,1.775437116622924805e+00,1.775275707244873047e+00,1.775114536285400391e+00,1.774953246116638184e+00,1.774791955947875977e+00,1.774630665779113770e+00,1.774469375610351562e+00,1.774308443069458008e+00,1.774147272109985352e+00,1.773986101150512695e+00,1.773824930191040039e+00,1.773663878440856934e+00,1.773503065109252930e+00,1.773342013359069824e+00,1.773180961608886719e+00,1.773020029067993164e+00,1.772859096527099609e+00,1.772698402404785156e+00,1.772537469863891602e+00,1.772376656532287598e+00,1.772215843200683594e+00,1.772055029869079590e+00,1.771894454956054688e+00,1.771733641624450684e+00,1.771572947502136230e+00,1.771412253379821777e+00,1.771251678466796875e+00,1.771091222763061523e+00,1.770930647850036621e+00,1.770770072937011719e+00,1.770609498023986816e+00,1.770449042320251465e+00,1.770288705825805664e+00,1.770128250122070312e+00,1.769967913627624512e+00,1.769807457923889160e+00,1.769647359848022461e+00,1.769487023353576660e+00,1.769326686859130859e+00,1.769166469573974609e+00,1.769006133079528809e+00,1.768846154212951660e+00,1.768685936927795410e+00,1.768525838851928711e+00,1.768365740776062012e+00,1.768205642700195312e+00,1.768045663833618164e+00,1.767885684967041016e+00,1.767725706100463867e+00,1.767565727233886719e+00,1.767405748367309570e+00,1.767246007919311523e+00,1.767086148262023926e+00,1.766926288604736328e+00,1.766766428947448730e+00,1.766606569290161133e+00,1.766447067260742188e+00,1.766287207603454590e+00,1.766127586364746094e+00,1.765967845916748047e+00,1.765808224678039551e+00,1.765648722648620605e+00,1.765489220619201660e+00,1.765329599380493164e+00,1.765170097351074219e+00,1.765010595321655273e+00
1.607518076896667480e+00,1.607385993003845215e+00,1.607253670692443848e+00,1.607121467590332031e+00,1.606989145278930664e+00,1.606856942176818848e+00,1.606724977493286133e+00,1.606592774391174316e+00,1.606460690498352051e+00,1.606328487396240234e+00,1.606196403503417969e+00,1.606064438819885254e+00,1.605932474136352539e+00,1.605800390243530273e+00,1.605668425559997559e+00,1.605536580085754395e+00,1.605404615402221680e+00,1.605272650718688965e+00,1.605140686035156250e+00,1.605008840560913086e+00,1.604877114295959473e+00,1.604745149612426758e+00,1.604613304138183594e+00,1.604481577873229980e+00,1.604349732398986816e+00,1.604218125343322754e+00,1.604086399078369141e+00,1.603954672813415527e+00,1.603822946548461914e+00,1.603691220283508301e+00,1.603559732437133789e+00,1.603428125381469727e+00,1.603296399116516113e+00,1.603164792060852051e+00,1.603033304214477539e+00,1.602901816368103027e+00,1.602770328521728516e+00,1.602638840675354004e+00,1.602507352828979492e+00,1.602375864982604980e+00,1.602244496345520020e+00,1.602113127708435059e+00,1.601981639862060547e+00,1.601850271224975586e+00,1.601718902587890625e+00,1.601587772369384766e+00,1.601456403732299805e+00,1.601325154304504395e+00,1.601193904876708984e+00,1.601062774658203125e+00,1.600931525230407715e+00,1.600800275802612305e+00,1.600669145584106445e+00,1.600537896156311035e+00,1.600407004356384277e+00,1.600275874137878418e+00,1.600144743919372559e+00,1.600013613700866699e+00,1.599882483482360840e+00,1.599751591682434082e+00,1.599620580673217773e+00,1.599489569664001465e+00,1.599358677864074707e+00,1.599227666854858398e+00,1.599096894264221191e+00,1.598966002464294434e+00,1.598835110664367676e+00,1.598704218864440918e+00,1.598573327064514160e+00,1.598442673683166504e+00,1.598311901092529297e+00,1.598181128501892090e+00,1.598050355911254883e+00,1.597919583320617676e+00,1.597789049148559570e+00,1.597658395767211914e+00,1.597527623176574707e+00,1.597396969795227051e+00,1.597266316413879395e+00,1.597135901451110840e+00
1.467073917388916016e+00,1.466963648796081543e+00,1.466853499412536621e+00,1.466743350028991699e+00,1.466633200645446777e+00,1.466523170471191406e+00,1.466413140296936035e+00,1.466302990913391113e+00,1.466192960739135742e+00,1.466082930564880371e+00,1.465973019599914551e+00,1.465862989425659180e+00,1.465752959251403809e+00,1.465642929077148438e+00,1.465532898902893066e+00,1.465423107147216797e+00,1.465313196182250977e+00,1.465203285217285156e+00,1.465093374252319336e+00,1.464983582496643066e+00,1.464873671531677246e+00,1.464763879776000977e+00,1.464653968811035156e+00,1.464544177055358887e+00,1.464434504508972168e+00,1.464324712753295898e+00,1.464214920997619629e+00,1.464105129241943359e+00,1.463995337486267090e+00,1.463885784149169922e+00,1.463776111602783203e+00,1.463666439056396484e+00,1.463556647300720215e+00,1.463447093963623047e+00,1.463337540626525879e+00,1.463227868080139160e+00,1.463118314743041992e+00,1.463008642196655273e+00,1.462899088859558105e+00,1.462789654731750488e+00,1.462680101394653320e+00,1.462570548057556152e+00,1.462461113929748535e+00,1.462351560592651367e+00,1.462242245674133301e+00,1.462132811546325684e+00,1.462023258209228516e+00,1.461913824081420898e+00,1.461804509162902832e+00,1.461695194244384766e+00,1.461585760116577148e+00,1.461476445198059082e+00,1.461367130279541016e+00,1.461257934570312500e+00,1.461148619651794434e+00,1.461039304733276367e+00,1.460929989814758301e+00,1.460820674896240234e+00,1.460711598396301270e+00,1.460602402687072754e+00,1.460493087768554688e+00,1.460383892059326172e+00,1.460274696350097656e+00,1.460165739059448242e+00,1.460056543350219727e+00,1.459947347640991211e+00,1.459838271141052246e+00,1.459729194641113281e+00,1.459620237350463867e+00,1.459511160850524902e+00,1.459402084350585938e+00,1.459293007850646973e+00,1.459184050559997559e+00,1.459075093269348145e+00,1.458966135978698730e+00,1.458857178688049316e+00,1.458748221397399902e+00,1.458639264106750488e+00,1.458530426025390625e+00,1.458421587944030762e+00
1.349198222160339355e+00,1.349105000495910645e+00,1.349011778831481934e+00,1.348918676376342773e+00,1.348825573921203613e+00,1.348732471466064453e+00,1.348639249801635742e+00,1.348546147346496582e+00,1.348453044891357422e+00,1.348360061645507812e+00,1.348266959190368652e+00,1.348173975944519043e+00,1.348080873489379883e+00,1.347987890243530273e+00,1.347894906997680664e+00,1.347801923751831055e+00,1.347708940505981445e+00,1.347615957260131836e+00,1.347523093223571777e+00,1.347430109977722168e+00,1.347337126731872559e+00,1.347244262695312500e+00,1.347151279449462891e+00,1.347058534622192383e+00,1.346965670585632324e+00,1.346872687339782715e+00,1.346779823303222656e+00,1.346686959266662598e+00,1.346594214439392090e+00,1.346501469612121582e+00,1.346408605575561523e+00,1.346315741539001465e+00,1.346222996711730957e+00,1.346130371093750000e+00,1.346037507057189941e+00,1.345944762229919434e+00,1.345852017402648926e+00,1.345759272575378418e+00,1.345666646957397461e+00,1.345574021339416504e+00,1.345481276512145996e+00,1.345388650894165039e+00,1.345295906066894531e+00,1.345203399658203125e+00,1.345110774040222168e+00,1.345018148422241211e+00,1.344925522804260254e+00,1.344832897186279297e+00,1.344740390777587891e+00,1.344647765159606934e+00,1.344555258750915527e+00,1.344462633132934570e+00,1.344370126724243164e+00,1.344277739524841309e+00,1.344185233116149902e+00,1.344092726707458496e+00,1.344000220298767090e+00,1.343907833099365234e+00,1.343815326690673828e+00,1.343722939491271973e+00,1.343630433082580566e+00,1.343538045883178711e+00,1.343445777893066406e+00,1.343353271484375000e+00,1.343260884284973145e+00,1.343168616294860840e+00,1.343076229095458984e+00,1.342983961105346680e+00,1.342891573905944824e+00,1.342799305915832520e+00,1.342706918716430664e+00,1.342614650726318359e+00,1.342522501945495605e+00,1.342430233955383301e+00,1.342337965965270996e+00,1.342245697975158691e+00,1.342153429985046387e+00,1.342061281204223633e+00,1.341969132423400879e+00,1.341876864433288574e+00
1.248855710029602051e+00,1.248775959014892578e+00,1.248696088790893555e+00,1.248616337776184082e+00,1.248536586761474609e+00,1.248456716537475586e+00,1.248376965522766113e+00,1.248297095298767090e+00,1.248217463493347168e+00,1.248137712478637695e+00,1.248057961463928223e+00,1.247978210449218750e+00,1.247898459434509277e+00,1.247818827629089355e+00,1.247739076614379883e+00,1.247659444808959961e+00,1.247579693794250488e+00,1.247500061988830566e+00,1.247420430183410645e+00,1.247340798377990723e+00,1.247261166572570801e+00,1.247181415557861328e+00,1.247101902961730957e+00,1.247022271156311035e+00,1.246942639350891113e+00,1.246863126754760742e+00,1.246783494949340820e+00,1.246703982353210449e+00,1.246624469757080078e+00,1.246544837951660156e+00,1.246465325355529785e+00,1.246385812759399414e+00,1.246306300163269043e+00,1.246226787567138672e+00,1.246147274971008301e+00,1.246067762374877930e+00,1.245988249778747559e+00,1.245908856391906738e+00,1.245829463005065918e+00,1.245749950408935547e+00,1.245670557022094727e+00,1.245591044425964355e+00,1.245511770248413086e+00,1.245432257652282715e+00,1.245352864265441895e+00,1.245273470878601074e+00,1.245194077491760254e+00,1.245114803314208984e+00,1.245035409927368164e+00,1.244956016540527344e+00,1.244876742362976074e+00,1.244797348976135254e+00,1.244718074798583984e+00,1.244638800621032715e+00,1.244559526443481445e+00,1.244480252265930176e+00,1.244400858879089355e+00,1.244321703910827637e+00,1.244242429733276367e+00,1.244163155555725098e+00,1.244084000587463379e+00,1.244004845619201660e+00,1.243925571441650391e+00,1.243846297264099121e+00,1.243767142295837402e+00,1.243687987327575684e+00,1.243608832359313965e+00,1.243529677391052246e+00,1.243450522422790527e+00,1.243371367454528809e+00,1.243292212486267090e+00,1.243213176727294922e+00,1.243134021759033203e+00,1.243054866790771484e+00,1.242975831031799316e+00,1.242896676063537598e+00,1.242817640304565430e+00,1.242738604545593262e+00,1.242659568786621094e+00,1.242580533027648926e+00
1.162405490875244141e+00,1.162336349487304688e+00,1.162267208099365234e+00,1.162198066711425781e+00,1.162128925323486328e+00,1.162059783935546875e+00,1.161990642547607422e+00,1.161921620368957520e+00,1.161852478981018066e+00,1.161783337593078613e+00,1.161714315414428711e+00,1.161645174026489258e+00,1.161576151847839355e+00,1.161507129669189453e+00,1.161437988281250000e+00,1.161368966102600098e+00,1.161299943923950195e+00,1.161230921745300293e+00,1.161161899566650391e+00,1.161092877388000488e+00,1.161023855209350586e+00,1.160954952239990234e+00,1.160885930061340332e+00,1.160816907882690430e+00,1.160747885704040527e+00,1.160678982734680176e+00,1.160610079765319824e+00,1.160541057586669922e+00,1.160472154617309570e+00,1.160403251647949219e+00,1.160334229469299316e+00,1.160265445709228516e+00,1.160196423530578613e+00,1.160127520561218262e+00,1.160058617591857910e+00,1.159989714622497559e+00,1.159920930862426758e+00,1.159852027893066406e+00,1.159783244132995605e+00,1.159714341163635254e+00,1.159645438194274902e+00,1.159576654434204102e+00,1.159507870674133301e+00,1.159438967704772949e+00,1.159370183944702148e+00,1.159301400184631348e+00,1.159232616424560547e+00,1.159163832664489746e+00,1.159095048904418945e+00,1.159026265144348145e+00,1.158957481384277344e+00,1.158888816833496094e+00,1.158820033073425293e+00,1.158751249313354492e+00,1.158682584762573242e+00,1.158613801002502441e+00,1.158545136451721191e+00,1.158476471900939941e+00,1.158407688140869141e+00,1.158339023590087891e+00,1.158270359039306641e+00,1.158201694488525391e+00,1.158133029937744141e+00,1.158064365386962891e+00,1.157995700836181641e+00,1.157927155494689941e+00,1.157858490943908691e+00,1.157789945602416992e+00,1.157721281051635742e+00,1.157652616500854492e+00,1.157584071159362793e+00,1.157515525817871094e+00,1.157446861267089844e+00,1.157378315925598145e+00,1.157309770584106445e+00,1.157241225242614746e+00,1.157172679901123047e+00,1.157104134559631348e+00,1.157035589218139648e+00,1.156967043876647949e+00
1.087149143218994141e+00,1.087088704109191895e+00,1.087028145790100098e+00,1.086967706680297852e+00,1.086907267570495605e+00,1.086846709251403809e+00,1.086786270141601562e+00,1.086725831031799316e+00,1.086665391921997070e+00,1.086604952812194824e+00,1.086544513702392578e+00,1.086484074592590332e+00,1.086423635482788086e+00,1.086363196372985840e+00,1.086302876472473145e+00,1.086242437362670898e+00,1.086182117462158203e+00,1.086121678352355957e+00,1.086061239242553711e+00,1.086000919342041016e+00,1.085940480232238770e+00,1.085880160331726074e+00,1.085819840431213379e+00,1.085759520530700684e+00,1.085699081420898438e+00,1.085638880729675293e+00,1.085578560829162598e+00,1.085518121719360352e+00,1.085457801818847656e+00,1.085397481918334961e+00,1.085337281227111816e+00,1.085276961326599121e+00,1.085216641426086426e+00,1.085156321525573730e+00,1.085096120834350586e+00,1.085035920143127441e+00,1.084975600242614746e+00,1.084915280342102051e+00,1.084855079650878906e+00,1.084794878959655762e+00,1.084734678268432617e+00,1.084674358367919922e+00,1.084614157676696777e+00,1.084553956985473633e+00,1.084493756294250488e+00,1.084433555603027344e+00,1.084373354911804199e+00,1.084313154220581055e+00,1.084252953529357910e+00,1.084192752838134766e+00,1.084132671356201172e+00,1.084072470664978027e+00,1.084012269973754883e+00,1.083952188491821289e+00,1.083891987800598145e+00,1.083831906318664551e+00,1.083771824836730957e+00,1.083711624145507812e+00,1.083651542663574219e+00,1.083591461181640625e+00,1.083531379699707031e+00,1.083471298217773438e+00,1.083411097526550293e+00,1.083351016044616699e+00,1.083291053771972656e+00,1.083230972290039062e+00,1.083170890808105469e+00,1.083110809326171875e+00,1.083050727844238281e+00,1.082990765571594238e+00,1.082930684089660645e+00,1.082870721817016602e+00,1.082810640335083008e+00,1.082750558853149414e+00,1.082690715789794922e+00,1.082630634307861328e+00,1.082570672035217285e+00,1.082510590553283691e+00,1.082450628280639648e+00,1.082390666007995605e+00
1.021044850349426270e+00,1.020991444587707520e+00,1.020938038825988770e+00,1.020884752273559570e+00,1.020831346511840820e+00,1.020778059959411621e+00,1.020724654197692871e+00,1.020671367645263672e+00,1.020617961883544922e+00,1.020564675331115723e+00,1.020511388778686523e+00,1.020458102226257324e+00,1.020404815673828125e+00,1.020351529121398926e+00,1.020298242568969727e+00,1.020244956016540527e+00,1.020191669464111328e+00,1.020138382911682129e+00,1.020085096359252930e+00,1.020031809806823730e+00,1.019978642463684082e+00,1.019925355911254883e+00,1.019872069358825684e+00,1.019818782806396484e+00,1.019765615463256836e+00,1.019712448120117188e+00,1.019659161567687988e+00,1.019605994224548340e+00,1.019552707672119141e+00,1.019499540328979492e+00,1.019446372985839844e+00,1.019393086433410645e+00,1.019339919090270996e+00,1.019286751747131348e+00,1.019233584403991699e+00,1.019180417060852051e+00,1.019127249717712402e+00,1.019074082374572754e+00,1.019020915031433105e+00,1.018967747688293457e+00,1.018914699554443359e+00,1.018861532211303711e+00,1.018808364868164062e+00,1.018755197525024414e+00,1.018702149391174316e+00,1.018648982048034668e+00,1.018595933914184570e+00,1.018542766571044922e+00,1.018489599227905273e+00,1.018436551094055176e+00,1.018383502960205078e+00,1.018330454826354980e+00,1.018277287483215332e+00,1.018224239349365234e+00,1.018171191215515137e+00,1.018118143081665039e+00,1.018065094947814941e+00,1.018012046813964844e+00,1.017958879470825195e+00,1.017905950546264648e+00,1.017852902412414551e+00,1.017799854278564453e+00,1.017746806144714355e+00,1.017693758010864258e+00,1.017640829086303711e+00,1.017587780952453613e+00,1.017534732818603516e+00,1.017481803894042969e+00,1.017428874969482422e+00,1.017375826835632324e+00,1.017322897911071777e+00,1.017269849777221680e+00,1.017216920852661133e+00,1.017163991928100586e+00,1.017110943794250488e+00,1.017058014869689941e+00,1.017005085945129395e+00,1.016952157020568848e+00,1.016899228096008301e+00,1.016846299171447754e+00
9.625186920166015625e-01,9.624711871147155762e-01,9.624238014221191406e-01,9.623762965202331543e-01,9.623289704322814941e-01,9.622815847396850586e-01,9.622341394424438477e-01,9.621867537498474121e-01,9.621393084526062012e-01,9.620919823646545410e-01,9.620446562767028809e-01,9.619972109794616699e-01,9.619498848915100098e-01,9.619024395942687988e-01,9.618551731109619141e-01,9.618078470230102539e-01,9.617604017257690430e-01,9.617131352424621582e-01,9.616656899452209473e-01,9.616184234619140625e-01,9.615711569786071777e-01,9.615237116813659668e-01,9.614764451980590820e-01,9.614290595054626465e-01,9.613817930221557617e-01,9.613345265388488770e-01,9.612872004508972168e-01,9.612399339675903320e-01,9.611925482749938965e-01,9.611453413963317871e-01,9.610980749130249023e-01,9.610507488250732422e-01,9.610034823417663574e-01,9.609562754631042480e-01,9.609089493751525879e-01,9.608617424964904785e-01,9.608144164085388184e-01,9.607672095298767090e-01,9.607200026512145996e-01,9.606726765632629395e-01,9.606254696846008301e-01,9.605782032012939453e-01,9.605309963226318359e-01,9.604837894439697266e-01,9.604365229606628418e-01,9.603893756866455078e-01,9.603420495986938477e-01,9.602949023246765137e-01,9.602477550506591797e-01,9.602004885673522949e-01,9.601533412933349609e-01,9.601060748100280762e-01,9.600589275360107422e-01,9.600118398666381836e-01,9.599645733833312988e-01,9.599174261093139648e-01,9.598702192306518555e-01,9.598230719566345215e-01,9.597759842872619629e-01,9.597287774085998535e-01,9.596816897392272949e-01,9.596344828605651855e-01,9.595873951911926270e-01,9.595402479171752930e-01,9.594931006431579590e-01,9.594460129737854004e-01,9.593988060951232910e-01,9.593517780303955078e-01,9.593046903610229492e-01,9.592574834823608398e-01,9.592104554176330566e-01,9.591633081436157227e-01,9.591162204742431641e-01,9.590691924095153809e-01,9.590220451354980469e-01,9.589750170707702637e-01,9.589278697967529297e-01,9.588808417320251465e-01,9.588338136672973633e-01,9.587867259979248047e-01
9.103381037712097168e-01,9.102957248687744141e-01,9.102532267570495605e-01,9.102108478546142578e-01,9.101685285568237305e-01,9.101260304450988770e-01,9.100836515426635742e-01,9.100412130355834961e-01,9.099988937377929688e-01,9.099565148353576660e-01,9.099140763282775879e-01,9.098717570304870605e-01,9.098293185234069824e-01,9.097869992256164551e-01,9.097446203231811523e-01,9.097022414207458496e-01,9.096599221229553223e-01,9.096174836158752441e-01,9.095751643180847168e-01,9.095328450202941895e-01,9.094904661178588867e-01,9.094481468200683594e-01,9.094057679176330566e-01,9.093634486198425293e-01,9.093211889266967773e-01,9.092788100242614746e-01,9.092365503311157227e-01,9.091941714286804199e-01,9.091518521308898926e-01,9.091095924377441406e-01,9.090672135353088379e-01,9.090249538421630859e-01,9.089827537536621094e-01,9.089403748512268066e-01,9.088981151580810547e-01,9.088557958602905273e-01,9.088135361671447754e-01,9.087712764739990234e-01,9.087289571762084961e-01,9.086867570877075195e-01,9.086444377899169922e-01,9.086021780967712402e-01,9.085599780082702637e-01,9.085176587104797363e-01,9.084754586219787598e-01,9.084331393241882324e-01,9.083909392356872559e-01,9.083487391471862793e-01,9.083064794540405273e-01,9.082642793655395508e-01,9.082220196723937988e-01,9.081798195838928223e-01,9.081376194953918457e-01,9.080953598022460938e-01,9.080531597137451172e-01,9.080109000205993652e-01,9.079687595367431641e-01,9.079266190528869629e-01,9.078843593597412109e-01,9.078422188758850098e-01,9.077999591827392578e-01,9.077578186988830566e-01,9.077156782150268555e-01,9.076734185218811035e-01,9.076312780380249023e-01,9.075890779495239258e-01,9.075469374656677246e-01,9.075048565864562988e-01,9.074625968933105469e-01,9.074205160140991211e-01,9.073783159255981445e-01,9.073362350463867188e-01,9.072940945625305176e-01,9.072518944740295410e-01,9.072098135948181152e-01,9.071676135063171387e-01,9.071255326271057129e-01,9.070834517478942871e-01,9.070413112640380859e-01,9.069992303848266602e-01
8.635243773460388184e-01,8.634861111640930176e-01,8.634480237960815430e-01,8.634098768234252930e-01,8.633716702461242676e-01,8.633335232734680176e-01,8.632953166961669922e-01,8.632572293281555176e-01,8.632191419601440430e-01,8.631809353828430176e-01,8.631427884101867676e-01,8.631046414375305176e-01,8.630665540695190430e-01,8.630284667015075684e-01,8.629902601242065430e-01,8.629521727561950684e-01,8.629140257835388184e-01,8.628759384155273438e-01,8.628378510475158691e-01,8.627997040748596191e-01,8.627616167068481445e-01,8.627234697341918945e-01,8.626853823661804199e-01,8.626473546028137207e-01,8.626092076301574707e-01,8.625711798667907715e-01,8.625330328941345215e-01,8.624949455261230469e-01,8.624569177627563477e-01,8.624187707901000977e-01,8.623807430267333984e-01,8.623426556587219238e-01,8.623046278953552246e-01,8.622666001319885254e-01,8.622284531593322754e-01,8.621904850006103516e-01,8.621524572372436523e-01,8.621143698692321777e-01,8.620763421058654785e-01,8.620382547378540039e-01,8.620002269744873047e-01,8.619622588157653809e-01,8.619241714477539062e-01,8.618861436843872070e-01,8.618481159210205078e-01,8.618100881576538086e-01,8.617721199989318848e-01,8.617340326309204102e-01,8.616960644721984863e-01,8.616580367088317871e-01,8.616200685501098633e-01,8.615821003913879395e-01,8.615440726280212402e-01,8.615061044692993164e-01,8.614680171012878418e-01,8.614301085472106934e-01,8.613921403884887695e-01,8.613541126251220703e-01,8.613161444664001465e-01,8.612781167030334473e-01,8.612402081489562988e-01,8.612022995948791504e-01,8.611642718315124512e-01,8.611263632774353027e-01,8.610883355140686035e-01,8.610504269599914551e-01,8.610125184059143066e-01,8.609744906425476074e-01,8.609365820884704590e-01,8.608986139297485352e-01,8.608607053756713867e-01,8.608227968215942383e-01,8.607848286628723145e-01,8.607469201087951660e-01,8.607089519500732422e-01,8.606710433959960938e-01,8.606331944465637207e-01,8.605952262878417969e-01,8.605573177337646484e-01,8.605193495750427246e-01
8.212897777557373047e-01,8.212552666664123535e-01,8.212208151817321777e-01,8.211862444877624512e-01,8.211517333984375000e-01,8.211171627044677734e-01,8.210827112197875977e-01,8.210482597351074219e-01,8.210136890411376953e-01,8.209792375564575195e-01,8.209446668624877930e-01,8.209102153778076172e-01,8.208757638931274414e-01,8.208411931991577148e-01,8.208067417144775391e-01,8.207722306251525879e-01,8.207377791404724121e-01,8.207033276557922363e-01,8.206688165664672852e-01,8.206343650817871094e-01,8.205998539924621582e-01,8.205654025077819824e-01,8.205309510231018066e-01,8.204964399337768555e-01,8.204620480537414551e-01,8.204275369644165039e-01,8.203930854797363281e-01,8.203586935997009277e-01,8.203241825103759766e-01,8.202897906303405762e-01,8.202552795410156250e-01,8.202208876609802246e-01,8.201864957809448242e-01,8.201519846916198730e-01,8.201175928115844727e-01,8.200832009315490723e-01,8.200487494468688965e-01,8.200143575668334961e-01,8.199799060821533203e-01,8.199455142021179199e-01,8.199111223220825195e-01,8.198766708374023438e-01,8.198422789573669434e-01,8.198078274726867676e-01,8.197734355926513672e-01,8.197391033172607422e-01,8.197046518325805664e-01,8.196702599525451660e-01,8.196358680725097656e-01,8.196014761924743652e-01,8.195671439170837402e-01,8.195326924324035645e-01,8.194983601570129395e-01,8.194639682769775391e-01,8.194295763969421387e-01,8.193952441215515137e-01,8.193608522415161133e-01,8.193265199661254883e-01,8.192921280860900879e-01,8.192577958106994629e-01,8.192234635353088379e-01,8.191890716552734375e-01,8.191547393798828125e-01,8.191203474998474121e-01,8.190860152244567871e-01,8.190517425537109375e-01,8.190173506736755371e-01,8.189830183982849121e-01,8.189486265182495117e-01,8.189143538475036621e-01,8.188800811767578125e-01,8.188456892967224121e-01,8.188114166259765625e-01,8.187770247459411621e-01,8.187427520751953125e-01,8.187084794044494629e-01,8.186740875244140625e-01,8.186398148536682129e-01,8.186054825782775879e-01,8.185712099075317383e-01
7.829940319061279297e-01,7.829626798629760742e-01,7.829312682151794434e-01,7.828999161720275879e-01,7.828685045242309570e-01,7.828371524810791016e-01,7.828058004379272461e-01,7.827743887901306152e-01,7.827430367469787598e-01,7.827116847038269043e-01,7.826803326606750488e-01,7.826489806175231934e-01,7.826176285743713379e-01,7.825862765312194824e-01,7.825548648834228516e-01,7.825235724449157715e-01,7.824922800064086914e-01,7.824608683586120605e-01,7.824295759201049805e-01,7.823981642723083496e-01,7.823668718338012695e-01,7.823355793952941895e-01,7.823042273521423340e-01,7.822729349136352539e-01,7.822415232658386230e-01,7.822102308273315430e-01,7.821789383888244629e-01,7.821475863456726074e-01,7.821162939071655273e-01,7.820849418640136719e-01,7.820536494255065918e-01,7.820224165916442871e-01,7.819910645484924316e-01,7.819597721099853516e-01,7.819284200668334961e-01,7.818971872329711914e-01,7.818658947944641113e-01,7.818345427513122559e-01,7.818033099174499512e-01,7.817720770835876465e-01,7.817407250404357910e-01,7.817094922065734863e-01,7.816781401634216309e-01,7.816469073295593262e-01,7.816156744956970215e-01,7.815843224525451660e-01,7.815530896186828613e-01,7.815217971801757812e-01,7.814905643463134766e-01,7.814593315124511719e-01,7.814280390739440918e-01,7.813968062400817871e-01,7.813655138015747070e-01,7.813342809677124023e-01,7.813030481338500977e-01,7.812717556953430176e-01,7.812405228614807129e-01,7.812092900276184082e-01,7.811780571937561035e-01,7.811468243598937988e-01,7.811155915260314941e-01,7.810843586921691895e-01,7.810531258583068848e-01,7.810218930244445801e-01,7.809907197952270508e-01,7.809594273567199707e-01,7.809282541275024414e-01,7.808970212936401367e-01,7.808657884597778320e-01,7.808346152305603027e-01,7.808033823966979980e-01,7.807722091674804688e-01,7.807409763336181641e-01,7.807098031044006348e-01,7.806786298751831055e-01,7.806473374366760254e-01,7.806162238121032715e-01,7.805849909782409668e-01,7.805538177490234375e-01,7.805226445198059082e-01
