3.102556943893432617e+00,3.181360721588134766e+00,3.264271974563598633e+00,3.351620674133300781e+00,3.443772554397583008e+00,3.541135072708129883e+00,3.644162893295288086e+00,3.753355979919433594e+00,3.869294881820678711e+00,3.992624044418334961e+00,4.124073982238769531e+00,4.264474391937255859e+00,4.414771080017089844e+00,4.576049327850341797e+00,4.749557495117187500e+00,4.936741352081298828e+00,5.000000000000000000e+00,5.000000000000000000e+00,5.000000000000000000e+00,5.000000000000000000e+00,5.000000000000000000e+00,5.000000000000000000e+00,5.000000000000000000e+00,5.000000000000000000e+00,5.000000000000000000e+00,5.000000000000000000e+00,5.000000000000000000e+00,5.000000000000000000e+00,5.000000000000000000e+00,5.000000000000000000e+00,5.000000000000000000e+00,5.000000000000000000e+00,5.000000000000000000e+00,5.000000000000000000e+00,5.000000000000000000e+00,5.000000000000000000e+00,5.000000000000000000e+00,5.000000000000000000e+00,5.000000000000000000e+00,5.000000000000000000e+00,5.000000000000000000e+00,5.000000000000000000e+00,5.000000000000000000e+00,5.000000000000000000e+00,5.000000000000000000e+00,5.000000000000000000e+00,5.000000000000000000e+00,5.000000000000000000e+00,5.000000000000000000e+00,5.000000000000000000e+00,2.984841108322143555e+00,2.979894161224365234e+00,2.940932273864746094e+00,2.911825895309448242e+00,2.899413108825683594e+00,2.896343231201171875e+00,2.897164583206176758e+00,2.922202825546264648e+00,2.999695777893066406e+00,2.996258735656738281e+00,5.000000000000000000e+00,5.000000000000000000e+00,5.000000000000000000e+00,5.000000000000000000e+00,5.000000000000000000e+00,5.000000000000000000e+00,5.000000000000000000e+00,5.000000000000000000e+00,5.000000000000000000e+00,5.000000000000000000e+00,4.835498809814453125e+00,4.677627086639404297e+00,4.529738426208496094e+00,4.390914440155029297e+00,4.260346412658691406e+00,4.137317180633544922e+00,4.021191596984863281e+00,3.911406993865966797e+00,3.807457208633422852e+00,3.708889722824096680e+00
3.102490663528442383e+00,3.181291103363037109e+00,3.264198780059814453e+00,3.351543188095092773e+00,3.443690776824951172e+00,3.541048765182495117e+00,3.644071578979492188e+00,3.753268957138061523e+00,3.869202136993408203e+00,3.992525339126586914e+00,4.123969078063964844e+00,4.264361858367919922e+00,4.414650440216064453e+00,4.575919628143310547e+00,4.749417781829833984e+00,4.936590671539306641e+00,5.000000000000000000e+00,5.000000000000000000e+00,5.000000000000000000e+00,5.000000000000000000e+00,5.000000000000000000e+00,5.000000000000000000e+00,5.000000000000000000e+00,5.000000000000000000e+00,5.000000000000000000e+00,5.000000000000000000e+00,5.000000000000000000e+00,5.000000000000000000e+00,5.000000000000000000e+00,5.000000000000000000e+00,5.000000000000000000e+00,5.000000000000000000e+00,5.000000000000000000e+00,5.000000000000000000e+00,5.000000000000000000e+00,5.000000000000000000e+00,5.000000000000000000e+00,5.000000000000000000e+00,5.000000000000000000e+00,5.000000000000000000e+00,5.000000000000000000e+00,5.000000000000000000e+00,5.000000000000000000e+00,5.000000000000000000e+00,5.000000000000000000e+00,5.000000000000000000e+00,5.000000000000000000e+00,5.000000000000000000e+00,5.000000000000000000e+00,5.000000000000000000e+00,3.008971452713012695e+00,3.000857830047607422e+00,2.943697929382324219e+00,2.914413213729858398e+00,2.895681142807006836e+00,2.898925304412841797e+00,2.900805711746215820e+00,2.926238298416137695e+00,2.994486570358276367e+00,3.006183624267578125e+00,5.000000000000000000e+00,5.000000000000000000e+00,5.000000000000000000e+00,5.000000000000000000e+00,5.000000000000000000e+00,5.000000000000000000e+00,5.000000000000000000e+00,5.000000000000000000e+00,5.000000000000000000e+00,5.000000000000000000e+00,4.835640430450439453e+00,4.677759647369384766e+00,4.529862403869628906e+00,4.391025543212890625e+00,4.260446071624755859e+00,4.137407779693603516e+00,4.021277427673339844e+00,3.911487817764282227e+00,3.807534217834472656e+00,3.708962678909301758e+00
3.102424383163452148e+00,3.181221485137939453e+00,3.264125347137451172e+00,3.351465940475463867e+00,3.443609237670898438e+00,3.540962219238281250e+00,3.643980026245117188e+00,3.753171682357788086e+00,3.869109630584716797e+00,3.992426872253417969e+00,4.123863697052001953e+00,4.264249324798583984e+00,4.414529800415039062e+00,4.575789928436279297e+00,4.749278545379638672e+00,4.936439990997314453e+00,5.000000000000000000e+00,5.000000000000000000e+00,5.000000000000000000e+00,5.000000000000000000e+00,5.000000000000000000e+00,5.000000000000000000e+00,5.000000000000000000e+00,5.000000000000000000e+00,5.000000000000000000e+00,5.000000000000000000e+00,5.000000000000000000e+00,5.000000000000000000e+00,5.000000000000000000e+00,5.000000000000000000e+00,5.000000000000000000e+00,5.000000000000000000e+00,5.000000000000000000e+00,5.000000000000000000e+00,5.000000000000000000e+00,5.000000000000000000e+00,5.000000000000000000e+00,5.000000000000000000e+00,5.000000000000000000e+00,5.000000000000000000e+00,5.000000000000000000e+00,5.000000000000000000e+00,5.000000000000000000e+00,5.000000000000000000e+00,5.000000000000000000e+00,5.000000000000000000e+00,5.000000000000000000e+00,5.000000000000000000e+00,5.000000000000000000e+00,5.000000000000000000e+00,3.031871318817138672e+00,3.002647876739501953e+00,2.951350450515747070e+00,2.921274900436401367e+00,2.897293567657470703e+00,2.891532182693481445e+00,2.903126001358032227e+00,2.945601701736450195e+00,2.990595102310180664e+00,3.006867885589599609e+00,5.000000000000000000e+00,5.000000000000000000e+00,5.000000000000000000e+00,5.000000000000000000e+00,5.000000000000000000e+00,5.000000000000000000e+00,5.000000000000000000e+00,5.000000000000000000e+00,5.000000000000000000e+00,5.000000000000000000e+00,4.835777759552001953e+00,4.677882194519042969e+00,4.529971122741699219e+00,4.391127586364746094e+00,4.260541915893554688e+00,4.137498378753662109e+00,4.021362781524658203e+00,3.911568880081176758e+00,3.807610750198364258e+00,3.709035634994506836e+00
3.102358102798461914e+00,3.181151628494262695e+00,3.264051914215087891e+00,3.351388692855834961e+00,3.443527460098266602e+00,3.540875911712646484e+00,3.643888711929321289e+00,3.753074645996093750e+00,3.869006156921386719e+00,3.992328166961669922e+00,4.123758792877197266e+00,4.264136791229248047e+00,4.414409637451171875e+00,4.575660705566406250e+00,4.749138832092285156e+00,4.936289310455322266e+00,5.000000000000000000e+00,5.000000000000000000e+00,5.000000000000000000e+00,5.000000000000000000e+00,5.000000000000000000e+00,5.000000000000000000e+00,5.000000000000000000e+00,5.000000000000000000e+00,5.000000000000000000e+00,5.000000000000000000e+00,5.000000000000000000e+00,5.000000000000000000e+00,5.000000000000000000e+00,5.000000000000000000e+00,5.000000000000000000e+00,5.000000000000000000e+00,5.000000000000000000e+00,5.000000000000000000e+00,5.000000000000000000e+00,5.000000000000000000e+00,5.000000000000000000e+00,5.000000000000000000e+00,5.000000000000000000e+00,5.000000000000000000e+00,5.000000000000000000e+00,5.000000000000000000e+00,5.000000000000000000e+00,5.000000000000000000e+00,5.000000000000000000e+00,5.000000000000000000e+00,5.000000000000000000e+00,5.000000000000000000e+00,5.000000000000000000e+00,5.000000000000000000e+00,3.039629697799682617e+00,3.000978946685791016e+00,2.965016365051269531e+00,2.917809009552001953e+00,2.897318124771118164e+00,2.892462491989135742e+00,2.901522874832153320e+00,2.954991102218627930e+00,2.993222713470458984e+00,3.010478019714355469e+00,5.000000000000000000e+00,5.000000000000000000e+00,5.000000000000000000e+00,5.000000000000000000e+00,5.000000000000000000e+00,5.000000000000000000e+00,5.000000000000000000e+00,5.000000000000000000e+00,5.000000000000000000e+00,5.000000000000000000e+00,4.835901737213134766e+00,4.677998065948486328e+00,4.530080318450927734e+00,4.391229629516601562e+00,4.260638236999511719e+00,4.137588977813720703e+00,4.021448612213134766e+00,3.911650180816650391e+00,3.807687520980834961e+00,3.709108591079711914e+00
3.102291822433471680e+00,3.181082010269165039e+00,3.263978719711303711e+00,3.351311445236206055e+00,3.443445920944213867e+00,3.540789604187011719e+00,3.643797397613525391e+00,3.752977609634399414e+00,3.868903160095214844e+00,3.992218255996704102e+00,4.123653411865234375e+00,4.264024734497070312e+00,4.414288997650146484e+00,4.575531005859375000e+00,4.748999595642089844e+00,4.936138629913330078e+00,5.000000000000000000e+00,5.000000000000000000e+00,5.000000000000000000e+00,5.000000000000000000e+00,5.000000000000000000e+00,5.000000000000000000e+00,5.000000000000000000e+00,5.000000000000000000e+00,5.000000000000000000e+00,5.000000000000000000e+00,5.000000000000000000e+00,5.000000000000000000e+00,5.000000000000000000e+00,5.000000000000000000e+00,5.000000000000000000e+00,5.000000000000000000e+00,5.000000000000000000e+00,5.000000000000000000e+00,5.000000000000000000e+00,5.000000000000000000e+00,5.000000000000000000e+00,5.000000000000000000e+00,5.000000000000000000e+00,5.000000000000000000e+00,5.000000000000000000e+00,5.000000000000000000e+00,5.000000000000000000e+00,5.000000000000000000e+00,5.000000000000000000e+00,5.000000000000000000e+00,5.000000000000000000e+00,5.000000000000000000e+00,5.000000000000000000e+00,5.000000000000000000e+00,3.048636913299560547e+00,3.006855964660644531e+00,2.963258504867553711e+00,2.908927917480468750e+00,2.891887187957763672e+00,2.898583650588989258e+00,2.898838043212890625e+00,5.000000000000000000e+00,3.009730339050292969e+00,3.017547845840454102e+00,5.000000000000000000e+00,5.000000000000000000e+00,5.000000000000000000e+00,5.000000000000000000e+00,5.000000000000000000e+00,5.000000000000000000e+00,5.000000000000000000e+00,5.000000000000000000e+00,5.000000000000000000e+00,5.000000000000000000e+00,4.836025714874267578e+00,4.678113937377929688e+00,4.530188560485839844e+00,4.391331672668457031e+00,4.260734081268310547e+00,4.137680053710937500e+00,4.021534442901611328e+00,3.911731243133544922e+00,3.807764530181884766e+00,3.709181070327758789e+00
3.102225542068481445e+00,3.181012392044067383e+00,3.263905286788940430e+00,3.351233959197998047e+00,3.443364381790161133e+00,3.540703296661376953e+00,3.643705844879150391e+00,3.752880811691284180e+00,3.868800163269042969e+00,3.992108583450317383e+00,4.123536586761474609e+00,4.263912200927734375e+00,4.414168357849121094e+00,4.575401782989501953e+00,4.748859882354736328e+00,4.935987949371337891e+00,5.000000000000000000e+00,5.000000000000000000e+00,5.000000000000000000e+00,5.000000000000000000e+00,5.000000000000000000e+00,5.000000000000000000e+00,5.000000000000000000e+00,5.000000000000000000e+00,5.000000000000000000e+00,5.000000000000000000e+00,5.000000000000000000e+00,5.000000000000000000e+00,5.000000000000000000e+00,5.000000000000000000e+00,5.000000000000000000e+00,5.000000000000000000e+00,5.000000000000000000e+00,5.000000000000000000e+00,5.000000000000000000e+00,5.000000000000000000e+00,5.000000000000000000e+00,5.000000000000000000e+00,5.000000000000000000e+00,5.000000000000000000e+00,5.000000000000000000e+00,5.000000000000000000e+00,5.000000000000000000e+00,5.000000000000000000e+00,5.000000000000000000e+00,5.000000000000000000e+00,5.000000000000000000e+00,5.000000000000000000e+00,5.000000000000000000e+00,5.000000000000000000e+00,3.061414241790771484e+00,3.023011207580566406e+00,2.949882984161376953e+00,2.899546146392822266e+00,2.885013103485107422e+00,2.885141611099243164e+00,2.890946865081787109e+00,2.945797204971313477e+00,3.021003246307373047e+00,3.002616405487060547e+00,5.000000000000000000e+00,5.000000000000000000e+00,5.000000000000000000e+00,5.000000000000000000e+00,5.000000000000000000e+00,5.000000000000000000e+00,5.000000000000000000e+00,5.000000000000000000e+00,5.000000000000000000e+00,5.000000000000000000e+00,4.836149215698242188e+00,4.678229808807373047e+00,4.530297756195068359e+00,4.391434192657470703e+00,4.260830402374267578e+00,4.137770652770996094e+00,4.021619796752929688e+00,3.911812067031860352e+00,3.807841539382934570e+00,3.709254264831542969e+00
3.102159738540649414e+00,3.180943012237548828e+00,3.263832330703735352e+00,3.351156949996948242e+00,3.443282604217529297e+00,3.540616989135742188e+00,3.643614530563354492e+00,3.752783775329589844e+00,3.868697166442871094e+00,3.991998910903930664e+00,4.123419284820556641e+00,4.263787269592285156e+00,4.414048194885253906e+00,4.575272083282470703e+00,4.748720645904541016e+00,4.935837268829345703e+00,5.000000000000000000e+00,5.000000000000000000e+00,5.000000000000000000e+00,5.000000000000000000e+00,5.000000000000000000e+00,5.000000000000000000e+00,5.000000000000000000e+00,5.000000000000000000e+00,5.000000000000000000e+00,5.000000000000000000e+00,5.000000000000000000e+00,5.000000000000000000e+00,5.000000000000000000e+00,5.000000000000000000e+00,5.000000000000000000e+00,5.000000000000000000e+00,5.000000000000000000e+00,5.000000000000000000e+00,5.000000000000000000e+00,5.000000000000000000e+00,5.000000000000000000e+00,5.000000000000000000e+00,5.000000000000000000e+00,5.000000000000000000e+00,5.000000000000000000e+00,5.000000000000000000e+00,5.000000000000000000e+00,5.000000000000000000e+00,5.000000000000000000e+00,5.000000000000000000e+00,5.000000000000000000e+00,5.000000000000000000e+00,5.000000000000000000e+00,5.000000000000000000e+00,3.066428899765014648e+00,3.025525093078613281e+00,2.940967082977294922e+00,2.911332130432128906e+00,2.897232532501220703e+00,2.890720844268798828e+00,2.904972076416015625e+00,2.950647115707397461e+00,3.005089759826660156e+00,2.981394052505493164e+00,5.000000000000000000e+00,5.000000000000000000e+00,5.000000000000000000e+00,5.000000000000000000e+00,5.000000000000000000e+00,5.000000000000000000e+00,5.000000000000000000e+00,5.000000000000000000e+00,5.000000000000000000e+00,5.000000000000000000e+00,4.836273193359375000e+00,4.678345680236816406e+00,4.530405998229980469e+00,4.391536235809326172e+00,4.260926723480224609e+00,4.137861251831054688e+00,4.021705627441406250e+00,3.911893129348754883e+00,3.807917833328247070e+00,3.709327220916748047e+00
3.102093458175659180e+00,3.180873394012451172e+00,3.263758897781372070e+00,3.351079702377319336e+00,3.443201541900634766e+00,3.540531158447265625e+00,3.643523454666137695e+00,3.752687215805053711e+00,3.868594408035278320e+00,3.991889238357543945e+00,4.123302459716796875e+00,4.263662338256835938e+00,4.413914680480957031e+00,4.575142860412597656e+00,4.748580932617187500e+00,4.935686588287353516e+00,5.000000000000000000e+00,5.000000000000000000e+00,5.000000000000000000e+00,5.000000000000000000e+00,5.000000000000000000e+00,5.000000000000000000e+00,5.000000000000000000e+00,5.000000000000000000e+00,5.000000000000000000e+00,5.000000000000000000e+00,5.000000000000000000e+00,5.000000000000000000e+00,5.000000000000000000e+00,5.000000000000000000e+00,5.000000000000000000e+00,5.000000000000000000e+00,5.000000000000000000e+00,5.000000000000000000e+00,5.000000000000000000e+00,5.000000000000000000e+00,5.000000000000000000e+00,5.000000000000000000e+00,5.000000000000000000e+00,5.000000000000000000e+00,5.000000000000000000e+00,5.000000000000000000e+00,5.000000000000000000e+00,5.000000000000000000e+00,5.000000000000000000e+00,5.000000000000000000e+00,5.000000000000000000e+00,5.000000000000000000e+00,5.000000000000000000e+00,5.000000000000000000e+00,3.044234752655029297e+00,3.006264448165893555e+00,2.932564496994018555e+00,2.908726453781127930e+00,2.913932800292968750e+00,2.910543203353881836e+00,2.918601512908935547e+00,2.942094087600708008e+00,3.005029201507568359e+00,2.958271265029907227e+00,5.000000000000000000e+00,5.000000000000000000e+00,5.000000000000000000e+00,5.000000000000000000e+00,5.000000000000000000e+00,5.000000000000000000e+00,5.000000000000000000e+00,5.000000000000000000e+00,5.000000000000000000e+00,5.000000000000000000e+00,4.836397171020507812e+00,4.678461551666259766e+00,4.530515193939208984e+00,4.391638278961181641e+00,4.261023044586181641e+00,4.137951850891113281e+00,4.021791458129882812e+00,3.911974430084228516e+00,3.807994842529296875e+00,3.709400177001953125e+00
3.102027177810668945e+00,3.180803775787353516e+00,3.263685703277587891e+00,3.351002454757690430e+00,3.443119764328002930e+00,3.540444850921630859e+00,3.643432140350341797e+00,3.752590417861938477e+00,3.868491411209106445e+00,3.991780042648315430e+00,4.123185634613037109e+00,4.263537406921386719e+00,4.413780689239501953e+00,4.574999332427978516e+00,4.748441696166992188e+00,4.935536384582519531e+00,5.000000000000000000e+00,5.000000000000000000e+00,5.000000000000000000e+00,5.000000000000000000e+00,5.000000000000000000e+00,5.000000000000000000e+00,5.000000000000000000e+00,5.000000000000000000e+00,5.000000000000000000e+00,5.000000000000000000e+00,5.000000000000000000e+00,5.000000000000000000e+00,5.000000000000000000e+00,5.000000000000000000e+00,5.000000000000000000e+00,5.000000000000000000e+00,5.000000000000000000e+00,5.000000000000000000e+00,5.000000000000000000e+00,5.000000000000000000e+00,5.000000000000000000e+00,5.000000000000000000e+00,5.000000000000000000e+00,5.000000000000000000e+00,5.000000000000000000e+00,5.000000000000000000e+00,5.000000000000000000e+00,5.000000000000000000e+00,5.000000000000000000e+00,5.000000000000000000e+00,5.000000000000000000e+00,5.000000000000000000e+00,5.000000000000000000e+00,5.000000000000000000e+00,3.032904624938964844e+00,2.994581460952758789e+00,2.914424180984497070e+00,2.894394874572753906e+00,2.918973684310913086e+00,2.928393602371215820e+00,2.899716377258300781e+00,2.898920297622680664e+00,5.000000000000000000e+00,2.943404674530029297e+00,5.000000000000000000e+00,5.000000000000000000e+00,5.000000000000000000e+00,5.000000000000000000e+00,5.000000000000000000e+00,5.000000000000000000e+00,5.000000000000000000e+00,5.000000000000000000e+00,5.000000000000000000e+00,5.000000000000000000e+00,4.836521148681640625e+00,4.678577899932861328e+00,4.530623435974121094e+00,4.391740322113037109e+00,4.261118888854980469e+00,4.138042926788330078e+00,4.021876811981201172e+00,3.912055492401123047e+00,3.808071851730346680e+00,3.709472656250000000e+00
3.102011442184448242e+00,3.180757045745849609e+00,3.263612270355224609e+00,3.350925207138061523e+00,3.443038225173950195e+00,3.540358543395996094e+00,3.643340826034545898e+00,3.752493381500244141e+00,3.868388414382934570e+00,3.991670370101928711e+00,4.123068332672119141e+00,4.263411998748779297e+00,4.413646697998046875e+00,4.574855804443359375e+00,4.748287677764892578e+00,4.935385704040527344e+00,5.000000000000000000e+00,5.000000000000000000e+00,5.000000000000000000e+00,5.000000000000000000e+00,5.000000000000000000e+00,5.000000000000000000e+00,5.000000000000000000e+00,5.000000000000000000e+00,5.000000000000000000e+00,5.000000000000000000e+00,5.000000000000000000e+00,5.000000000000000000e+00,5.000000000000000000e+00,5.000000000000000000e+00,5.000000000000000000e+00,5.000000000000000000e+00,5.000000000000000000e+00,5.000000000000000000e+00,5.000000000000000000e+00,5.000000000000000000e+00,5.000000000000000000e+00,5.000000000000000000e+00,5.000000000000000000e+00,5.000000000000000000e+00,5.000000000000000000e+00,5.000000000000000000e+00,5.000000000000000000e+00,5.000000000000000000e+00,5.000000000000000000e+00,5.000000000000000000e+00,5.000000000000000000e+00,5.000000000000000000e+00,5.000000000000000000e+00,5.000000000000000000e+00,3.015110731124877930e+00,2.983482360839843750e+00,2.904626846313476562e+00,2.882503747940063477e+00,2.886360406875610352e+00,2.912863969802856445e+00,2.875720739364624023e+00,2.869071483612060547e+00,5.000000000000000000e+00,2.918150901794433594e+00,5.000000000000000000e+00,5.000000000000000000e+00,5.000000000000000000e+00,5.000000000000000000e+00,5.000000000000000000e+00,5.000000000000000000e+00,5.000000000000000000e+00,5.000000000000000000e+00,5.000000000000000000e+00,5.000000000000000000e+00,4.836645126342773438e+00,4.678693294525146484e+00,4.530732631683349609e+00,4.391842842102050781e+00,4.261215209960937500e+00,4.138133525848388672e+00,4.021962642669677734e+00,3.912136316299438477e+00,3.808148622512817383e+00,3.709545612335205078e+00
3.102010726928710938e+00,3.180756330490112305e+00,3.263604164123535156e+00,3.350883007049560547e+00,3.442958354949951172e+00,3.540272235870361328e+00,3.643249273300170898e+00,3.752396345138549805e+00,3.868285417556762695e+00,3.991560697555541992e+00,4.122951507568359375e+00,4.263287067413330078e+00,4.413512229919433594e+00,4.574711322784423828e+00,4.748132705688476562e+00,4.935219764709472656e+00,5.000000000000000000e+00,5.000000000000000000e+00,5.000000000000000000e+00,5.000000000000000000e+00,5.000000000000000000e+00,5.000000000000000000e+00,5.000000000000000000e+00,5.000000000000000000e+00,5.000000000000000000e+00,5.000000000000000000e+00,5.000000000000000000e+00,5.000000000000000000e+00,5.000000000000000000e+00,5.000000000000000000e+00,5.000000000000000000e+00,5.000000000000000000e+00,5.000000000000000000e+00,5.000000000000000000e+00,5.000000000000000000e+00,5.000000000000000000e+00,5.000000000000000000e+00,5.000000000000000000e+00,5.000000000000000000e+00,5.000000000000000000e+00,5.000000000000000000e+00,5.000000000000000000e+00,5.000000000000000000e+00,5.000000000000000000e+00,5.000000000000000000e+00,5.000000000000000000e+00,5.000000000000000000e+00,5.000000000000000000e+00,5.000000000000000000e+00,5.000000000000000000e+00,3.015203714370727539e+00,5.000000000000000000e+00,2.902695178985595703e+00,2.880105257034301758e+00,2.878737211227416992e+00,2.915229082107543945e+00,2.868135452270507812e+00,2.853263378143310547e+00,2.897715806961059570e+00,2.888843536376953125e+00,2.890108108520507812e+00,5.000000000000000000e+00,5.000000000000000000e+00,5.000000000000000000e+00,5.000000000000000000e+00,5.000000000000000000e+00,5.000000000000000000e+00,5.000000000000000000e+00,5.000000000000000000e+00,5.000000000000000000e+00,4.836769104003906250e+00,4.678809642791748047e+00,4.530841350555419922e+00,4.391944885253906250e+00,4.261311531066894531e+00,4.138224124908447266e+00,4.022048473358154297e+00,3.912217378616333008e+00,3.808225154876708984e+00,3.709618806838989258e+00
3.101996183395385742e+00,3.180755853652954102e+00,3.263603448867797852e+00,3.350882291793823242e+00,3.442957639694213867e+00,3.540235996246337891e+00,3.643171548843383789e+00,3.752299547195434570e+00,3.868182420730590820e+00,3.991451025009155273e+00,4.122834205627441406e+00,4.263161659240722656e+00,4.413378238677978516e+00,4.574567317962646484e+00,4.747977256774902344e+00,4.935051918029785156e+00,5.000000000000000000e+00,5.000000000000000000e+00,5.000000000000000000e+00,5.000000000000000000e+00,5.000000000000000000e+00,5.000000000000000000e+00,5.000000000000000000e+00,5.000000000000000000e+00,5.000000000000000000e+00,5.000000000000000000e+00,5.000000000000000000e+00,5.000000000000000000e+00,5.000000000000000000e+00,5.000000000000000000e+00,5.000000000000000000e+00,5.000000000000000000e+00,5.000000000000000000e+00,5.000000000000000000e+00,5.000000000000000000e+00,5.000000000000000000e+00,5.000000000000000000e+00,5.000000000000000000e+00,5.000000000000000000e+00,5.000000000000000000e+00,5.000000000000000000e+00,5.000000000000000000e+00,5.000000000000000000e+00,5.000000000000000000e+00,5.000000000000000000e+00,5.000000000000000000e+00,5.000000000000000000e+00,5.000000000000000000e+00,5.000000000000000000e+00,5.000000000000000000e+00,2.989029645919799805e+00,2.950420618057250977e+00,2.915027379989624023e+00,2.879330873489379883e+00,2.875216007232666016e+00,2.917635679244995117e+00,2.860901355743408203e+00,2.842376947402954102e+00,2.885766506195068359e+00,5.000000000000000000e+00,2.856067419052124023e+00,5.000000000000000000e+00,5.000000000000000000e+00,5.000000000000000000e+00,5.000000000000000000e+00,5.000000000000000000e+00,5.000000000000000000e+00,5.000000000000000000e+00,5.000000000000000000e+00,5.000000000000000000e+00,4.836893081665039062e+00,4.678925514221191406e+00,4.530950069427490234e+00,4.392046928405761719e+00,4.261407852172851562e+00,4.138314723968505859e+00,4.022133827209472656e+00,3.912298679351806641e+00,3.808302164077758789e+00,3.709691762924194336e+00
3.101929903030395508e+00,3.180701732635498047e+00,3.263578414916992188e+00,3.350881576538085938e+00,3.442956924438476562e+00,3.540235280990600586e+00,3.643170595169067383e+00,3.752270936965942383e+00,3.868107557296752930e+00,3.991341352462768555e+00,4.122717857360839844e+00,4.263037204742431641e+00,4.413244724273681641e+00,4.574423313140869141e+00,4.747822284698486328e+00,4.934884548187255859e+00,5.000000000000000000e+00,5.000000000000000000e+00,5.000000000000000000e+00,5.000000000000000000e+00,5.000000000000000000e+00,5.000000000000000000e+00,5.000000000000000000e+00,5.000000000000000000e+00,5.000000000000000000e+00,5.000000000000000000e+00,5.000000000000000000e+00,5.000000000000000000e+00,5.000000000000000000e+00,5.000000000000000000e+00,5.000000000000000000e+00,5.000000000000000000e+00,5.000000000000000000e+00,5.000000000000000000e+00,5.000000000000000000e+00,5.000000000000000000e+00,5.000000000000000000e+00,5.000000000000000000e+00,5.000000000000000000e+00,5.000000000000000000e+00,5.000000000000000000e+00,5.000000000000000000e+00,5.000000000000000000e+00,5.000000000000000000e+00,5.000000000000000000e+00,5.000000000000000000e+00,5.000000000000000000e+00,5.000000000000000000e+00,5.000000000000000000e+00,5.000000000000000000e+00,2.967746973037719727e+00,5.000000000000000000e+00,2.938909530639648438e+00,2.879779815673828125e+00,2.869655370712280273e+00,2.919693946838378906e+00,2.852674961090087891e+00,2.836592674255371094e+00,2.872592449188232422e+00,5.000000000000000000e+00,5.000000000000000000e+00,5.000000000000000000e+00,5.000000000000000000e+00,5.000000000000000000e+00,5.000000000000000000e+00,5.000000000000000000e+00,5.000000000000000000e+00,5.000000000000000000e+00,5.000000000000000000e+00,5.000000000000000000e+00,4.837017059326171875e+00,4.679041385650634766e+00,4.531058311462402344e+00,4.392148971557617188e+00,4.261503696441650391e+00,4.138405799865722656e+00,4.022219657897949219e+00,3.912379741668701172e+00,3.808379173278808594e+00,3.709764242172241211e+00
3.101863622665405273e+00,3.180632114410400391e+00,3.263504981994628906e+00,3.350812435150146484e+00,3.442919254302978516e+00,3.540232658386230469e+00,3.643169879913330078e+00,3.752270221710205078e+00,3.868106603622436523e+00,3.991322755813598633e+00,4.122647285461425781e+00,4.262911796569824219e+00,4.413110256195068359e+00,4.574279785156250000e+00,4.747667312622070312e+00,4.934717178344726562e+00,5.000000000000000000e+00,5.000000000000000000e+00,5.000000000000000000e+00,5.000000000000000000e+00,5.000000000000000000e+00,5.000000000000000000e+00,5.000000000000000000e+00,5.000000000000000000e+00,5.000000000000000000e+00,5.000000000000000000e+00,5.000000000000000000e+00,5.000000000000000000e+00,5.000000000000000000e+00,5.000000000000000000e+00,5.000000000000000000e+00,5.000000000000000000e+00,5.000000000000000000e+00,5.000000000000000000e+00,5.000000000000000000e+00,5.000000000000000000e+00,5.000000000000000000e+00,5.000000000000000000e+00,5.000000000000000000e+00,5.000000000000000000e+00,5.000000000000000000e+00,5.000000000000000000e+00,5.000000000000000000e+00,5.000000000000000000e+00,5.000000000000000000e+00,5.000000000000000000e+00,5.000000000000000000e+00,5.000000000000000000e+00,5.000000000000000000e+00,5.000000000000000000e+00,2.951873302459716797e+00,5.000000000000000000e+00,2.984409093856811523e+00,2.875224113464355469e+00,2.863870620727539062e+00,2.941815376281738281e+00,2.844938278198242188e+00,2.831345796585083008e+00,2.860115051269531250e+00,5.000000000000000000e+00,5.000000000000000000e+00,5.000000000000000000e+00,5.000000000000000000e+00,5.000000000000000000e+00,5.000000000000000000e+00,5.000000000000000000e+00,5.000000000000000000e+00,5.000000000000000000e+00,5.000000000000000000e+00,5.000000000000000000e+00,4.837140560150146484e+00,4.679157257080078125e+00,4.531167507171630859e+00,4.392251491546630859e+00,4.261600017547607422e+00,4.138496398925781250e+00,4.022305488586425781e+00,3.912460565567016602e+00,3.808455944061279297e+00,3.709837198257446289e+00
3.101797819137573242e+00,3.180562496185302734e+00,3.263431787490844727e+00,3.350734949111938477e+00,3.442837476730346680e+00,3.540146827697753906e+00,3.643116474151611328e+00,3.752255439758300781e+00,3.868105649948120117e+00,3.991321802139282227e+00,4.122646331787109375e+00,4.262906551361083984e+00,4.413046836853027344e+00,4.574148654937744141e+00,4.747511863708496094e+00,4.934549331665039062e+00,5.000000000000000000e+00,5.000000000000000000e+00,5.000000000000000000e+00,5.000000000000000000e+00,5.000000000000000000e+00,5.000000000000000000e+00,5.000000000000000000e+00,5.000000000000000000e+00,5.000000000000000000e+00,5.000000000000000000e+00,5.000000000000000000e+00,5.000000000000000000e+00,5.000000000000000000e+00,5.000000000000000000e+00,5.000000000000000000e+00,5.000000000000000000e+00,5.000000000000000000e+00,5.000000000000000000e+00,5.000000000000000000e+00,5.000000000000000000e+00,5.000000000000000000e+00,5.000000000000000000e+00,5.000000000000000000e+00,5.000000000000000000e+00,5.000000000000000000e+00,5.000000000000000000e+00,5.000000000000000000e+00,5.000000000000000000e+00,5.000000000000000000e+00,5.000000000000000000e+00,5.000000000000000000e+00,5.000000000000000000e+00,5.000000000000000000e+00,5.000000000000000000e+00,5.000000000000000000e+00,5.000000000000000000e+00,5.000000000000000000e+00,2.879346609115600586e+00,2.857465505599975586e+00,5.000000000000000000e+00,2.845024585723876953e+00,2.823663234710693359e+00,2.847745418548583984e+00,5.000000000000000000e+00,5.000000000000000000e+00,5.000000000000000000e+00,5.000000000000000000e+00,5.000000000000000000e+00,5.000000000000000000e+00,5.000000000000000000e+00,5.000000000000000000e+00,5.000000000000000000e+00,5.000000000000000000e+00,5.000000000000000000e+00,4.837265014648437500e+00,4.679273605346679688e+00,4.531275749206542969e+00,4.392353534698486328e+00,4.261696338653564453e+00,4.138586997985839844e+00,4.022391319274902344e+00,3.912541866302490234e+00,3.808534622192382812e+00,3.709916114807128906e+00
3.101731538772583008e+00,3.180492877960205078e+00,3.263358831405639648e+00,3.350657701492309570e+00,3.442755937576293945e+00,3.540060520172119141e+00,3.643025159835815430e+00,3.752158880233764648e+00,3.868032932281494141e+00,3.991291999816894531e+00,4.122645378112792969e+00,4.262905597686767578e+00,4.413045406341552734e+00,4.574147224426269531e+00,4.747457504272460938e+00,4.934418678283691406e+00,5.000000000000000000e+00,5.000000000000000000e+00,5.000000000000000000e+00,5.000000000000000000e+00,5.000000000000000000e+00,5.000000000000000000e+00,5.000000000000000000e+00,5.000000000000000000e+00,5.000000000000000000e+00,5.000000000000000000e+00,5.000000000000000000e+00,5.000000000000000000e+00,5.000000000000000000e+00,5.000000000000000000e+00,5.000000000000000000e+00,5.000000000000000000e+00,5.000000000000000000e+00,5.000000000000000000e+00,5.000000000000000000e+00,5.000000000000000000e+00,5.000000000000000000e+00,5.000000000000000000e+00,5.000000000000000000e+00,5.000000000000000000e+00,5.000000000000000000e+00,5.000000000000000000e+00,5.000000000000000000e+00,5.000000000000000000e+00,5.000000000000000000e+00,5.000000000000000000e+00,5.000000000000000000e+00,5.000000000000000000e+00,5.000000000000000000e+00,5.000000000000000000e+00,5.000000000000000000e+00,5.000000000000000000e+00,5.000000000000000000e+00,2.896070003509521484e+00,2.853693962097167969e+00,5.000000000000000000e+00,2.847256422042846680e+00,2.822701930999755859e+00,5.000000000000000000e+00,5.000000000000000000e+00,5.000000000000000000e+00,5.000000000000000000e+00,5.000000000000000000e+00,5.000000000000000000e+00,5.000000000000000000e+00,5.000000000000000000e+00,5.000000000000000000e+00,5.000000000000000000e+00,5.000000000000000000e+00,5.000000000000000000e+00,4.837388515472412109e+00,4.679389476776123047e+00,4.531384944915771484e+00,4.392456054687500000e+00,4.261792659759521484e+00,4.138677597045898438e+00,4.022481441497802734e+00,3.912631511688232422e+00,3.808622121810913086e+00,3.709998846054077148e+00
3.101665258407592773e+00,3.180423259735107422e+00,3.263285398483276367e+00,3.350580453872680664e+00,3.442674398422241211e+00,3.539974212646484375e+00,3.642933607101440430e+00,3.752062082290649414e+00,3.867929935455322266e+00,3.991182804107666016e+00,4.122548103332519531e+00,4.262856006622314453e+00,4.413044452667236328e+00,4.574146270751953125e+00,4.747456550598144531e+00,4.934416770935058594e+00,5.000000000000000000e+00,5.000000000000000000e+00,5.000000000000000000e+00,5.000000000000000000e+00,5.000000000000000000e+00,5.000000000000000000e+00,5.000000000000000000e+00,5.000000000000000000e+00,5.000000000000000000e+00,5.000000000000000000e+00,5.000000000000000000e+00,5.000000000000000000e+00,5.000000000000000000e+00,5.000000000000000000e+00,5.000000000000000000e+00,5.000000000000000000e+00,5.000000000000000000e+00,5.000000000000000000e+00,5.000000000000000000e+00,5.000000000000000000e+00,5.000000000000000000e+00,5.000000000000000000e+00,5.000000000000000000e+00,5.000000000000000000e+00,5.000000000000000000e+00,5.000000000000000000e+00,5.000000000000000000e+00,5.000000000000000000e+00,5.000000000000000000e+00,5.000000000000000000e+00,5.000000000000000000e+00,5.000000000000000000e+00,5.000000000000000000e+00,5.000000000000000000e+00,5.000000000000000000e+00,5.000000000000000000e+00,5.000000000000000000e+00,2.909728050231933594e+00,2.876382112503051758e+00,5.000000000000000000e+00,2.870638608932495117e+00,2.840852022171020508e+00,5.000000000000000000e+00,5.000000000000000000e+00,5.000000000000000000e+00,5.000000000000000000e+00,5.000000000000000000e+00,5.000000000000000000e+00,5.000000000000000000e+00,5.000000000000000000e+00,5.000000000000000000e+00,5.000000000000000000e+00,5.000000000000000000e+00,5.000000000000000000e+00,4.837512969970703125e+00,4.679505348205566406e+00,4.531493663787841797e+00,4.392560958862304688e+00,4.261896610260009766e+00,4.138781070709228516e+00,4.022579193115234375e+00,3.912723779678344727e+00,3.808709383010864258e+00,3.710082292556762695e+00
3.101598978042602539e+00,3.180353641510009766e+00,3.263212203979492188e+00,3.350503206253051758e+00,3.442593097686767578e+00,3.539887905120849609e+00,3.642842292785644531e+00,3.751965045928955078e+00,3.867826938629150391e+00,3.991073131561279297e+00,4.122431278228759766e+00,4.262731075286865234e+00,4.412916660308837891e+00,4.574071884155273438e+00,4.747443675994873047e+00,4.934415340423583984e+00,5.000000000000000000e+00,5.000000000000000000e+00,5.000000000000000000e+00,5.000000000000000000e+00,5.000000000000000000e+00,5.000000000000000000e+00,5.000000000000000000e+00,5.000000000000000000e+00,5.000000000000000000e+00,5.000000000000000000e+00,5.000000000000000000e+00,5.000000000000000000e+00,5.000000000000000000e+00,5.000000000000000000e+00,5.000000000000000000e+00,5.000000000000000000e+00,5.000000000000000000e+00,5.000000000000000000e+00,5.000000000000000000e+00,5.000000000000000000e+00,5.000000000000000000e+00,5.000000000000000000e+00,5.000000000000000000e+00,5.000000000000000000e+00,5.000000000000000000e+00,5.000000000000000000e+00,5.000000000000000000e+00,5.000000000000000000e+00,5.000000000000000000e+00,5.000000000000000000e+00,5.000000000000000000e+00,5.000000000000000000e+00,5.000000000000000000e+00,5.000000000000000000e+00,5.000000000000000000e+00,5.000000000000000000e+00,5.000000000000000000e+00,2.927769660949707031e+00,2.903373003005981445e+00,3.008328914642333984e+00,2.936729669570922852e+00,2.934206724166870117e+00,5.000000000000000000e+00,5.000000000000000000e+00,5.000000000000000000e+00,5.000000000000000000e+00,5.000000000000000000e+00,5.000000000000000000e+00,5.000000000000000000e+00,5.000000000000000000e+00,5.000000000000000000e+00,5.000000000000000000e+00,5.000000000000000000e+00,5.000000000000000000e+00,4.837636947631835938e+00,4.679627895355224609e+00,4.531614303588867188e+00,4.392677307128906250e+00,4.262005805969238281e+00,4.138884067535400391e+00,4.022676467895507812e+00,3.912816286087036133e+00,3.808797121047973633e+00,3.710165023803710938e+00
3.101532936096191406e+00,3.180284261703491211e+00,3.263138771057128906e+00,3.350425958633422852e+00,3.442511558532714844e+00,3.539801597595214844e+00,3.642751455307006836e+00,3.751868247985839844e+00,3.867723941802978516e+00,3.990963459014892578e+00,4.122314453125000000e+00,4.262606143951416016e+00,4.412783145904541016e+00,4.573927879333496094e+00,4.747288703918457031e+00,4.934308528900146484e+00,5.000000000000000000e+00,5.000000000000000000e+00,5.000000000000000000e+00,5.000000000000000000e+00,5.000000000000000000e+00,5.000000000000000000e+00,5.000000000000000000e+00,5.000000000000000000e+00,5.000000000000000000e+00,5.000000000000000000e+00,5.000000000000000000e+00,5.000000000000000000e+00,5.000000000000000000e+00,5.000000000000000000e+00,5.000000000000000000e+00,5.000000000000000000e+00,5.000000000000000000e+00,5.000000000000000000e+00,5.000000000000000000e+00,5.000000000000000000e+00,5.000000000000000000e+00,5.000000000000000000e+00,5.000000000000000000e+00,5.000000000000000000e+00,5.000000000000000000e+00,5.000000000000000000e+00,5.000000000000000000e+00,5.000000000000000000e+00,5.000000000000000000e+00,5.000000000000000000e+00,5.000000000000000000e+00,5.000000000000000000e+00,5.000000000000000000e+00,5.000000000000000000e+00,5.000000000000000000e+00,5.000000000000000000e+00,5.000000000000000000e+00,2.945380210876464844e+00,2.924762010574340820e+00,3.033895254135131836e+00,2.990476131439208984e+00,5.000000000000000000e+00,5.000000000000000000e+00,5.000000000000000000e+00,5.000000000000000000e+00,5.000000000000000000e+00,5.000000000000000000e+00,5.000000000000000000e+00,5.000000000000000000e+00,5.000000000000000000e+00,5.000000000000000000e+00,5.000000000000000000e+00,5.000000000000000000e+00,5.000000000000000000e+00,4.837778091430664062e+00,4.679759979248046875e+00,4.531738281250000000e+00,4.392793655395507812e+00,4.262115478515625000e+00,4.138987541198730469e+00,4.022774219512939453e+00,3.912908554077148438e+00,3.808884382247924805e+00,3.710247993469238281e+00
3.101466655731201172e+00,3.180214643478393555e+00,3.263065576553344727e+00,3.350348949432373047e+00,3.442430019378662109e+00,3.539715528488159180e+00,3.642660140991210938e+00,3.751771211624145508e+00,3.867621421813964844e+00,3.990853786468505859e+00,4.122197628021240234e+00,4.262481212615966797e+00,4.412649154663085938e+00,4.573784351348876953e+00,4.747133731842041016e+00,4.934140682220458984e+00,5.000000000000000000e+00,5.000000000000000000e+00,5.000000000000000000e+00,5.000000000000000000e+00,5.000000000000000000e+00,5.000000000000000000e+00,5.000000000000000000e+00,5.000000000000000000e+00,5.000000000000000000e+00,5.000000000000000000e+00,5.000000000000000000e+00,5.000000000000000000e+00,5.000000000000000000e+00,5.000000000000000000e+00,5.000000000000000000e+00,5.000000000000000000e+00,5.000000000000000000e+00,5.000000000000000000e+00,5.000000000000000000e+00,5.000000000000000000e+00,5.000000000000000000e+00,5.000000000000000000e+00,5.000000000000000000e+00,5.000000000000000000e+00,5.000000000000000000e+00,5.000000000000000000e+00,5.000000000000000000e+00,5.000000000000000000e+00,5.000000000000000000e+00,5.000000000000000000e+00,5.000000000000000000e+00,5.000000000000000000e+00,5.000000000000000000e+00,5.000000000000000000e+00,5.000000000000000000e+00,5.000000000000000000e+00,5.000000000000000000e+00,2.962081670761108398e+00,2.930205583572387695e+00,3.065140008926391602e+00,3.036069631576538086e+00,5.000000000000000000e+00,5.000000000000000000e+00,5.000000000000000000e+00,5.000000000000000000e+00,5.000000000000000000e+00,5.000000000000000000e+00,5.000000000000000000e+00,5.000000000000000000e+00,5.000000000000000000e+00,5.000000000000000000e+00,5.000000000000000000e+00,5.000000000000000000e+00,5.000000000000000000e+00,4.837919235229492188e+00,4.679892063140869141e+00,4.531862258911132812e+00,4.392910003662109375e+00,4.262225151062011719e+00,4.139091014862060547e+00,4.022871971130371094e+00,3.913001298904418945e+00,3.808972120285034180e+00,3.710331201553344727e+00
3.101400375366210938e+00,3.180145025253295898e+00,3.262992143630981445e+00,3.350271701812744141e+00,3.442348241806030273e+00,3.539629459381103516e+00,3.642568588256835938e+00,3.751674413681030273e+00,3.867518424987792969e+00,3.990744113922119141e+00,4.122080802917480469e+00,4.262355804443359375e+00,4.412515163421630859e+00,4.573640346527099609e+00,4.746978759765625000e+00,4.933973789215087891e+00,5.000000000000000000e+00,5.000000000000000000e+00,5.000000000000000000e+00,5.000000000000000000e+00,5.000000000000000000e+00,5.000000000000000000e+00,5.000000000000000000e+00,5.000000000000000000e+00,5.000000000000000000e+00,5.000000000000000000e+00,5.000000000000000000e+00,5.000000000000000000e+00,5.000000000000000000e+00,5.000000000000000000e+00,5.000000000000000000e+00,5.000000000000000000e+00,5.000000000000000000e+00,5.000000000000000000e+00,5.000000000000000000e+00,5.000000000000000000e+00,5.000000000000000000e+00,5.000000000000000000e+00,5.000000000000000000e+00,5.000000000000000000e+00,5.000000000000000000e+00,5.000000000000000000e+00,5.000000000000000000e+00,5.000000000000000000e+00,5.000000000000000000e+00,5.000000000000000000e+00,5.000000000000000000e+00,5.000000000000000000e+00,5.000000000000000000e+00,5.000000000000000000e+00,5.000000000000000000e+00,5.000000000000000000e+00,5.000000000000000000e+00,2.978973627090454102e+00,2.935555934906005859e+00,3.114653587341308594e+00,5.000000000000000000e+00,5.000000000000000000e+00,5.000000000000000000e+00,5.000000000000000000e+00,5.000000000000000000e+00,5.000000000000000000e+00,5.000000000000000000e+00,5.000000000000000000e+00,5.000000000000000000e+00,5.000000000000000000e+00,5.000000000000000000e+00,5.000000000000000000e+00,5.000000000000000000e+00,5.000000000000000000e+00,4.838060379028320312e+00,4.680024623870849609e+00,4.531986236572265625e+00,4.393026351928710938e+00,4.262334823608398438e+00,4.139194488525390625e+00,4.022969245910644531e+00,3.913093328475952148e+00,3.809059619903564453e+00,3.710414171218872070e+00
3.101334571838378906e+00,3.180075407028198242e+00,3.262918949127197266e+00,3.350194454193115234e+00,3.442266702651977539e+00,3.539543390274047852e+00,3.642477273941040039e+00,3.751577377319335938e+00,3.867415666580200195e+00,3.990634441375732422e+00,4.121963977813720703e+00,4.262231349945068359e+00,4.412381172180175781e+00,4.573496341705322266e+00,4.746823787689208984e+00,4.933805942535400391e+00,5.000000000000000000e+00,5.000000000000000000e+00,5.000000000000000000e+00,5.000000000000000000e+00,5.000000000000000000e+00,5.000000000000000000e+00,5.000000000000000000e+00,5.000000000000000000e+00,5.000000000000000000e+00,5.000000000000000000e+00,5.000000000000000000e+00,5.000000000000000000e+00,5.000000000000000000e+00,5.000000000000000000e+00,5.000000000000000000e+00,5.000000000000000000e+00,5.000000000000000000e+00,5.000000000000000000e+00,5.000000000000000000e+00,5.000000000000000000e+00,5.000000000000000000e+00,5.000000000000000000e+00,5.000000000000000000e+00,5.000000000000000000e+00,5.000000000000000000e+00,5.000000000000000000e+00,5.000000000000000000e+00,5.000000000000000000e+00,5.000000000000000000e+00,5.000000000000000000e+00,5.000000000000000000e+00,5.000000000000000000e+00,5.000000000000000000e+00,5.000000000000000000e+00,5.000000000000000000e+00,5.000000000000000000e+00,5.000000000000000000e+00,2.997990608215332031e+00,2.949635505676269531e+00,3.181370496749877930e+00,5.000000000000000000e+00,5.000000000000000000e+00,5.000000000000000000e+00,5.000000000000000000e+00,5.000000000000000000e+00,5.000000000000000000e+00,5.000000000000000000e+00,5.000000000000000000e+00,5.000000000000000000e+00,5.000000000000000000e+00,5.000000000000000000e+00,5.000000000000000000e+00,5.000000000000000000e+00,5.000000000000000000e+00,4.838201522827148438e+00,4.680156230926513672e+00,4.532110214233398438e+00,4.393142700195312500e+00,4.262444496154785156e+00,4.139297962188720703e+00,4.023066997528076172e+00,3.913185596466064453e+00,3.809146881103515625e+00,3.710497379302978516e+00
3.101268291473388672e+00,3.180005788803100586e+00,3.262845993041992188e+00,3.350117206573486328e+00,3.442185163497924805e+00,3.539457082748413086e+00,3.642385959625244141e+00,3.751481056213378906e+00,3.867312669754028320e+00,3.990524768829345703e+00,4.121846675872802734e+00,4.262105941772460938e+00,4.412247180938720703e+00,4.573352336883544922e+00,4.746668338775634766e+00,4.933638572692871094e+00,5.000000000000000000e+00,5.000000000000000000e+00,5.000000000000000000e+00,5.000000000000000000e+00,5.000000000000000000e+00,5.000000000000000000e+00,5.000000000000000000e+00,5.000000000000000000e+00,5.000000000000000000e+00,5.000000000000000000e+00,5.000000000000000000e+00,5.000000000000000000e+00,5.000000000000000000e+00,5.000000000000000000e+00,5.000000000000000000e+00,5.000000000000000000e+00,5.000000000000000000e+00,5.000000000000000000e+00,5.000000000000000000e+00,5.000000000000000000e+00,5.000000000000000000e+00,5.000000000000000000e+00,5.000000000000000000e+00,5.000000000000000000e+00,5.000000000000000000e+00,5.000000000000000000e+00,5.000000000000000000e+00,5.000000000000000000e+00,5.000000000000000000e+00,5.000000000000000000e+00,5.000000000000000000e+00,5.000000000000000000e+00,5.000000000000000000e+00,5.000000000000000000e+00,5.000000000000000000e+00,5.000000000000000000e+00,5.000000000000000000e+00,3.017780065536499023e+00,2.967325687408447266e+00,3.184278011322021484e+00,5.000000000000000000e+00,5.000000000000000000e+00,5.000000000000000000e+00,5.000000000000000000e+00,5.000000000000000000e+00,5.000000000000000000e+00,5.000000000000000000e+00,5.000000000000000000e+00,5.000000000000000000e+00,5.000000000000000000e+00,5.000000000000000000e+00,5.000000000000000000e+00,5.000000000000000000e+00,5.000000000000000000e+00,4.838342666625976562e+00,4.680288314819335938e+00,4.532233715057373047e+00,4.393259048461914062e+00,4.262554168701171875e+00,4.139400959014892578e+00,4.023164749145507812e+00,3.913278102874755859e+00,3.809234619140625000e+00,3.710580348968505859e+00
3.101202011108398438e+00,3.179936170578002930e+00,3.262772560119628906e+00,3.350039958953857422e+00,3.442104101181030273e+00,3.539370775222778320e+00,3.642294645309448242e+00,3.751384019851684570e+00,3.867209672927856445e+00,3.990415573120117188e+00,4.121730327606201172e+00,4.261981010437011719e+00,4.412113189697265625e+00,4.573208808898925781e+00,4.746513843536376953e+00,4.855004787445068359e+00,4.853800296783447266e+00,4.852595806121826172e+00,4.851392269134521484e+00,4.850189685821533203e+00,4.848987579345703125e+00,4.847785472869873047e+00,4.846584320068359375e+00,4.845384120941162109e+00,4.844183921813964844e+00,4.842984676361083984e+00,4.841786384582519531e+00,4.840588092803955078e+00,4.839390277862548828e+00,4.838193416595458984e+00,4.836997032165527344e+00,4.835801124572753906e+00,4.834605693817138672e+00,4.833411216735839844e+00,4.832217216491699219e+00,4.831023693084716797e+00,4.829831123352050781e+00,4.828638553619384766e+00,4.827447414398193359e+00,4.826256275177001953e+00,4.825065612792968750e+00,4.823875904083251953e+00,4.822686672210693359e+00,4.821497917175292969e+00,4.820309638977050781e+00,4.819122314453125000e+00,4.817934989929199219e+00,4.816748619079589844e+00,4.815562725067138672e+00,4.814377784729003906e+00,4.813193321228027344e+00,4.812008857727050781e+00,4.810825347900390625e+00,4.809642791748046875e+00,2.990502119064331055e+00,3.174068689346313477e+00,4.806097507476806641e+00,4.804916858673095703e+00,4.803737163543701172e+00,4.802557468414306641e+00,4.801378726959228516e+00,4.800200462341308594e+00,4.799022674560546875e+00,4.797845840454101562e+00,4.796669483184814453e+00,4.795493602752685547e+00,4.794317722320556641e+00,4.793143272399902344e+00,4.791969299316406250e+00,4.790795326232910156e+00,4.789622306823730469e+00,4.680420875549316406e+00,4.532357692718505859e+00,4.393375873565673828e+00,4.262663364410400391e+00,4.139504432678222656e+00,4.023262023925781250e+00,3.913370370864868164e+00,3.809322118759155273e+00,3.710663080215454102e+00
3.101135730743408203e+00,3.179866790771484375e+00,3.262699365615844727e+00,3.349962711334228516e+00,3.442022323608398438e+00,3.539284467697143555e+00,3.642203807830810547e+00,3.751287221908569336e+00,3.771196126937866211e+00,3.770469188690185547e+00,3.769742250442504883e+00,3.769016265869140625e+00,3.768290281295776367e+00,3.767564296722412109e+00,3.766838788986206055e+00,3.766113758087158203e+00,3.765388488769531250e+00,3.764663934707641602e+00,3.763939380645751953e+00,3.763215303421020508e+00,3.762491703033447266e+00,3.761767864227294922e+00,3.761044740676879883e+00,3.760321855545043945e+00,3.759598970413208008e+00,3.758876562118530273e+00,3.758154630661010742e+00,3.757432460784912109e+00,3.756711006164550781e+00,3.755989313125610352e+00,3.755268573760986328e+00,3.754547834396362305e+00,3.753827095031738281e+00,3.753107070922851562e+00,3.752387285232543945e+00,3.751667261123657227e+00,3.750947952270507812e+00,3.750228643417358398e+00,3.749509811401367188e+00,3.748791456222534180e+00,3.748072862625122070e+00,3.747354984283447266e+00,3.746637344360351562e+00,3.745919704437255859e+00,3.745202541351318359e+00,3.744485855102539062e+00,3.743768930435180664e+00,3.743052721023559570e+00,3.742336273193359375e+00,3.741620779037475586e+00,3.740905284881591797e+00,3.740189790725708008e+00,3.739475011825561523e+00,3.738760471343994141e+00,2.968512058258056641e+00,2.946866750717163086e+00,3.736617326736450195e+00,3.735903978347778320e+00,3.735190629959106445e+00,3.734477281570434570e+00,3.733764648437500000e+00,3.733052253723144531e+00,3.732339620590209961e+00,3.731627941131591797e+00,3.730916261672973633e+00,3.730204582214355469e+00,3.729493618011474609e+00,3.728782415390014648e+00,3.728071928024291992e+00,3.727361679077148438e+00,3.726651191711425781e+00,3.725941419601440430e+00,3.725232124328613281e+00,3.724522590637207031e+00,3.723813533782958984e+00,3.723104953765869141e+00,3.722396135330200195e+00,3.721688270568847656e+00,3.720979928970336914e+00,3.710746526718139648e+00
3.083454370498657227e+00,3.082968711853027344e+00,3.082482576370239258e+00,3.081997156143188477e+00,3.081511735916137695e+00,3.081026077270507812e+00,3.080540895462036133e+00,3.080055952072143555e+00,3.079571008682250977e+00,3.079086303710937500e+00,3.078601598739624023e+00,3.078117132186889648e+00,3.077632904052734375e+00,3.077148675918579102e+00,3.076664686203002930e+00,3.076181173324584961e+00,3.075697183609008789e+00,3.075213670730590820e+00,3.074730157852172852e+00,3.074247121810913086e+00,3.073764085769653320e+00,3.073281049728393555e+00,3.072798252105712891e+00,3.072315692901611328e+00,3.071833133697509766e+00,3.071350812911987305e+00,3.070868730545043945e+00,3.070386648178100586e+00,3.069904804229736328e+00,3.069422960281372070e+00,3.068941593170166016e+00,3.068460226058959961e+00,3.067978858947753906e+00,3.067497730255126953e+00,3.067016839981079102e+00,3.066535949707031250e+00,3.066055297851562500e+00,3.065574884414672852e+00,3.065094470977783203e+00,3.064614534378051758e+00,3.064134120941162109e+00,3.063654422760009766e+00,3.063174724578857422e+00,3.062695026397705078e+00,3.062215566635131836e+00,3.061736345291137695e+00,3.061257123947143555e+00,3.060778141021728516e+00,3.060299158096313477e+00,3.059820652008056641e+00,3.059342145919799805e+00,3.058863401412963867e+00,3.058385372161865234e+00,3.057907342910766602e+00,2.909004688262939453e+00,2.875925540924072266e+00,3.056473731994628906e+00,3.055996179580688477e+00,3.055518865585327148e+00,3.055041551589965820e+00,3.054564714431762695e+00,3.054087877273559570e+00,3.053610801696777344e+00,3.053134441375732422e+00,3.052658081054687500e+00,3.052181482315063477e+00,3.051705360412597656e+00,3.051229238510131836e+00,3.050753355026245117e+00,3.050277948379516602e+00,3.049802064895629883e+00,3.049326658248901367e+00,3.048851490020751953e+00,3.048376321792602539e+00,3.047901391983032227e+00,3.047426700592041016e+00,3.046951770782470703e+00,3.046477317810058594e+00,3.046002864837646484e+00,3.045528650283813477e+00
2.605087280273437500e+00,2.604740381240844727e+00,2.604393720626831055e+00,2.604047060012817383e+00,2.603700399398803711e+00,2.603353738784790039e+00,2.603007555007934570e+00,2.602661132812500000e+00,2.602314710617065430e+00,2.601968765258789062e+00,2.601622581481933594e+00,2.601276636123657227e+00,2.600930929183959961e+00,2.600584983825683594e+00,2.600239276885986328e+00,2.599893808364868164e+00,2.599548101425170898e+00,2.599202871322631836e+00,2.598857402801513672e+00,2.598512172698974609e+00,2.598167181015014648e+00,2.597821950912475586e+00,2.597476959228515625e+00,2.597132205963134766e+00,2.596787214279174805e+00,2.596442699432373047e+00,2.596098184585571289e+00,2.595753669738769531e+00,2.595409154891967773e+00,2.595064878463745117e+00,2.594720602035522461e+00,2.594376564025878906e+00,2.594032287597656250e+00,2.593688488006591797e+00,2.593344688415527344e+00,2.593000888824462891e+00,2.592657327651977539e+00,2.592313528060913086e+00,2.591969966888427734e+00,2.591626644134521484e+00,2.591283321380615234e+00,2.590940237045288086e+00,2.590597152709960938e+00,2.590253829956054688e+00,2.589910984039306641e+00,2.589568138122558594e+00,2.589225292205810547e+00,2.588882684707641602e+00,2.588540077209472656e+00,2.588197708129882812e+00,2.587855339050292969e+00,2.587512731552124023e+00,2.587170600891113281e+00,2.586828708648681641e+00,2.586486577987670898e+00,2.586144685745239258e+00,2.585802555084228516e+00,2.585460901260375977e+00,2.585119247436523438e+00,2.584777593612670898e+00,2.584436178207397461e+00,2.584094762802124023e+00,2.583753347396850586e+00,2.583412170410156250e+00,2.583071231842041016e+00,2.582730054855346680e+00,2.582389116287231445e+00,2.582048177719116211e+00,2.581707477569580078e+00,2.581366777420043945e+00,2.581026077270507812e+00,2.580685615539550781e+00,2.580345153808593750e+00,2.580004692077636719e+00,2.579664468765258789e+00,2.579324483871459961e+00,2.578984260559082031e+00,2.578644514083862305e+00,2.578304290771484375e+00,2.577964544296264648e+00
2.255213499069213867e+00,2.254953384399414062e+00,2.254693746566772461e+00,2.254433870315551758e+00,2.254173994064331055e+00,2.253914356231689453e+00,2.253654718399047852e+00,2.253395080566406250e+00,2.253135442733764648e+00,2.252876043319702148e+00,2.252616643905639648e+00,2.252357244491577148e+00,2.252097845077514648e+00,2.251838684082031250e+00,2.251579523086547852e+00,2.251320362091064453e+00,2.251061201095581055e+00,2.250802278518676758e+00,2.250543117523193359e+00,2.250284433364868164e+00,2.250025510787963867e+00,2.249766588211059570e+00,2.249507904052734375e+00,2.249249458312988281e+00,2.248990774154663086e+00,2.248732328414916992e+00,2.248473882675170898e+00,2.248215198516845703e+00,2.247956991195678711e+00,2.247698545455932617e+00,2.247440338134765625e+00,2.247182130813598633e+00,2.246923923492431641e+00,2.246665954589843750e+00,2.246407985687255859e+00,2.246150016784667969e+00,2.245892286300659180e+00,2.245634317398071289e+00,2.245376586914062500e+00,2.245118856430053711e+00,2.244861125946044922e+00,2.244603633880615234e+00,2.244346141815185547e+00,2.244088411331176758e+00,2.243831157684326172e+00,2.243573904037475586e+00,2.243316411972045898e+00,2.243059158325195312e+00,2.242801904678344727e+00,2.242544889450073242e+00,2.242287874221801758e+00,2.242030858993530273e+00,2.241773843765258789e+00,2.241517066955566406e+00,2.241260051727294922e+00,2.241003513336181641e+00,2.240746736526489258e+00,2.240489959716796875e+00,2.240233421325683594e+00,2.239976882934570312e+00,2.239720344543457031e+00,2.239464044570922852e+00,2.239207744598388672e+00,2.238951444625854492e+00,2.238695144653320312e+00,2.238438844680786133e+00,2.238182783126831055e+00,2.237926721572875977e+00,2.237670660018920898e+00,2.237414836883544922e+00,2.237158775329589844e+00,2.236903190612792969e+00,2.236647367477416992e+00,2.236391544342041016e+00,2.236135959625244141e+00,2.235880374908447266e+00,2.235624790191650391e+00,2.235369443893432617e+00,2.235113859176635742e+00,2.234858512878417969e+00
1.988191366195678711e+00,1.987989187240600586e+00,1.987787365913391113e+00,1.987585306167602539e+00,1.987383365631103516e+00,1.987181544303894043e+00,1.986979603767395020e+00,1.986777782440185547e+00,1.986576199531555176e+00,1.986374378204345703e+00,1.986172795295715332e+00,1.985971093177795410e+00,1.985769391059875488e+00,1.985568046569824219e+00,1.985366463661193848e+00,1.985164880752563477e+00,1.984963417053222656e+00,1.984762191772460938e+00,1.984560728073120117e+00,1.984359264373779297e+00,1.984158158302307129e+00,1.983956813812255859e+00,1.983755588531494141e+00,1.983554601669311523e+00,1.983353376388549805e+00,1.983152270317077637e+00,1.982951402664184570e+00,1.982750296592712402e+00,1.982549309730529785e+00,1.982348322868347168e+00,1.982147574424743652e+00,1.981946706771850586e+00,1.981745839118957520e+00,1.981545209884643555e+00,1.981344461441040039e+00,1.981143712997436523e+00,1.980943202972412109e+00,1.980742573738098145e+00,1.980541944503784180e+00,1.980341553688049316e+00,1.980141043663024902e+00,1.979940533638000488e+00,1.979740262031555176e+00,1.979539871215820312e+00,1.979339480400085449e+00,1.979139447212219238e+00,1.978939056396484375e+00,1.978738903999328613e+00,1.978538632392883301e+00,1.978338718414306641e+00,1.978138566017150879e+00,1.977938413619995117e+00,1.977738618850708008e+00,1.977538585662841797e+00,1.977338671684265137e+00,1.977138876914978027e+00,1.976938962936401367e+00,1.976739168167114258e+00,1.976539611816406250e+00,1.976339817047119141e+00,1.976140022277832031e+00,1.975940585136413574e+00,1.975740909576416016e+00,1.975541353225708008e+00,1.975342035293579102e+00,1.975142478942871094e+00,1.974942922592163086e+00,1.974743485450744629e+00,1.974544405937194824e+00,1.974344968795776367e+00,1.974145650863647461e+00,1.973946571350097656e+00,1.973747372627258301e+00,1.973548173904418945e+00,1.973349213600158691e+00,1.973150014877319336e+00,1.972950935363769531e+00,1.972752213478088379e+00,1.972553133964538574e+00,1.972354173660278320e+00
1.777706980705261230e+00,1.777545571327209473e+00,1.777383923530578613e+00,1.777222394943237305e+00,1.777061104774475098e+00,1.776899576187133789e+00,1.776738166809082031e+00,1.776576876640319824e+00,1.776415586471557617e+00,1.776254296302795410e+00,1.776093006134033203e+00,1.775931715965270996e+00,1.775770664215087891e+00,1.775609374046325684e+00,1.775448203086853027e+00,1.775287151336669922e+00,1.775125980377197266e+00,1.774964809417724609e+00,1.774803876876831055e+00,1.774642825126647949e+00,1.774481773376464844e+00,1.774320840835571289e+00,1.774160027503967285e+00,1.773999094963073730e+00,1.773838162422180176e+00,1.773677349090576172e+00,1.773516535758972168e+00,1.773355722427368164e+00,1.773195028305053711e+00,1.773034214973449707e+00,1.772873520851135254e+00,1.772712945938110352e+00,1.772552251815795898e+00,1.772391557693481445e+00,1.772231101989746094e+00,1.772070527076721191e+00,1.771909952163696289e+00,1.771749377250671387e+00,1.771589040756225586e+00,1.771428585052490234e+00,1.771268129348754883e+00,1.771107912063598633e+00,1.770947456359863281e+00,1.770787119865417480e+00,1.770626902580261230e+00,1.770466566085815430e+00,1.770306348800659180e+00,1.770146250724792480e+00,1.769986033439636230e+00,1.769825816154479980e+00,1.769665837287902832e+00,1.769505620002746582e+00,1.769345521926879883e+00,1.769185662269592285e+00,1.769025564193725586e+00,1.768865585327148438e+00,1.768705487251281738e+00,1.768545746803283691e+00,1.768385767936706543e+00,1.768225908279418945e+00,1.768066167831420898e+00,1.767906308174133301e+00,1.767746567726135254e+00,1.767586946487426758e+00,1.767427086830139160e+00,1.767267346382141113e+00,1.767107844352722168e+00,1.766948223114013672e+00,1.766788601875305176e+00,1.766629099845886230e+00,1.766469478607177734e+00,1.766309976577758789e+00,1.766150593757629395e+00,1.765991091728210449e+00,1.765831589698791504e+00,1.765672326087951660e+00,1.765512943267822266e+00,1.765353560447692871e+00,1.765194177627563477e+00,1.765035033226013184e+00
1.607523083686828613e+00,1.607390880584716797e+00,1.607258796691894531e+00,1.607126832008361816e+00,1.606994748115539551e+00,1.606862664222717285e+00,1.606730818748474121e+00,1.606598734855651855e+00,1.606466889381408691e+00,1.606334924697875977e+00,1.606203079223632812e+00,1.606071233749389648e+00,1.605939388275146484e+00,1.605807423591613770e+00,1.605675697326660156e+00,1.605543971061706543e+00,1.605412125587463379e+00,1.605280399322509766e+00,1.605148673057556152e+00,1.605017066001892090e+00,1.604885339736938477e+00,1.604753613471984863e+00,1.604622125625610352e+00,1.604490399360656738e+00,1.604358792304992676e+00,1.604227185249328613e+00,1.604095697402954102e+00,1.603964090347290039e+00,1.603832602500915527e+00,1.603700995445251465e+00,1.603569626808166504e+00,1.603438138961791992e+00,1.603306651115417480e+00,1.603175401687622070e+00,1.603044033050537109e+00,1.602912545204162598e+00,1.602781295776367188e+00,1.602649927139282227e+00,1.602518677711486816e+00,1.602387428283691406e+00,1.602256178855895996e+00,1.602124929428100586e+00,1.601993799209594727e+00,1.601862549781799316e+00,1.601731300354003906e+00,1.601600289344787598e+00,1.601469159126281738e+00,1.601338028907775879e+00,1.601206898689270020e+00,1.601075887680053711e+00,1.600944757461547852e+00,1.600813746452331543e+00,1.600682854652404785e+00,1.600551843643188477e+00,1.600420832633972168e+00,1.600290060043334961e+00,1.600159049034118652e+00,1.600028157234191895e+00,1.599897265434265137e+00,1.599766373634338379e+00,1.599635601043701172e+00,1.599504828453063965e+00,1.599374055862426758e+00,1.599243283271789551e+00,1.599112629890441895e+00,1.598981857299804688e+00,1.598851084709167480e+00,1.598720431327819824e+00,1.598589777946472168e+00,1.598459124565124512e+00,1.598328471183776855e+00,1.598198056221008301e+00,1.598067402839660645e+00,1.597936749458312988e+00,1.597806334495544434e+00,1.597675800323486328e+00,1.597545266151428223e+00,1.597414970397949219e+00,1.597284436225891113e+00,1.597154021263122559e+00
1.467076301574707031e+00,1.466966271400451660e+00,1.466856360435485840e+00,1.466746330261230469e+00,1.466636300086975098e+00,1.466526389122009277e+00,1.466416478157043457e+00,1.466306567192077637e+00,1.466196656227111816e+00,1.466086745262145996e+00,1.465976953506469727e+00,1.465867042541503906e+00,1.465757131576538086e+00,1.465647459030151367e+00,1.465537548065185547e+00,1.465427756309509277e+00,1.465318083763122559e+00,1.465208292007446289e+00,1.465098619461059570e+00,1.464988827705383301e+00,1.464879035949707031e+00,1.464769482612609863e+00,1.464659690856933594e+00,1.464550018310546875e+00,1.464440464973449707e+00,1.464330792427062988e+00,1.464221239089965820e+00,1.464111566543579102e+00,1.464002013206481934e+00,1.463892459869384766e+00,1.463782787322998047e+00,1.463673353195190430e+00,1.463563799858093262e+00,1.463454365730285645e+00,1.463344931602478027e+00,1.463235378265380859e+00,1.463125944137573242e+00,1.463016510009765625e+00,1.462907075881958008e+00,1.462797641754150391e+00,1.462688326835632324e+00,1.462579011917114258e+00,1.462469577789306641e+00,1.462360262870788574e+00,1.462251067161560059e+00,1.462141633033752441e+00,1.462032318115234375e+00,1.461923122406005859e+00,1.461813926696777344e+00,1.461704611778259277e+00,1.461595535278320312e+00,1.461486220359802246e+00,1.461377024650573730e+00,1.461267948150634766e+00,1.461158752441406250e+00,1.461049556732177734e+00,1.460940361022949219e+00,1.460831403732299805e+00,1.460722327232360840e+00,1.460613131523132324e+00,1.460504174232482910e+00,1.460395097732543945e+00,1.460286021232604980e+00,1.460177183151245117e+00,1.460068106651306152e+00,1.459959149360656738e+00,1.459850192070007324e+00,1.459741234779357910e+00,1.459632277488708496e+00,1.459523439407348633e+00,1.459414482116699219e+00,1.459305644035339355e+00,1.459196805953979492e+00,1.459087967872619629e+00,1.458979129791259766e+00,1.458870410919189453e+00,1.458761572837829590e+00,1.458652734756469727e+00,1.458543896675109863e+00,1.458435297012329102e+00
1.349198937416076660e+00,1.349105954170227051e+00,1.349012851715087891e+00,1.348919868469238281e+00,1.348826885223388672e+00,1.348733901977539062e+00,1.348640918731689453e+00,1.348547935485839844e+00,1.348454952239990234e+00,1.348362088203430176e+00,1.348269104957580566e+00,1.348176121711730957e+00,1.348083257675170898e+00,1.347990393638610840e+00,1.347897410392761230e+00,1.347804665565490723e+00,1.347711682319641113e+00,1.347618937492370605e+00,1.347526073455810547e+00,1.347433209419250488e+00,1.347340583801269531e+00,1.347247719764709473e+00,1.347154855728149414e+00,1.347062230110168457e+00,1.346969366073608398e+00,1.346876740455627441e+00,1.346783995628356934e+00,1.346691250801086426e+00,1.346598625183105469e+00,1.346505880355834961e+00,1.346413135528564453e+00,1.346320390701293945e+00,1.346227765083312988e+00,1.346135139465332031e+00,1.346042513847351074e+00,1.345949888229370117e+00,1.345857381820678711e+00,1.345764756202697754e+00,1.345672130584716797e+00,1.345579624176025391e+00,1.345486998558044434e+00,1.345394372940063477e+00,1.345301985740661621e+00,1.345209479331970215e+00,1.345116853713989258e+00,1.345024466514587402e+00,1.344931960105895996e+00,1.344839453697204590e+00,1.344746947288513184e+00,1.344654560089111328e+00,1.344562172889709473e+00,1.344469666481018066e+00,1.344377398490905762e+00,1.344284892082214355e+00,1.344192504882812500e+00,1.344100236892700195e+00,1.344007849693298340e+00,1.343915462493896484e+00,1.343823194503784180e+00,1.343730926513671875e+00,1.343638539314270020e+00,1.343546271324157715e+00,1.343454003334045410e+00,1.343361735343933105e+00,1.343269586563110352e+00,1.343177318572998047e+00,1.343085050582885742e+00,1.342992782592773438e+00,1.342900633811950684e+00,1.342808365821838379e+00,1.342716217041015625e+00,1.342624068260192871e+00,1.342531919479370117e+00,1.342439770698547363e+00,1.342347741127014160e+00,1.342255592346191406e+00,1.342163443565368652e+00,1.342071413993835449e+00,1.341979265213012695e+00,1.341887235641479492e+00
1.248855352401733398e+00,1.248775720596313477e+00,1.248695969581604004e+00,1.248616218566894531e+00,1.248536586761474609e+00,1.248456954956054688e+00,1.248377203941345215e+00,1.248297572135925293e+00,1.248217940330505371e+00,1.248138308525085449e+00,1.248058557510375977e+00,1.247979044914245605e+00,1.247899413108825684e+00,1.247819900512695312e+00,1.247740268707275391e+00,1.247660636901855469e+00,1.247581124305725098e+00,1.247501492500305176e+00,1.247421860694885254e+00,1.247342467308044434e+00,1.247262835502624512e+00,1.247183322906494141e+00,1.247103929519653320e+00,1.247024297714233398e+00,1.246944904327392578e+00,1.246865391731262207e+00,1.246785879135131836e+00,1.246706485748291016e+00,1.246626973152160645e+00,1.246547579765319824e+00,1.246468186378479004e+00,1.246388673782348633e+00,1.246309280395507812e+00,1.246229887008666992e+00,1.246150493621826172e+00,1.246071100234985352e+00,1.245991706848144531e+00,1.245912313461303711e+00,1.245833039283752441e+00,1.245753645896911621e+00,1.245674252510070801e+00,1.245594978332519531e+00,1.245515704154968262e+00,1.245436310768127441e+00,1.245357155799865723e+00,1.245277881622314453e+00,1.245198488235473633e+00,1.245119333267211914e+00,1.245040059089660645e+00,1.244960784912109375e+00,1.244881629943847656e+00,1.244802355766296387e+00,1.244723081588745117e+00,1.244643926620483398e+00,1.244564771652221680e+00,1.244485497474670410e+00,1.244406342506408691e+00,1.244327306747436523e+00,1.244248032569885254e+00,1.244168877601623535e+00,1.244089841842651367e+00,1.244010686874389648e+00,1.243931531906127930e+00,1.243852496147155762e+00,1.243773460388183594e+00,1.243694305419921875e+00,1.243615269660949707e+00,1.243536233901977539e+00,1.243457078933715820e+00,1.243378162384033203e+00,1.243299126625061035e+00,1.243220090866088867e+00,1.243141055107116699e+00,1.243062138557434082e+00,1.242983102798461914e+00,1.242904186248779297e+00,1.242825150489807129e+00,1.242746114730834961e+00,1.242667198181152344e+00,1.242588281631469727e+00
1.162404179573059082e+00,1.162335157394409180e+00,1.162266135215759277e+00,1.162197113037109375e+00,1.162128090858459473e+00,1.162058949470520020e+00,1.161989927291870117e+00,1.161921024322509766e+00,1.161851882934570312e+00,1.161782860755920410e+00,1.161713957786560059e+00,1.161644935607910156e+00,1.161576032638549805e+00,1.161507010459899902e+00,1.161437988281250000e+00,1.161369085311889648e+00,1.161300182342529297e+00,1.161231160163879395e+00,1.161162376403808594e+00,1.161093354225158691e+00,1.161024451255798340e+00,1.160955548286437988e+00,1.160886645317077637e+00,1.160817861557006836e+00,1.160748958587646484e+00,1.160680055618286133e+00,1.160611152648925781e+00,1.160542249679565430e+00,1.160473465919494629e+00,1.160404682159423828e+00,1.160335779190063477e+00,1.160266876220703125e+00,1.160198211669921875e+00,1.160129308700561523e+00,1.160060524940490723e+00,1.159991741180419922e+00,1.159922957420349121e+00,1.159854173660278320e+00,1.159785389900207520e+00,1.159716606140136719e+00,1.159647822380065918e+00,1.159579038619995117e+00,1.159510374069213867e+00,1.159441709518432617e+00,1.159372925758361816e+00,1.159304261207580566e+00,1.159235477447509766e+00,1.159166812896728516e+00,1.159098148345947266e+00,1.159029483795166016e+00,1.158960819244384766e+00,1.158892035484313965e+00,1.158823490142822266e+00,1.158754825592041016e+00,1.158686161041259766e+00,1.158617615699768066e+00,1.158548951148986816e+00,1.158480286598205566e+00,1.158411741256713867e+00,1.158343076705932617e+00,1.158274531364440918e+00,1.158205986022949219e+00,1.158137440681457520e+00,1.158068776130676270e+00,1.158000349998474121e+00,1.157931685447692871e+00,1.157863140106201172e+00,1.157794594764709473e+00,1.157726168632507324e+00,1.157657623291015625e+00,1.157589077949523926e+00,1.157520651817321777e+00,1.157452106475830078e+00,1.157383561134338379e+00,1.157315135002136230e+00,1.157246708869934082e+00,1.157178163528442383e+00,1.157109737396240234e+00,1.157041311264038086e+00,1.156972885131835938e+00
1.087147116661071777e+00,1.087086796760559082e+00,1.087026357650756836e+00,1.086966037750244141e+00,1.086905598640441895e+00,1.086845159530639648e+00,1.086784839630126953e+00,1.086724400520324707e+00,1.086664080619812012e+00,1.086603760719299316e+00,1.086543321609497070e+00,1.086483001708984375e+00,1.086422681808471680e+00,1.086362361907958984e+00,1.086302042007446289e+00,1.086241722106933594e+00,1.086181402206420898e+00,1.086121082305908203e+00,1.086060762405395508e+00,1.086000442504882812e+00,1.085940241813659668e+00,1.085879921913146973e+00,1.085819721221923828e+00,1.085759401321411133e+00,1.085699081420898438e+00,1.085638880729675293e+00,1.085578680038452148e+00,1.085518360137939453e+00,1.085458159446716309e+00,1.085397958755493164e+00,1.085337638854980469e+00,1.085277557373046875e+00,1.085217356681823730e+00,1.085157155990600586e+00,1.085096955299377441e+00,1.085036754608154297e+00,1.084976553916931152e+00,1.084916353225708008e+00,1.084856152534484863e+00,1.084796071052551270e+00,1.084735870361328125e+00,1.084675788879394531e+00,1.084615588188171387e+00,1.084555387496948242e+00,1.084495306015014648e+00,1.084435224533081055e+00,1.084375023841857910e+00,1.084314942359924316e+00,1.084254860877990723e+00,1.084194779396057129e+00,1.084134697914123535e+00,1.084074616432189941e+00,1.084014534950256348e+00,1.083954453468322754e+00,1.083894371986389160e+00,1.083834290504455566e+00,1.083774209022521973e+00,1.083714246749877930e+00,1.083654165267944336e+00,1.083594083786010742e+00,1.083534121513366699e+00,1.083474159240722656e+00,1.083414077758789062e+00,1.083354115486145020e+00,1.083294153213500977e+00,1.083234071731567383e+00,1.083174109458923340e+00,1.083114147186279297e+00,1.083054184913635254e+00,1.082994222640991211e+00,1.082934260368347168e+00,1.082874298095703125e+00,1.082814455032348633e+00,1.082754492759704590e+00,1.082694530487060547e+00,1.082634568214416504e+00,1.082574725151062012e+00,1.082514762878417969e+00,1.082454800605773926e+00,1.082394957542419434e+00
1.021042346954345703e+00,1.020989060401916504e+00,1.020935773849487305e+00,1.020882487297058105e+00,1.020829200744628906e+00,1.020775914192199707e+00,1.020722627639770508e+00,1.020669341087341309e+00,1.020616173744201660e+00,1.020562887191772461e+00,1.020509719848632812e+00,1.020456433296203613e+00,1.020403146743774414e+00,1.020349979400634766e+00,1.020296812057495117e+00,1.020243525505065918e+00,1.020190358161926270e+00,1.020137190818786621e+00,1.020083904266357422e+00,1.020030736923217773e+00,1.019977569580078125e+00,1.019924402236938477e+00,1.019871234893798828e+00,1.019818067550659180e+00,1.019764900207519531e+00,1.019711732864379883e+00,1.019658565521240234e+00,1.019605398178100586e+00,1.019552230834960938e+00,1.019499182701110840e+00,1.019446015357971191e+00,1.019392848014831543e+00,1.019339799880981445e+00,1.019286632537841797e+00,1.019233584403991699e+00,1.019180536270141602e+00,1.019127368927001953e+00,1.019074320793151855e+00,1.019021272659301758e+00,1.018968105316162109e+00,1.018915057182312012e+00,1.018862009048461914e+00,1.018808960914611816e+00,1.018755912780761719e+00,1.018702864646911621e+00,1.018649697303771973e+00,1.018596649169921875e+00,1.018543601036071777e+00,1.018490552902221680e+00,1.018437623977661133e+00,1.018384575843811035e+00,1.018331527709960938e+00,1.018278598785400391e+00,1.018225550651550293e+00,1.018172502517700195e+00,1.018119573593139648e+00,1.018066525459289551e+00,1.018013477325439453e+00,1.017960548400878906e+00,1.017907619476318359e+00,1.017854571342468262e+00,1.017801761627197266e+00,1.017748713493347168e+00,1.017695784568786621e+00,1.017642855644226074e+00,1.017589926719665527e+00,1.017536997795104980e+00,1.017483949661254883e+00,1.017431139945983887e+00,1.017378211021423340e+00,1.017325282096862793e+00,1.017272353172302246e+00,1.017219424247741699e+00,1.017166614532470703e+00,1.017113685607910156e+00,1.017060756683349609e+00,1.017007946968078613e+00,1.016955018043518066e+00,1.016902208328247070e+00,1.016849279403686523e+00
9.625157713890075684e-01,9.624684453010559082e-01,9.624210596084594727e-01,9.623736739158630371e-01,9.623264074325561523e-01,9.622790813446044922e-01,9.622316956520080566e-01,9.621843695640563965e-01,9.621370434761047363e-01,9.620897769927978516e-01,9.620424509048461914e-01,9.619951248168945312e-01,9.619477987289428711e-01,9.619004726409912109e-01,9.618531465530395508e-01,9.618059396743774414e-01,9.617586731910705566e-01,9.617113471031188965e-01,9.616640806198120117e-01,9.616167545318603516e-01,9.615696072578430176e-01,9.615222811698913574e-01,9.614750146865844727e-01,9.614277482032775879e-01,9.613804817199707031e-01,9.613332152366638184e-01,9.612860679626464844e-01,9.612388014793395996e-01,9.611915946006774902e-01,9.611443281173706055e-01,9.610970616340637207e-01,9.610499739646911621e-01,9.610027074813842773e-01,9.609555006027221680e-01,9.609082937240600586e-01,9.608610868453979492e-01,9.608138203620910645e-01,9.607667326927185059e-01,9.607195258140563965e-01,9.606723189353942871e-01,9.606251716613769531e-01,9.605779647827148438e-01,9.605308771133422852e-01,9.604837298393249512e-01,9.604365229606628418e-01,9.603893756866455078e-01,9.603421688079833984e-01,9.602950215339660645e-01,9.602479934692382812e-01,9.602007269859313965e-01,9.601536393165588379e-01,9.601065516471862793e-01,9.600594043731689453e-01,9.600122570991516113e-01,9.599651098251342773e-01,9.599180221557617188e-01,9.598708748817443848e-01,9.598238468170166016e-01,9.597767591476440430e-01,9.597296714782714844e-01,9.596825242042541504e-01,9.596354365348815918e-01,9.595883488655090332e-01,9.595413804054260254e-01,9.594942927360534668e-01,9.594472050666809082e-01,9.594001173973083496e-01,9.593530893325805664e-01,9.593060016632080078e-01,9.592590332031250000e-01,9.592120051383972168e-01,9.591649174690246582e-01,9.591178894042968750e-01,9.590708613395690918e-01,9.590238332748413086e-01,9.589768648147583008e-01,9.589298367500305176e-01,9.588828086853027344e-01,9.588357806205749512e-01,9.587888121604919434e-01
9.103350043296813965e-01,9.102926254272460938e-01,9.102502465248107910e-01,9.102079272270202637e-01,9.101655483245849609e-01,9.101231694221496582e-01,9.100809097290039062e-01,9.100385308265686035e-01,9.099962115287780762e-01,9.099538326263427734e-01,9.099115133285522461e-01,9.098692536354064941e-01,9.098269343376159668e-01,9.097846150398254395e-01,9.097422957420349121e-01,9.096999764442443848e-01,9.096576571464538574e-01,9.096153974533081055e-01,9.095730781555175781e-01,9.095308184623718262e-01,9.094884991645812988e-01,9.094461798667907715e-01,9.094039797782897949e-01,9.093617200851440430e-01,9.093194007873535156e-01,9.092771410942077637e-01,9.092348217964172363e-01,9.091926813125610352e-01,9.091504216194152832e-01,9.091081023216247559e-01,9.090658426284790039e-01,9.090235829353332520e-01,9.089813232421875000e-01,9.089391827583312988e-01,9.088969230651855469e-01,9.088547229766845703e-01,9.088124632835388184e-01,9.087702035903930664e-01,9.087280631065368652e-01,9.086858630180358887e-01,9.086436033248901367e-01,9.086014032363891602e-01,9.085592031478881836e-01,9.085170030593872070e-01,9.084748625755310059e-01,9.084326624870300293e-01,9.083904623985290527e-01,9.083482623100280762e-01,9.083060622215270996e-01,9.082639813423156738e-01,9.082217812538146973e-01,9.081796407699584961e-01,9.081374406814575195e-01,9.080952405929565430e-01,9.080531001091003418e-01,9.080109000205993652e-01,9.079687595367431641e-01,9.079266190528869629e-01,9.078845381736755371e-01,9.078423976898193359e-01,9.078002572059631348e-01,9.077581167221069336e-01,9.077159762382507324e-01,9.076738357543945312e-01,9.076318144798278809e-01,9.075896739959716797e-01,9.075475335121154785e-01,9.075054526329040527e-01,9.074633121490478516e-01,9.074211716651916504e-01,9.073790907859802246e-01,9.073370695114135742e-01,9.072949886322021484e-01,9.072529077529907227e-01,9.072108268737792969e-01,9.071686863899230957e-01,9.071266055107116699e-01,9.070846438407897949e-01,9.070425629615783691e-01,9.070004820823669434e-01
8.635209798812866211e-01,8.634828329086303711e-01,8.634448051452636719e-01,8.634066581726074219e-01,8.633685708045959473e-01,8.633304238319396973e-01,8.632923364639282227e-01,8.632543087005615234e-01,8.632161617279052734e-01,8.631780743598937988e-01,8.631399869918823242e-01,8.631018996238708496e-01,8.630638122558593750e-01,8.630257844924926758e-01,8.629876971244812012e-01,8.629496097564697266e-01,8.629115223884582520e-01,8.628734350204467773e-01,8.628354668617248535e-01,8.627973794937133789e-01,8.627592921257019043e-01,8.627212643623352051e-01,8.626831769943237305e-01,8.626451492309570312e-01,8.626071810722351074e-01,8.625690937042236328e-01,8.625310659408569336e-01,8.624930381774902344e-01,8.624549508094787598e-01,8.624170422554016113e-01,8.623790144920349121e-01,8.623409867286682129e-01,8.623029589653015137e-01,8.622649312019348145e-01,8.622269034385681152e-01,8.621889352798461914e-01,8.621509671211242676e-01,8.621129393577575684e-01,8.620749115943908691e-01,8.620369434356689453e-01,8.619989752769470215e-01,8.619610071182250977e-01,8.619230389595031738e-01,8.618850111961364746e-01,8.618470430374145508e-01,8.618090748786926270e-01,8.617711663246154785e-01,8.617331981658935547e-01,8.616951704025268555e-01,8.616572022438049316e-01,8.616192340850830078e-01,8.615813851356506348e-01,8.615434169769287109e-01,8.615054488182067871e-01,8.614674806594848633e-01,8.614295721054077148e-01,8.613917231559753418e-01,8.613536953926086426e-01,8.613157272338867188e-01,8.612777590751647949e-01,8.612399101257324219e-01,8.612020015716552734e-01,8.611640930175781250e-01,8.611261844635009766e-01,8.610882163047790527e-01,8.610503077507019043e-01,8.610125184059143066e-01,8.609746098518371582e-01,8.609367012977600098e-01,8.608987927436828613e-01,8.608608841896057129e-01,8.608229756355285645e-01,8.607851862907409668e-01,8.607472777366638184e-01,8.607093691825866699e-01,8.606715202331542969e-01,8.606336116790771484e-01,8.605957627296447754e-01,8.605578541755676270e-01,8.605200648307800293e-01
8.212863206863403320e-01,8.212518692016601562e-01,8.212173581123352051e-01,8.211828470230102539e-01,8.211484551429748535e-01,8.211140036582946777e-01,8.210794925689697266e-01,8.210450410842895508e-01,8.210105299949645996e-01,8.209761381149291992e-01,8.209416866302490234e-01,8.209072351455688477e-01,8.208727836608886719e-01,8.208383321762084961e-01,8.208038806915283203e-01,8.207694888114929199e-01,8.207350373268127441e-01,8.207005858421325684e-01,8.206661343574523926e-01,8.206316828727722168e-01,8.205973505973815918e-01,8.205628991127014160e-01,8.205285072326660156e-01,8.204940557479858398e-01,8.204596042633056641e-01,8.204252719879150391e-01,8.203908801078796387e-01,8.203564286231994629e-01,8.203220367431640625e-01,8.202876448631286621e-01,8.202531933784484863e-01,8.202188611030578613e-01,8.201844692230224609e-01,8.201500773429870605e-01,8.201156854629516602e-01,8.200812935829162598e-01,8.200469613075256348e-01,8.200125694274902344e-01,8.199781775474548340e-01,8.199437856674194336e-01,8.199094533920288086e-01,8.198750615119934082e-01,8.198407292366027832e-01,8.198063969612121582e-01,8.197720050811767578e-01,8.197376728057861328e-01,8.197032809257507324e-01,8.196690082550048828e-01,8.196346759796142578e-01,8.196002840995788574e-01,8.195659518241882324e-01,8.195315599441528320e-01,8.194972276687622070e-01,8.194629549980163574e-01,8.194286227226257324e-01,8.193942904472351074e-01,8.193599581718444824e-01,8.193256258964538574e-01,8.192914128303527832e-01,8.192570805549621582e-01,8.192226290702819824e-01,8.191884160041809082e-01,8.191540837287902832e-01,8.191197514533996582e-01,8.190854787826538086e-01,8.190511465072631836e-01,8.190168738365173340e-01,8.189825415611267090e-01,8.189483284950256348e-01,8.189140558242797852e-01,8.188797235488891602e-01,8.188454508781433105e-01,8.188111782073974609e-01,8.187768459320068359e-01,8.187426924705505371e-01,8.187083601951599121e-01,8.186740875244140625e-01,8.186398148536682129e-01,8.186055421829223633e-01,8.185712695121765137e-01
7.829904556274414062e-01,7.829591035842895508e-01,7.829277515411376953e-01,7.828963994979858398e-01,7.828650474548339844e-01,7.828338146209716797e-01,7.828024625778198242e-01,7.827711105346679688e-01,7.827397584915161133e-01,7.827084660530090332e-01,7.826771140098571777e-01,7.826458811759948730e-01,7.826145291328430176e-01,7.825832366943359375e-01,7.825518846511840820e-01,7.825205922126770020e-01,7.824893593788146973e-01,7.824580073356628418e-01,7.824267148971557617e-01,7.823954224586486816e-01,7.823641300201416016e-01,7.823327779769897461e-01,7.823016047477722168e-01,7.822702527046203613e-01,7.822389602661132812e-01,7.822076678276062012e-01,7.821763753890991211e-01,7.821452021598815918e-01,7.821139097213745117e-01,7.820826172828674316e-01,7.820513248443603516e-01,7.820200324058532715e-01,7.819887995719909668e-01,7.819575667381286621e-01,7.819263339042663574e-01,7.818950414657592773e-01,7.818638086318969727e-01,7.818325161933898926e-01,7.818013429641723633e-01,7.817701101303100586e-01,7.817388176918029785e-01,7.817075848579406738e-01,7.816763520240783691e-01,7.816451787948608398e-01,7.816138863563537598e-01,7.815826535224914551e-01,7.815514206886291504e-01,7.815201878547668457e-01,7.814889550209045410e-01,7.814577817916870117e-01,7.814265489578247070e-01,7.813953161239624023e-01,7.813641428947448730e-01,7.813329100608825684e-01,7.813017368316650391e-01,7.812705039978027344e-01,7.812393307685852051e-01,7.812080979347229004e-01,7.811768651008605957e-01,7.811456918716430664e-01,7.811145782470703125e-01,7.810833454132080078e-01,7.810521721839904785e-01,7.810209393501281738e-01,7.809897661209106445e-01,7.809585928916931152e-01,7.809273600578308105e-01,7.808961868286132812e-01,7.808650135993957520e-01,7.808338999748229980e-01,7.808027267456054688e-01,7.807715535163879395e-01,7.807403802871704102e-01,7.807092070579528809e-01,7.806780338287353516e-01,7.806469202041625977e-01,7.806157469749450684e-01,7.805845737457275391e-01,7.805534601211547852e-01,7.805222868919372559e-01
7.481067776679992676e-01,7.480781674385070801e-01,7.480496168136596680e-01,7.480210065841674805e-01,7.479923963546752930e-01,7.479637861251831055e-01,7.479351758956909180e-01,7.479066252708435059e-01,7.478780150413513184e-01,7.478494048118591309e-01,7.478207945823669434e-01,7.477921843528747559e-01,7.477636933326721191e-01,7.477350831031799316e-01,7.477064728736877441e-01,7.476779222488403320e-01,7.476493120193481445e-01,7.476207017898559570e-01,7.475922107696533203e-01,7.475636601448059082e-01,7.475350499153137207e-01,7.475064992904663086e-01,7.474778890609741211e-01,7.474493980407714844e-01,7.474208474159240723e-01,7.473922371864318848e-01,7.473636865615844727e-01,7.473351359367370605e-01,7.473065853118896484e-01,7.472780942916870117e-01,7.472494840621948242e-01,7.472209334373474121e-01,7.471923828125000000e-01,7.471638321876525879e-01,7.471354007720947266e-01,7.471068501472473145e-01,7.470782995223999023e-01,7.470497488975524902e-01,7.470211982727050781e-01,7.469926476478576660e-01,7.469642162322998047e-01,7.469356656074523926e-01,7.469071149826049805e-01,7.468786239624023438e-01,7.468500733375549316e-01,7.468216419219970703e-01,7.467930912971496582e-01,7.467645406723022461e-01,7.467360496520996094e-01,7.467075586318969727e-01,7.466790080070495605e-01,7.466505765914916992e-01,7.466220855712890625e-01,7.465935349464416504e-01,7.465650439262390137e-01,7.465365529060363770e-01,7.465081214904785156e-01,7.464796304702758789e-01,7.464511394500732422e-01,7.464226484298706055e-01,7.463941574096679688e-01,7.463656663894653320e-01,7.463372349739074707e-01,7.463087439537048340e-01,7.462802529335021973e-01,7.462517619132995605e-01,7.462232708930969238e-01,7.461948990821838379e-01,7.461663484573364258e-01,7.461378574371337891e-01,7.461094260215759277e-01,7.460809946060180664e-01,7.460525035858154297e-01,7.460240721702575684e-01,7.459955811500549316e-01,7.459671497344970703e-01,7.459387183189392090e-01,7.459102869033813477e-01,7.458818554878234863e-01,7.458534240722656250e-01
7.161988615989685059e-01,7.161726355552673340e-01,7.161464095115661621e-01,7.161202430725097656e-01,7.160940170288085938e-01,7.160677909851074219e-01,7.160415649414062500e-01,7.160153388977050781e-01,7.159891128540039062e-01,7.159629464149475098e-01,7.159367799758911133e-01,7.159105539321899414e-01,7.158843278884887695e-01,7.158581018447875977e-01,7.158319950103759766e-01,7.158057689666748047e-01,7.157795429229736328e-01,7.157533764839172363e-01,7.157271504402160645e-01,7.157009840011596680e-01,7.156748175621032715e-01,7.156486511230468750e-01,7.156224846839904785e-01,7.155962586402893066e-01,7.155700922012329102e-01,7.155439853668212891e-01,7.155177593231201172e-01,7.154915928840637207e-01,7.154654264450073242e-01,7.154392600059509277e-01,7.154130935668945312e-01,7.153869271278381348e-01,7.153607606887817383e-01,7.153345942497253418e-01,7.153084278106689453e-01,7.152822613716125488e-01,7.152561545372009277e-01,7.152299880981445312e-01,7.152038812637329102e-01,7.151777148246765137e-01,7.151515483856201172e-01,7.151254415512084961e-01,7.150992751121520996e-01,7.150731682777404785e-01,7.150470018386840820e-01,7.150208353996276855e-01,7.149947285652160645e-01,7.149686217308044434e-01,7.149424552917480469e-01,7.149163484573364258e-01,7.148901820182800293e-01,7.148640751838684082e-01,7.148379683494567871e-01,7.148118615150451660e-01,7.147857546806335449e-01,7.147595882415771484e-01,7.147334814071655273e-01,7.147073745727539062e-01,7.146812677383422852e-01,7.146551609039306641e-01,7.146290540695190430e-01,7.146029472351074219e-01,7.145768404006958008e-01,7.145507931709289551e-01,7.145246863365173340e-01,7.144985795021057129e-01,7.144724726676940918e-01,7.144463658332824707e-01,7.144202589988708496e-01,7.143942117691040039e-01,7.143681049346923828e-01,7.143419384956359863e-01,7.143158912658691406e-01,7.142898440361022949e-01,7.142637372016906738e-01,7.142376303672790527e-01,7.142115235328674316e-01,7.141854763031005859e-01,7.141593694686889648e-01,7.141333818435668945e-01
6.869014501571655273e-01,6.868773102760314941e-01,6.868531703948974609e-01,6.868290901184082031e-01,6.868049502372741699e-01,6.867808699607849121e-01,6.867567300796508789e-01,6.867326498031616211e-01,6.867085099220275879e-01,6.866844296455383301e-01,6.866603493690490723e-01,6.866362094879150391e-01,6.866121292114257812e-01,6.865879893302917480e-01,6.865639090538024902e-01,6.865398287773132324e-01,6.865157485008239746e-01,6.864916682243347168e-01,6.864675283432006836e-01,6.864434480667114258e-01,6.864193677902221680e-01,6.863953471183776855e-01,6.863712072372436523e-01,6.863471269607543945e-01,6.863230466842651367e-01,6.862989664077758789e-01,6.862748861312866211e-01,6.862508654594421387e-01,6.862267851829528809e-01,6.862027049064636230e-01,6.861785650253295898e-01,6.861545443534851074e-01,6.861305236816406250e-01,6.861064434051513672e-01,6.860823631286621094e-01,6.860582828521728516e-01,6.860342025756835938e-01,6.860101222991943359e-01,6.859861016273498535e-01,6.859620809555053711e-01,6.859380006790161133e-01,6.859139204025268555e-01,6.858898997306823730e-01,6.858658790588378906e-01,6.858417987823486328e-01,6.858177781105041504e-01,6.857936978340148926e-01,6.857696771621704102e-01,6.857455968856811523e-01,6.857216358184814453e-01,6.856975555419921875e-01,6.856735348701477051e-01,6.856494545936584473e-01,6.856254339218139648e-01,6.856014728546142578e-01,6.855773925781250000e-01,6.855533719062805176e-01,6.855293512344360352e-01,6.855053305625915527e-01,6.854813098907470703e-01,6.854572892189025879e-01,6.854332685470581055e-01,6.854092478752136230e-01,6.853852272033691406e-01,6.853612065315246582e-01,6.853372454643249512e-01,6.853132247924804688e-01,6.852892041206359863e-01,6.852651834487915039e-01,6.852411627769470215e-01,6.852172017097473145e-01,6.851932406425476074e-01,6.851692199707031250e-01,6.851451992988586426e-01,6.851211786270141602e-01,6.850971579551696777e-01,6.850731968879699707e-01,6.850491762161254883e-01,6.850251555442810059e-01,6.850011944770812988e-01
6.599067449569702148e-01,6.598845124244689941e-01,6.598622202873229980e-01,6.598399877548217773e-01,6.598176956176757812e-01,6.597954630851745605e-01,6.597731709480285645e-01,6.597509384155273438e-01,6.597287058830261230e-01,6.597064733505249023e-01,6.596841812133789062e-01,6.596619486808776855e-01,6.596397161483764648e-01,6.596174836158752441e-01,6.595952510833740234e-01,6.595729589462280273e-01,6.595507264137268066e-01,6.595284938812255859e-01,6.595063209533691406e-01,6.594840884208679199e-01,6.594617962837219238e-01,6.594395637512207031e-01,6.594173312187194824e-01,6.593951582908630371e-01,6.593729257583618164e-01,6.593506932258605957e-01,6.593284606933593750e-01,6.593062281608581543e-01,6.592840552330017090e-01,6.592618227005004883e-01,6.592395901679992676e-01,6.592173576354980469e-01,6.591951251029968262e-01,6.591729521751403809e-01,6.591507792472839355e-01,6.591285467147827148e-01,6.591063141822814941e-01,6.590840816497802734e-01,6.590619087219238281e-01,6.590397357940673828e-01,6.590175032615661621e-01,6.589953303337097168e-01,6.589730978012084961e-01,6.589508652687072754e-01,6.589286923408508301e-01,6.589065194129943848e-01,6.588843464851379395e-01,6.588621139526367188e-01,6.588399410247802734e-01,6.588177084922790527e-01,6.587955951690673828e-01,6.587734222412109375e-01,6.587511897087097168e-01,6.587290167808532715e-01,6.587068438529968262e-01,6.586846113204956055e-01,6.586624979972839355e-01,6.586403250694274902e-01,6.586180925369262695e-01,6.585959196090698242e-01,6.585737466812133789e-01,6.585516333580017090e-01,6.585294604301452637e-01,6.585072875022888184e-01,6.584851145744323730e-01,6.584629416465759277e-01,6.584407687187194824e-01,6.584186553955078125e-01,6.583964824676513672e-01,6.583743095397949219e-01,6.583521366119384766e-01,6.583299636840820312e-01,6.583078503608703613e-01,6.582856774330139160e-01,6.582635045051574707e-01,6.582413911819458008e-01,6.582192182540893555e-01,6.581970453262329102e-01,6.581749320030212402e-01,6.581527590751647949e-01
6.349535584449768066e-01,6.349329352378845215e-01,6.349123120307922363e-01,6.348917484283447266e-01,6.348711252212524414e-01,6.348505020141601562e-01,6.348298788070678711e-01,6.348093152046203613e-01,6.347887516021728516e-01,6.347681283950805664e-01,6.347475051879882812e-01,6.347268819808959961e-01,6.347063183784484863e-01,6.346856951713562012e-01,6.346651315689086914e-01,6.346445679664611816e-01,6.346239447593688965e-01,6.346033811569213867e-01,6.345827579498291016e-01,6.345621943473815918e-01,6.345416307449340820e-01,6.345210075378417969e-01,6.345004439353942871e-01,6.344798803329467773e-01,6.344592571258544922e-01,6.344387531280517578e-01,6.344181299209594727e-01,6.343975663185119629e-01,6.343770027160644531e-01,6.343563795089721680e-01,6.343358755111694336e-01,6.343153119087219238e-01,6.342947483062744141e-01,6.342741250991821289e-01,6.342535614967346191e-01,6.342329978942871094e-01,6.342124938964843750e-01,6.341919302940368652e-01,6.341713666915893555e-01,6.341508030891418457e-01,6.341302394866943359e-01,6.341096758842468262e-01,6.340891122817993164e-01,6.340685486793518066e-01,6.340479850769042969e-01,6.340274810791015625e-01,6.340069174766540527e-01,6.339864134788513184e-01,6.339658498764038086e-01,6.339452862739562988e-01,6.339247226715087891e-01,6.339041590690612793e-01,6.338836550712585449e-01,6.338631510734558105e-01,6.338425874710083008e-01,6.338220238685607910e-01,6.338015198707580566e-01,6.337810158729553223e-01,6.337604522705078125e-01,6.337399482727050781e-01,6.337193846702575684e-01,6.336988210678100586e-01,6.336783170700073242e-01,6.336578130722045898e-01,6.336372494697570801e-01,6.336167454719543457e-01,6.335961818695068359e-01,6.335756778717041016e-01,6.335551738739013672e-01,6.335346698760986328e-01,6.335141658782958984e-01,6.334936022758483887e-01,6.334730982780456543e-01,6.334525942802429199e-01,6.334320902824401855e-01,6.334115862846374512e-01,6.333910822868347168e-01,6.333705782890319824e-01,6.333500742912292480e-01,6.333295702934265137e-01
