3.097240447998046875e+00,3.175774812698364258e+00,3.258394956588745117e+00,3.345428705215454102e+00,3.437239885330200195e+00,3.534232139587402344e+00,3.636857748031616211e+00,3.745621204376220703e+00,3.861090898513793945e+00,3.983895063400268555e+00,4.114767551422119141e+00,4.254530429840087891e+00,4.404121398925781250e+00,4.564615249633789062e+00,4.737248897552490234e+00,4.923453330993652344e+00,5.000000000000000000e+00,5.000000000000000000e+00,5.000000000000000000e+00,5.000000000000000000e+00,5.000000000000000000e+00,5.000000000000000000e+00,5.000000000000000000e+00,5.000000000000000000e+00,5.000000000000000000e+00,5.000000000000000000e+00,5.000000000000000000e+00,5.000000000000000000e+00,5.000000000000000000e+00,5.000000000000000000e+00,5.000000000000000000e+00,5.000000000000000000e+00,5.000000000000000000e+00,5.000000000000000000e+00,5.000000000000000000e+00,5.000000000000000000e+00,5.000000000000000000e+00,5.000000000000000000e+00,5.000000000000000000e+00,5.000000000000000000e+00,5.000000000000000000e+00,5.000000000000000000e+00,5.000000000000000000e+00,5.000000000000000000e+00,5.000000000000000000e+00,5.000000000000000000e+00,5.000000000000000000e+00,5.000000000000000000e+00,5.000000000000000000e+00,5.000000000000000000e+00,4.162157535552978516e+00,4.123084545135498047e+00,5.000000000000000000e+00,5.000000000000000000e+00,5.000000000000000000e+00,5.000000000000000000e+00,5.000000000000000000e+00,5.000000000000000000e+00,5.000000000000000000e+00,5.000000000000000000e+00,5.000000000000000000e+00,5.000000000000000000e+00,5.000000000000000000e+00,5.000000000000000000e+00,5.000000000000000000e+00,5.000000000000000000e+00,5.000000000000000000e+00,5.000000000000000000e+00,5.000000000000000000e+00,5.000000000000000000e+00,4.847416400909423828e+00,4.688782691955566406e+00,4.540202617645263672e+00,4.400750160217285156e+00,4.269608497619628906e+00,4.146057128906250000e+00,4.029455184936523438e+00,3.919232130050659180e+00,3.814879179000854492e+00,3.715938329696655273e+00
3.097174406051635742e+00,3.175705194473266602e+00,3.258321762084960938e+00,3.345351934432983398e+00,3.437158584594726562e+00,3.534146070480346680e+00,3.636766672134399414e+00,3.745524644851684570e+00,3.860988140106201172e+00,3.983796596527099609e+00,4.114662647247314453e+00,4.254418373107910156e+00,4.404001235961914062e+00,4.564486026763916016e+00,4.737110137939453125e+00,4.923303604125976562e+00,5.000000000000000000e+00,5.000000000000000000e+00,5.000000000000000000e+00,5.000000000000000000e+00,5.000000000000000000e+00,5.000000000000000000e+00,5.000000000000000000e+00,5.000000000000000000e+00,5.000000000000000000e+00,5.000000000000000000e+00,5.000000000000000000e+00,5.000000000000000000e+00,5.000000000000000000e+00,5.000000000000000000e+00,5.000000000000000000e+00,5.000000000000000000e+00,5.000000000000000000e+00,5.000000000000000000e+00,5.000000000000000000e+00,5.000000000000000000e+00,5.000000000000000000e+00,5.000000000000000000e+00,5.000000000000000000e+00,5.000000000000000000e+00,5.000000000000000000e+00,5.000000000000000000e+00,5.000000000000000000e+00,5.000000000000000000e+00,5.000000000000000000e+00,5.000000000000000000e+00,5.000000000000000000e+00,5.000000000000000000e+00,5.000000000000000000e+00,5.000000000000000000e+00,4.182362079620361328e+00,4.133772373199462891e+00,5.000000000000000000e+00,5.000000000000000000e+00,5.000000000000000000e+00,5.000000000000000000e+00,5.000000000000000000e+00,5.000000000000000000e+00,5.000000000000000000e+00,5.000000000000000000e+00,5.000000000000000000e+00,5.000000000000000000e+00,5.000000000000000000e+00,5.000000000000000000e+00,5.000000000000000000e+00,5.000000000000000000e+00,5.000000000000000000e+00,5.000000000000000000e+00,5.000000000000000000e+00,5.000000000000000000e+00,4.847540855407714844e+00,4.688899040222167969e+00,4.540311813354492188e+00,4.400852680206298828e+00,4.269705295562744141e+00,4.146148204803466797e+00,4.029541015625000000e+00,3.919313669204711914e+00,3.814956188201904297e+00,3.716011524200439453e+00
3.097108364105224609e+00,3.175635814666748047e+00,3.258248805999755859e+00,3.345274925231933594e+00,3.437077283859252930e+00,3.534060239791870117e+00,3.636675596237182617e+00,3.745428085327148438e+00,3.860885620117187500e+00,3.983687400817871094e+00,4.114557743072509766e+00,4.254306316375732422e+00,4.403881549835205078e+00,4.564357280731201172e+00,4.736971378326416016e+00,4.923153877258300781e+00,5.000000000000000000e+00,5.000000000000000000e+00,5.000000000000000000e+00,5.000000000000000000e+00,5.000000000000000000e+00,5.000000000000000000e+00,5.000000000000000000e+00,5.000000000000000000e+00,5.000000000000000000e+00,5.000000000000000000e+00,5.000000000000000000e+00,5.000000000000000000e+00,5.000000000000000000e+00,5.000000000000000000e+00,5.000000000000000000e+00,5.000000000000000000e+00,5.000000000000000000e+00,5.000000000000000000e+00,5.000000000000000000e+00,5.000000000000000000e+00,5.000000000000000000e+00,5.000000000000000000e+00,5.000000000000000000e+00,5.000000000000000000e+00,5.000000000000000000e+00,5.000000000000000000e+00,5.000000000000000000e+00,5.000000000000000000e+00,5.000000000000000000e+00,5.000000000000000000e+00,5.000000000000000000e+00,5.000000000000000000e+00,5.000000000000000000e+00,5.000000000000000000e+00,4.252524852752685547e+00,4.210304260253906250e+00,5.000000000000000000e+00,5.000000000000000000e+00,5.000000000000000000e+00,5.000000000000000000e+00,5.000000000000000000e+00,5.000000000000000000e+00,5.000000000000000000e+00,5.000000000000000000e+00,5.000000000000000000e+00,5.000000000000000000e+00,5.000000000000000000e+00,5.000000000000000000e+00,5.000000000000000000e+00,5.000000000000000000e+00,5.000000000000000000e+00,5.000000000000000000e+00,5.000000000000000000e+00,5.000000000000000000e+00,4.847665309906005859e+00,4.689015865325927734e+00,4.540421485900878906e+00,4.400955200195312500e+00,4.269801616668701172e+00,4.146239280700683594e+00,4.029627323150634766e+00,3.919395208358764648e+00,3.815032958984375000e+00,3.716084718704223633e+00
3.097042322158813477e+00,3.175566434860229492e+00,3.258175611495971680e+00,3.345197916030883789e+00,3.436995983123779297e+00,3.533974647521972656e+00,3.636584758758544922e+00,3.745331287384033203e+00,3.860783100128173828e+00,3.983578205108642578e+00,4.114441394805908203e+00,4.254194736480712891e+00,4.403761386871337891e+00,4.564228534698486328e+00,4.736832618713378906e+00,4.923003673553466797e+00,5.000000000000000000e+00,5.000000000000000000e+00,5.000000000000000000e+00,5.000000000000000000e+00,5.000000000000000000e+00,5.000000000000000000e+00,5.000000000000000000e+00,5.000000000000000000e+00,5.000000000000000000e+00,5.000000000000000000e+00,5.000000000000000000e+00,5.000000000000000000e+00,5.000000000000000000e+00,5.000000000000000000e+00,5.000000000000000000e+00,5.000000000000000000e+00,5.000000000000000000e+00,5.000000000000000000e+00,5.000000000000000000e+00,5.000000000000000000e+00,5.000000000000000000e+00,5.000000000000000000e+00,5.000000000000000000e+00,5.000000000000000000e+00,5.000000000000000000e+00,5.000000000000000000e+00,5.000000000000000000e+00,5.000000000000000000e+00,5.000000000000000000e+00,5.000000000000000000e+00,5.000000000000000000e+00,5.000000000000000000e+00,4.196720600128173828e+00,4.197436809539794922e+00,4.144923210144042969e+00,4.167405128479003906e+00,4.164888858795166016e+00,4.191676616668701172e+00,5.000000000000000000e+00,5.000000000000000000e+00,5.000000000000000000e+00,5.000000000000000000e+00,5.000000000000000000e+00,5.000000000000000000e+00,5.000000000000000000e+00,5.000000000000000000e+00,5.000000000000000000e+00,5.000000000000000000e+00,5.000000000000000000e+00,5.000000000000000000e+00,5.000000000000000000e+00,5.000000000000000000e+00,5.000000000000000000e+00,5.000000000000000000e+00,4.847789764404296875e+00,4.689132213592529297e+00,4.540530204772949219e+00,4.401057720184326172e+00,4.269898414611816406e+00,4.146330356597900391e+00,4.029713153839111328e+00,3.919476270675659180e+00,3.815110206604003906e+00,3.716157913208007812e+00
3.096976518630981445e+00,3.175497055053710938e+00,3.258102655410766602e+00,3.345120906829833984e+00,3.436914682388305664e+00,3.533888578414916992e+00,3.636493682861328125e+00,3.745234727859497070e+00,3.860680341720581055e+00,3.983468770980834961e+00,4.114325046539306641e+00,4.254069805145263672e+00,4.403641700744628906e+00,4.564099788665771484e+00,4.736693382263183594e+00,4.922853946685791016e+00,5.000000000000000000e+00,5.000000000000000000e+00,5.000000000000000000e+00,5.000000000000000000e+00,5.000000000000000000e+00,5.000000000000000000e+00,5.000000000000000000e+00,5.000000000000000000e+00,5.000000000000000000e+00,5.000000000000000000e+00,5.000000000000000000e+00,5.000000000000000000e+00,5.000000000000000000e+00,5.000000000000000000e+00,5.000000000000000000e+00,5.000000000000000000e+00,5.000000000000000000e+00,5.000000000000000000e+00,5.000000000000000000e+00,5.000000000000000000e+00,5.000000000000000000e+00,5.000000000000000000e+00,5.000000000000000000e+00,5.000000000000000000e+00,5.000000000000000000e+00,5.000000000000000000e+00,5.000000000000000000e+00,5.000000000000000000e+00,5.000000000000000000e+00,5.000000000000000000e+00,5.000000000000000000e+00,5.000000000000000000e+00,4.193140029907226562e+00,4.151756763458251953e+00,4.114902973175048828e+00,4.118527412414550781e+00,4.119301319122314453e+00,4.186965465545654297e+00,4.217581748962402344e+00,5.000000000000000000e+00,5.000000000000000000e+00,5.000000000000000000e+00,5.000000000000000000e+00,5.000000000000000000e+00,5.000000000000000000e+00,5.000000000000000000e+00,5.000000000000000000e+00,5.000000000000000000e+00,5.000000000000000000e+00,5.000000000000000000e+00,5.000000000000000000e+00,5.000000000000000000e+00,5.000000000000000000e+00,5.000000000000000000e+00,4.847914218902587891e+00,4.689248561859130859e+00,4.540639877319335938e+00,4.401160240173339844e+00,4.269995212554931641e+00,4.146421432495117188e+00,4.029798984527587891e+00,3.919557571411132812e+00,3.815187454223632812e+00,3.716230869293212891e+00
3.096910476684570312e+00,3.175427675247192383e+00,3.258029460906982422e+00,3.345043897628784180e+00,3.436833381652832031e+00,3.533802509307861328e+00,3.636402606964111328e+00,3.745138645172119141e+00,3.860577821731567383e+00,3.983359575271606445e+00,4.114208221435546875e+00,4.253945350646972656e+00,4.403508186340332031e+00,4.563971042633056641e+00,4.736554622650146484e+00,4.922703742980957031e+00,5.000000000000000000e+00,5.000000000000000000e+00,5.000000000000000000e+00,5.000000000000000000e+00,5.000000000000000000e+00,5.000000000000000000e+00,5.000000000000000000e+00,5.000000000000000000e+00,5.000000000000000000e+00,5.000000000000000000e+00,5.000000000000000000e+00,5.000000000000000000e+00,5.000000000000000000e+00,5.000000000000000000e+00,5.000000000000000000e+00,5.000000000000000000e+00,5.000000000000000000e+00,5.000000000000000000e+00,5.000000000000000000e+00,5.000000000000000000e+00,5.000000000000000000e+00,5.000000000000000000e+00,5.000000000000000000e+00,5.000000000000000000e+00,5.000000000000000000e+00,5.000000000000000000e+00,5.000000000000000000e+00,5.000000000000000000e+00,5.000000000000000000e+00,5.000000000000000000e+00,5.000000000000000000e+00,5.000000000000000000e+00,4.196987628936767578e+00,4.162767410278320312e+00,4.123965263366699219e+00,4.111596107482910156e+00,4.128130912780761719e+00,4.228889942169189453e+00,4.245771884918212891e+00,5.000000000000000000e+00,5.000000000000000000e+00,5.000000000000000000e+00,5.000000000000000000e+00,5.000000000000000000e+00,5.000000000000000000e+00,5.000000000000000000e+00,5.000000000000000000e+00,5.000000000000000000e+00,5.000000000000000000e+00,5.000000000000000000e+00,5.000000000000000000e+00,5.000000000000000000e+00,5.000000000000000000e+00,5.000000000000000000e+00,4.848038673400878906e+00,4.689364910125732422e+00,4.540748596191406250e+00,4.401262760162353516e+00,4.270091533660888672e+00,4.146512508392333984e+00,4.029885292053222656e+00,3.919639110565185547e+00,3.815264225006103516e+00,3.716304063796997070e+00
3.096844673156738281e+00,3.175358295440673828e+00,3.257956504821777344e+00,3.344966888427734375e+00,3.436752080917358398e+00,3.533716678619384766e+00,3.636311531066894531e+00,3.745042085647583008e+00,3.860475301742553711e+00,3.983250379562377930e+00,4.114091873168945312e+00,4.253820896148681641e+00,4.403374671936035156e+00,4.563827991485595703e+00,4.736415863037109375e+00,4.922553539276123047e+00,5.000000000000000000e+00,5.000000000000000000e+00,5.000000000000000000e+00,5.000000000000000000e+00,5.000000000000000000e+00,5.000000000000000000e+00,5.000000000000000000e+00,5.000000000000000000e+00,5.000000000000000000e+00,5.000000000000000000e+00,5.000000000000000000e+00,5.000000000000000000e+00,5.000000000000000000e+00,5.000000000000000000e+00,5.000000000000000000e+00,5.000000000000000000e+00,5.000000000000000000e+00,5.000000000000000000e+00,5.000000000000000000e+00,5.000000000000000000e+00,5.000000000000000000e+00,5.000000000000000000e+00,5.000000000000000000e+00,5.000000000000000000e+00,5.000000000000000000e+00,5.000000000000000000e+00,5.000000000000000000e+00,5.000000000000000000e+00,5.000000000000000000e+00,5.000000000000000000e+00,5.000000000000000000e+00,5.000000000000000000e+00,4.194555759429931641e+00,4.178836822509765625e+00,4.122770786285400391e+00,4.108713626861572266e+00,4.121106147766113281e+00,4.228363990783691406e+00,4.257256031036376953e+00,5.000000000000000000e+00,5.000000000000000000e+00,5.000000000000000000e+00,5.000000000000000000e+00,5.000000000000000000e+00,5.000000000000000000e+00,5.000000000000000000e+00,5.000000000000000000e+00,5.000000000000000000e+00,5.000000000000000000e+00,5.000000000000000000e+00,5.000000000000000000e+00,5.000000000000000000e+00,5.000000000000000000e+00,5.000000000000000000e+00,4.848163127899169922e+00,4.689481258392333984e+00,4.540858268737792969e+00,4.401365756988525391e+00,4.270188331604003906e+00,4.146603584289550781e+00,4.029971122741699219e+00,3.919720172882080078e+00,3.815341472625732422e+00,3.716377258300781250e+00
3.096739530563354492e+00,3.175270080566406250e+00,3.257883310317993164e+00,3.344889879226684570e+00,3.436670780181884766e+00,3.533630609512329102e+00,3.636220455169677734e+00,3.744945526123046875e+00,3.860372543334960938e+00,3.983141660690307617e+00,4.113975048065185547e+00,4.253696441650390625e+00,4.403241157531738281e+00,4.563684463500976562e+00,4.736262321472167969e+00,4.922403812408447266e+00,5.000000000000000000e+00,5.000000000000000000e+00,5.000000000000000000e+00,5.000000000000000000e+00,5.000000000000000000e+00,5.000000000000000000e+00,5.000000000000000000e+00,5.000000000000000000e+00,5.000000000000000000e+00,5.000000000000000000e+00,5.000000000000000000e+00,5.000000000000000000e+00,5.000000000000000000e+00,5.000000000000000000e+00,5.000000000000000000e+00,5.000000000000000000e+00,5.000000000000000000e+00,5.000000000000000000e+00,5.000000000000000000e+00,5.000000000000000000e+00,5.000000000000000000e+00,5.000000000000000000e+00,5.000000000000000000e+00,5.000000000000000000e+00,5.000000000000000000e+00,5.000000000000000000e+00,5.000000000000000000e+00,5.000000000000000000e+00,5.000000000000000000e+00,5.000000000000000000e+00,5.000000000000000000e+00,5.000000000000000000e+00,4.190427303314208984e+00,4.191520214080810547e+00,4.120551109313964844e+00,4.118461608886718750e+00,4.118789672851562500e+00,4.253657817840576172e+00,5.000000000000000000e+00,5.000000000000000000e+00,5.000000000000000000e+00,5.000000000000000000e+00,5.000000000000000000e+00,5.000000000000000000e+00,5.000000000000000000e+00,5.000000000000000000e+00,5.000000000000000000e+00,5.000000000000000000e+00,5.000000000000000000e+00,5.000000000000000000e+00,5.000000000000000000e+00,5.000000000000000000e+00,5.000000000000000000e+00,5.000000000000000000e+00,4.848288059234619141e+00,4.689598083496093750e+00,4.540966987609863281e+00,4.401468276977539062e+00,4.270284652709960938e+00,4.146694660186767578e+00,4.030056953430175781e+00,3.919801712036132812e+00,3.815418720245361328e+00,3.716450214385986328e+00
3.096624612808227539e+00,3.175149440765380859e+00,3.257760286331176758e+00,3.344784736633300781e+00,3.436586618423461914e+00,3.533544778823852539e+00,3.636129379272460938e+00,3.744848966598510742e+00,3.860270023345947266e+00,3.983032464981079102e+00,4.113859176635742188e+00,4.253571987152099609e+00,4.403108119964599609e+00,4.563541412353515625e+00,4.736107826232910156e+00,4.922238349914550781e+00,5.000000000000000000e+00,5.000000000000000000e+00,5.000000000000000000e+00,5.000000000000000000e+00,5.000000000000000000e+00,5.000000000000000000e+00,5.000000000000000000e+00,5.000000000000000000e+00,5.000000000000000000e+00,5.000000000000000000e+00,5.000000000000000000e+00,5.000000000000000000e+00,5.000000000000000000e+00,5.000000000000000000e+00,5.000000000000000000e+00,5.000000000000000000e+00,5.000000000000000000e+00,5.000000000000000000e+00,5.000000000000000000e+00,5.000000000000000000e+00,5.000000000000000000e+00,5.000000000000000000e+00,5.000000000000000000e+00,5.000000000000000000e+00,5.000000000000000000e+00,5.000000000000000000e+00,5.000000000000000000e+00,5.000000000000000000e+00,5.000000000000000000e+00,5.000000000000000000e+00,5.000000000000000000e+00,5.000000000000000000e+00,4.177380084991455078e+00,4.174492835998535156e+00,4.127885341644287109e+00,4.111627578735351562e+00,4.136599063873291016e+00,4.261279106140136719e+00,4.278398990631103516e+00,5.000000000000000000e+00,5.000000000000000000e+00,5.000000000000000000e+00,5.000000000000000000e+00,5.000000000000000000e+00,5.000000000000000000e+00,5.000000000000000000e+00,5.000000000000000000e+00,5.000000000000000000e+00,5.000000000000000000e+00,5.000000000000000000e+00,5.000000000000000000e+00,5.000000000000000000e+00,5.000000000000000000e+00,5.000000000000000000e+00,4.848412036895751953e+00,4.689714431762695312e+00,4.541076183319091797e+00,4.401570796966552734e+00,4.270381450653076172e+00,4.146785736083984375e+00,4.030143260955810547e+00,3.919883251190185547e+00,3.815495491027832031e+00,3.716523408889770508e+00
3.096521615982055664e+00,3.175028562545776367e+00,3.257633209228515625e+00,3.344650745391845703e+00,3.436444997787475586e+00,3.533419609069824219e+00,3.636026620864868164e+00,3.744752407073974609e+00,3.860167503356933594e+00,3.982923269271850586e+00,4.113742351531982422e+00,4.253447532653808594e+00,4.402974605560302734e+00,4.563397884368896484e+00,4.735953330993652344e+00,4.922071456909179688e+00,5.000000000000000000e+00,5.000000000000000000e+00,5.000000000000000000e+00,5.000000000000000000e+00,5.000000000000000000e+00,5.000000000000000000e+00,5.000000000000000000e+00,5.000000000000000000e+00,5.000000000000000000e+00,5.000000000000000000e+00,5.000000000000000000e+00,5.000000000000000000e+00,5.000000000000000000e+00,5.000000000000000000e+00,5.000000000000000000e+00,5.000000000000000000e+00,5.000000000000000000e+00,5.000000000000000000e+00,5.000000000000000000e+00,5.000000000000000000e+00,5.000000000000000000e+00,5.000000000000000000e+00,5.000000000000000000e+00,5.000000000000000000e+00,5.000000000000000000e+00,5.000000000000000000e+00,5.000000000000000000e+00,5.000000000000000000e+00,5.000000000000000000e+00,5.000000000000000000e+00,5.000000000000000000e+00,5.000000000000000000e+00,4.126581192016601562e+00,4.167387962341308594e+00,4.133363723754882812e+00,4.132964134216308594e+00,4.140759944915771484e+00,4.254200935363769531e+00,4.255374431610107422e+00,5.000000000000000000e+00,5.000000000000000000e+00,5.000000000000000000e+00,5.000000000000000000e+00,5.000000000000000000e+00,5.000000000000000000e+00,5.000000000000000000e+00,5.000000000000000000e+00,5.000000000000000000e+00,5.000000000000000000e+00,5.000000000000000000e+00,5.000000000000000000e+00,5.000000000000000000e+00,5.000000000000000000e+00,5.000000000000000000e+00,4.848536491394042969e+00,4.689830780029296875e+00,4.541185855865478516e+00,4.401673316955566406e+00,4.270477771759033203e+00,4.146876811981201172e+00,4.030229091644287109e+00,3.919964790344238281e+00,3.815572738647460938e+00,3.716596841812133789e+00
3.096455574035644531e+00,3.174949169158935547e+00,3.257526159286499023e+00,3.344516754150390625e+00,3.436303377151489258e+00,3.533270120620727539e+00,3.635868310928344727e+00,3.744602918624877930e+00,3.860041618347167969e+00,3.982814073562622070e+00,4.113626003265380859e+00,4.253323078155517578e+00,4.402841091156005859e+00,4.563254833221435547e+00,4.735799312591552734e+00,4.921905040740966797e+00,5.000000000000000000e+00,5.000000000000000000e+00,5.000000000000000000e+00,5.000000000000000000e+00,5.000000000000000000e+00,5.000000000000000000e+00,5.000000000000000000e+00,5.000000000000000000e+00,5.000000000000000000e+00,5.000000000000000000e+00,5.000000000000000000e+00,5.000000000000000000e+00,5.000000000000000000e+00,5.000000000000000000e+00,5.000000000000000000e+00,5.000000000000000000e+00,5.000000000000000000e+00,5.000000000000000000e+00,5.000000000000000000e+00,5.000000000000000000e+00,5.000000000000000000e+00,5.000000000000000000e+00,5.000000000000000000e+00,5.000000000000000000e+00,5.000000000000000000e+00,5.000000000000000000e+00,5.000000000000000000e+00,5.000000000000000000e+00,5.000000000000000000e+00,5.000000000000000000e+00,5.000000000000000000e+00,5.000000000000000000e+00,4.091672897338867188e+00,4.169362068176269531e+00,4.157217979431152344e+00,4.107520580291748047e+00,4.054321289062500000e+00,4.092190265655517578e+00,4.230412483215332031e+00,5.000000000000000000e+00,5.000000000000000000e+00,5.000000000000000000e+00,5.000000000000000000e+00,5.000000000000000000e+00,5.000000000000000000e+00,5.000000000000000000e+00,5.000000000000000000e+00,5.000000000000000000e+00,5.000000000000000000e+00,5.000000000000000000e+00,5.000000000000000000e+00,5.000000000000000000e+00,5.000000000000000000e+00,5.000000000000000000e+00,4.848661422729492188e+00,4.689947128295898438e+00,4.541294574737548828e+00,4.401775836944580078e+00,4.270574569702148438e+00,4.146967887878417969e+00,4.030314922332763672e+00,3.920045852661132812e+00,3.815649986267089844e+00,3.716670036315917969e+00
3.096389293670654297e+00,3.174879789352416992e+00,3.257452964782714844e+00,3.344435691833496094e+00,3.436191558837890625e+00,3.533123970031738281e+00,3.635710000991821289e+00,3.744434833526611328e+00,3.859863281250000000e+00,3.982634305953979492e+00,4.113471984863281250e+00,4.253198146820068359e+00,4.402708053588867188e+00,4.563111782073974609e+00,4.735645294189453125e+00,4.921738147735595703e+00,5.000000000000000000e+00,5.000000000000000000e+00,5.000000000000000000e+00,5.000000000000000000e+00,5.000000000000000000e+00,5.000000000000000000e+00,5.000000000000000000e+00,5.000000000000000000e+00,5.000000000000000000e+00,5.000000000000000000e+00,5.000000000000000000e+00,5.000000000000000000e+00,5.000000000000000000e+00,5.000000000000000000e+00,5.000000000000000000e+00,5.000000000000000000e+00,5.000000000000000000e+00,5.000000000000000000e+00,5.000000000000000000e+00,5.000000000000000000e+00,5.000000000000000000e+00,5.000000000000000000e+00,5.000000000000000000e+00,5.000000000000000000e+00,5.000000000000000000e+00,5.000000000000000000e+00,5.000000000000000000e+00,5.000000000000000000e+00,5.000000000000000000e+00,5.000000000000000000e+00,5.000000000000000000e+00,5.000000000000000000e+00,4.020393371582031250e+00,4.175924777984619141e+00,4.154242038726806641e+00,4.098176956176757812e+00,4.024026393890380859e+00,4.051788806915283203e+00,4.218722343444824219e+00,5.000000000000000000e+00,5.000000000000000000e+00,5.000000000000000000e+00,5.000000000000000000e+00,5.000000000000000000e+00,5.000000000000000000e+00,5.000000000000000000e+00,5.000000000000000000e+00,5.000000000000000000e+00,5.000000000000000000e+00,5.000000000000000000e+00,5.000000000000000000e+00,5.000000000000000000e+00,5.000000000000000000e+00,5.000000000000000000e+00,4.848785877227783203e+00,4.690063476562500000e+00,4.541404247283935547e+00,4.401878833770751953e+00,4.270670890808105469e+00,4.147058963775634766e+00,4.030401229858398438e+00,3.920127391815185547e+00,3.815727233886718750e+00,3.716742992401123047e+00
3.096323490142822266e+00,3.174810171127319336e+00,3.257379770278930664e+00,3.344358682632446289e+00,3.436110019683837891e+00,3.533037900924682617e+00,3.635592937469482422e+00,3.744279384613037109e+00,3.859684705734252930e+00,3.982444286346435547e+00,4.113269329071044922e+00,4.252981662750244141e+00,4.402519226074218750e+00,4.562955379486083984e+00,4.735490798950195312e+00,4.921571731567382812e+00,5.000000000000000000e+00,5.000000000000000000e+00,5.000000000000000000e+00,5.000000000000000000e+00,5.000000000000000000e+00,5.000000000000000000e+00,5.000000000000000000e+00,5.000000000000000000e+00,5.000000000000000000e+00,5.000000000000000000e+00,5.000000000000000000e+00,5.000000000000000000e+00,5.000000000000000000e+00,5.000000000000000000e+00,5.000000000000000000e+00,5.000000000000000000e+00,5.000000000000000000e+00,5.000000000000000000e+00,5.000000000000000000e+00,5.000000000000000000e+00,5.000000000000000000e+00,5.000000000000000000e+00,5.000000000000000000e+00,5.000000000000000000e+00,5.000000000000000000e+00,5.000000000000000000e+00,5.000000000000000000e+00,5.000000000000000000e+00,5.000000000000000000e+00,5.000000000000000000e+00,5.000000000000000000e+00,5.000000000000000000e+00,3.967446565628051758e+00,4.196518898010253906e+00,4.171680450439453125e+00,4.096655368804931641e+00,3.995677709579467773e+00,4.010403156280517578e+00,4.204140186309814453e+00,5.000000000000000000e+00,5.000000000000000000e+00,5.000000000000000000e+00,5.000000000000000000e+00,5.000000000000000000e+00,5.000000000000000000e+00,5.000000000000000000e+00,5.000000000000000000e+00,5.000000000000000000e+00,5.000000000000000000e+00,5.000000000000000000e+00,5.000000000000000000e+00,5.000000000000000000e+00,5.000000000000000000e+00,5.000000000000000000e+00,4.848910331726074219e+00,4.690180301666259766e+00,4.541513442993164062e+00,4.401981353759765625e+00,4.270767688751220703e+00,4.147150039672851562e+00,4.030487060546875000e+00,3.920208930969238281e+00,3.815805673599243164e+00,3.716821908950805664e+00
3.096257209777832031e+00,3.174740791320800781e+00,3.257306575775146484e+00,3.344281435012817383e+00,3.436028718948364258e+00,3.532951593399047852e+00,3.635501623153686523e+00,3.744182825088500977e+00,3.859562158584594727e+00,3.982278347015380859e+00,4.113066673278808594e+00,4.252765178680419922e+00,4.402286529541015625e+00,4.562705516815185547e+00,4.735257625579833984e+00,4.921373844146728516e+00,5.000000000000000000e+00,5.000000000000000000e+00,5.000000000000000000e+00,5.000000000000000000e+00,5.000000000000000000e+00,5.000000000000000000e+00,5.000000000000000000e+00,5.000000000000000000e+00,5.000000000000000000e+00,5.000000000000000000e+00,5.000000000000000000e+00,5.000000000000000000e+00,5.000000000000000000e+00,5.000000000000000000e+00,5.000000000000000000e+00,5.000000000000000000e+00,5.000000000000000000e+00,5.000000000000000000e+00,5.000000000000000000e+00,5.000000000000000000e+00,5.000000000000000000e+00,5.000000000000000000e+00,5.000000000000000000e+00,5.000000000000000000e+00,5.000000000000000000e+00,5.000000000000000000e+00,5.000000000000000000e+00,5.000000000000000000e+00,5.000000000000000000e+00,5.000000000000000000e+00,5.000000000000000000e+00,5.000000000000000000e+00,5.000000000000000000e+00,4.221361160278320312e+00,4.193839073181152344e+00,5.000000000000000000e+00,3.962338447570800781e+00,3.971884250640869141e+00,5.000000000000000000e+00,5.000000000000000000e+00,5.000000000000000000e+00,5.000000000000000000e+00,5.000000000000000000e+00,5.000000000000000000e+00,5.000000000000000000e+00,5.000000000000000000e+00,5.000000000000000000e+00,5.000000000000000000e+00,5.000000000000000000e+00,5.000000000000000000e+00,5.000000000000000000e+00,5.000000000000000000e+00,5.000000000000000000e+00,5.000000000000000000e+00,4.849034786224365234e+00,4.690296649932861328e+00,4.541622638702392578e+00,4.402083873748779297e+00,4.270864486694335938e+00,4.147241115570068359e+00,4.030577659606933594e+00,3.920298576354980469e+00,3.815893888473510742e+00,3.716905117034912109e+00
3.096191167831420898e+00,3.174671173095703125e+00,3.257233381271362305e+00,3.344204425811767578e+00,3.435947179794311523e+00,3.532865762710571289e+00,3.635410547256469727e+00,3.744086027145385742e+00,3.859459161758422852e+00,3.982169389724731445e+00,4.112938404083251953e+00,4.252587318420410156e+00,4.402054786682128906e+00,4.562456130981445312e+00,4.734989166259765625e+00,4.921083927154541016e+00,5.000000000000000000e+00,5.000000000000000000e+00,5.000000000000000000e+00,5.000000000000000000e+00,5.000000000000000000e+00,5.000000000000000000e+00,5.000000000000000000e+00,5.000000000000000000e+00,5.000000000000000000e+00,5.000000000000000000e+00,5.000000000000000000e+00,5.000000000000000000e+00,5.000000000000000000e+00,5.000000000000000000e+00,5.000000000000000000e+00,5.000000000000000000e+00,5.000000000000000000e+00,5.000000000000000000e+00,5.000000000000000000e+00,5.000000000000000000e+00,5.000000000000000000e+00,5.000000000000000000e+00,5.000000000000000000e+00,5.000000000000000000e+00,5.000000000000000000e+00,5.000000000000000000e+00,5.000000000000000000e+00,5.000000000000000000e+00,5.000000000000000000e+00,5.000000000000000000e+00,5.000000000000000000e+00,5.000000000000000000e+00,5.000000000000000000e+00,4.284104824066162109e+00,4.213676452636718750e+00,5.000000000000000000e+00,3.942792654037475586e+00,3.953302383422851562e+00,5.000000000000000000e+00,5.000000000000000000e+00,5.000000000000000000e+00,5.000000000000000000e+00,5.000000000000000000e+00,5.000000000000000000e+00,5.000000000000000000e+00,5.000000000000000000e+00,5.000000000000000000e+00,5.000000000000000000e+00,5.000000000000000000e+00,5.000000000000000000e+00,5.000000000000000000e+00,5.000000000000000000e+00,5.000000000000000000e+00,5.000000000000000000e+00,4.849159240722656250e+00,4.690413475036621094e+00,4.541731834411621094e+00,4.402189254760742188e+00,4.270968914031982422e+00,4.147344589233398438e+00,4.030675411224365234e+00,3.920391559600830078e+00,3.815981388092041016e+00,3.716988325119018555e+00
3.096125125885009766e+00,3.174601793289184570e+00,3.257160186767578125e+00,3.344127178192138672e+00,3.435865879058837891e+00,3.532779455184936523e+00,3.635319232940673828e+00,3.743989467620849609e+00,3.859356641769409180e+00,3.982059717178344727e+00,4.112821578979492188e+00,4.252462387084960938e+00,4.401919364929199219e+00,4.562264442443847656e+00,4.734732627868652344e+00,4.920793533325195312e+00,5.000000000000000000e+00,5.000000000000000000e+00,5.000000000000000000e+00,5.000000000000000000e+00,5.000000000000000000e+00,5.000000000000000000e+00,5.000000000000000000e+00,5.000000000000000000e+00,5.000000000000000000e+00,5.000000000000000000e+00,5.000000000000000000e+00,5.000000000000000000e+00,5.000000000000000000e+00,5.000000000000000000e+00,5.000000000000000000e+00,5.000000000000000000e+00,5.000000000000000000e+00,5.000000000000000000e+00,5.000000000000000000e+00,5.000000000000000000e+00,5.000000000000000000e+00,5.000000000000000000e+00,5.000000000000000000e+00,5.000000000000000000e+00,5.000000000000000000e+00,5.000000000000000000e+00,5.000000000000000000e+00,5.000000000000000000e+00,5.000000000000000000e+00,5.000000000000000000e+00,5.000000000000000000e+00,5.000000000000000000e+00,5.000000000000000000e+00,5.000000000000000000e+00,4.232476711273193359e+00,5.000000000000000000e+00,3.963061571121215820e+00,3.961971759796142578e+00,5.000000000000000000e+00,5.000000000000000000e+00,5.000000000000000000e+00,5.000000000000000000e+00,5.000000000000000000e+00,5.000000000000000000e+00,5.000000000000000000e+00,5.000000000000000000e+00,5.000000000000000000e+00,5.000000000000000000e+00,5.000000000000000000e+00,5.000000000000000000e+00,5.000000000000000000e+00,5.000000000000000000e+00,5.000000000000000000e+00,5.000000000000000000e+00,4.849283695220947266e+00,4.690536499023437500e+00,4.541852951049804688e+00,4.402306079864501953e+00,4.271078586578369141e+00,4.147448062896728516e+00,4.030773639678955078e+00,3.920484066009521484e+00,3.816069126129150391e+00,3.717071771621704102e+00
3.096058845520019531e+00,3.174531936645507812e+00,3.257086992263793945e+00,3.344050168991088867e+00,3.435784101486206055e+00,3.532693624496459961e+00,3.635228157043457031e+00,3.743892669677734375e+00,3.859254121780395508e+00,3.981950521469116211e+00,4.112704753875732422e+00,4.252337932586669922e+00,4.401785850524902344e+00,4.562120914459228516e+00,4.734578132629394531e+00,4.920585632324218750e+00,5.000000000000000000e+00,5.000000000000000000e+00,5.000000000000000000e+00,5.000000000000000000e+00,5.000000000000000000e+00,5.000000000000000000e+00,5.000000000000000000e+00,5.000000000000000000e+00,5.000000000000000000e+00,5.000000000000000000e+00,5.000000000000000000e+00,5.000000000000000000e+00,5.000000000000000000e+00,5.000000000000000000e+00,5.000000000000000000e+00,5.000000000000000000e+00,5.000000000000000000e+00,5.000000000000000000e+00,5.000000000000000000e+00,5.000000000000000000e+00,5.000000000000000000e+00,5.000000000000000000e+00,5.000000000000000000e+00,5.000000000000000000e+00,5.000000000000000000e+00,5.000000000000000000e+00,5.000000000000000000e+00,5.000000000000000000e+00,5.000000000000000000e+00,5.000000000000000000e+00,5.000000000000000000e+00,5.000000000000000000e+00,5.000000000000000000e+00,4.360742568969726562e+00,4.290287017822265625e+00,5.000000000000000000e+00,3.979980945587158203e+00,3.963224172592163086e+00,5.000000000000000000e+00,5.000000000000000000e+00,5.000000000000000000e+00,5.000000000000000000e+00,5.000000000000000000e+00,5.000000000000000000e+00,5.000000000000000000e+00,5.000000000000000000e+00,5.000000000000000000e+00,5.000000000000000000e+00,5.000000000000000000e+00,5.000000000000000000e+00,5.000000000000000000e+00,5.000000000000000000e+00,5.000000000000000000e+00,5.000000000000000000e+00,4.849425792694091797e+00,4.690669059753417969e+00,4.541977405548095703e+00,4.402422904968261719e+00,4.271188735961914062e+00,4.147552013397216797e+00,4.030871868133544922e+00,3.920576572418212891e+00,3.816157341003417969e+00,3.717154979705810547e+00
3.095992803573608398e+00,3.174462556838989258e+00,3.257013797760009766e+00,3.343972682952880859e+00,3.435702800750732422e+00,3.532607316970825195e+00,3.635136842727661133e+00,3.743796110153198242e+00,3.859151124954223633e+00,3.981840848922729492e+00,4.112587928771972656e+00,4.252213001251220703e+00,4.401651859283447266e+00,4.561977386474609375e+00,4.734423160552978516e+00,4.920418739318847656e+00,5.000000000000000000e+00,5.000000000000000000e+00,5.000000000000000000e+00,5.000000000000000000e+00,5.000000000000000000e+00,5.000000000000000000e+00,5.000000000000000000e+00,5.000000000000000000e+00,5.000000000000000000e+00,5.000000000000000000e+00,5.000000000000000000e+00,5.000000000000000000e+00,5.000000000000000000e+00,5.000000000000000000e+00,5.000000000000000000e+00,5.000000000000000000e+00,5.000000000000000000e+00,5.000000000000000000e+00,5.000000000000000000e+00,5.000000000000000000e+00,5.000000000000000000e+00,5.000000000000000000e+00,5.000000000000000000e+00,5.000000000000000000e+00,5.000000000000000000e+00,5.000000000000000000e+00,5.000000000000000000e+00,5.000000000000000000e+00,5.000000000000000000e+00,5.000000000000000000e+00,5.000000000000000000e+00,5.000000000000000000e+00,5.000000000000000000e+00,4.406054973602294922e+00,4.344464778900146484e+00,5.000000000000000000e+00,3.972701311111450195e+00,3.949847936630249023e+00,5.000000000000000000e+00,5.000000000000000000e+00,5.000000000000000000e+00,5.000000000000000000e+00,5.000000000000000000e+00,5.000000000000000000e+00,5.000000000000000000e+00,5.000000000000000000e+00,5.000000000000000000e+00,5.000000000000000000e+00,5.000000000000000000e+00,5.000000000000000000e+00,5.000000000000000000e+00,5.000000000000000000e+00,5.000000000000000000e+00,5.000000000000000000e+00,4.849567413330078125e+00,4.690801620483398438e+00,4.542101860046386719e+00,4.402539730072021484e+00,4.271298885345458984e+00,4.147655963897705078e+00,4.030969619750976562e+00,3.920669794082641602e+00,3.816244840621948242e+00,3.717238187789916992e+00
3.095926523208618164e+00,3.174392938613891602e+00,3.256940603256225586e+00,3.343895912170410156e+00,3.435621261596679688e+00,3.532521247863769531e+00,3.635045766830444336e+00,3.743699312210083008e+00,3.859048604965209961e+00,3.981731653213500977e+00,4.112471580505371094e+00,4.252088546752929688e+00,4.401518344879150391e+00,4.561833858489990234e+00,4.734268665313720703e+00,4.920251846313476562e+00,5.000000000000000000e+00,5.000000000000000000e+00,5.000000000000000000e+00,5.000000000000000000e+00,5.000000000000000000e+00,5.000000000000000000e+00,5.000000000000000000e+00,5.000000000000000000e+00,5.000000000000000000e+00,5.000000000000000000e+00,5.000000000000000000e+00,5.000000000000000000e+00,5.000000000000000000e+00,5.000000000000000000e+00,5.000000000000000000e+00,5.000000000000000000e+00,5.000000000000000000e+00,5.000000000000000000e+00,5.000000000000000000e+00,5.000000000000000000e+00,5.000000000000000000e+00,5.000000000000000000e+00,5.000000000000000000e+00,5.000000000000000000e+00,5.000000000000000000e+00,5.000000000000000000e+00,5.000000000000000000e+00,5.000000000000000000e+00,5.000000000000000000e+00,5.000000000000000000e+00,5.000000000000000000e+00,5.000000000000000000e+00,5.000000000000000000e+00,5.000000000000000000e+00,4.371735572814941406e+00,5.000000000000000000e+00,3.976193189620971680e+00,3.947079658508300781e+00,5.000000000000000000e+00,5.000000000000000000e+00,5.000000000000000000e+00,5.000000000000000000e+00,5.000000000000000000e+00,5.000000000000000000e+00,5.000000000000000000e+00,5.000000000000000000e+00,5.000000000000000000e+00,5.000000000000000000e+00,5.000000000000000000e+00,5.000000000000000000e+00,5.000000000000000000e+00,5.000000000000000000e+00,5.000000000000000000e+00,5.000000000000000000e+00,4.849709510803222656e+00,4.690934658050537109e+00,4.542226314544677734e+00,4.402656555175781250e+00,4.271409034729003906e+00,4.147759437561035156e+00,4.031067371368408203e+00,3.920762300491333008e+00,3.816332578659057617e+00,3.717321872711181641e+00
3.095860481262207031e+00,3.174323558807373047e+00,3.256867408752441406e+00,3.343818426132202148e+00,3.435539960861206055e+00,3.532435178756713867e+00,3.634954452514648438e+00,3.743602752685546875e+00,3.858945608139038086e+00,3.981621980667114258e+00,4.112354755401611328e+00,4.251963615417480469e+00,4.401384830474853516e+00,4.561690330505371094e+00,4.734114170074462891e+00,4.920084953308105469e+00,5.000000000000000000e+00,5.000000000000000000e+00,5.000000000000000000e+00,5.000000000000000000e+00,5.000000000000000000e+00,5.000000000000000000e+00,5.000000000000000000e+00,5.000000000000000000e+00,5.000000000000000000e+00,5.000000000000000000e+00,5.000000000000000000e+00,5.000000000000000000e+00,5.000000000000000000e+00,5.000000000000000000e+00,5.000000000000000000e+00,5.000000000000000000e+00,5.000000000000000000e+00,5.000000000000000000e+00,5.000000000000000000e+00,5.000000000000000000e+00,5.000000000000000000e+00,5.000000000000000000e+00,5.000000000000000000e+00,5.000000000000000000e+00,5.000000000000000000e+00,5.000000000000000000e+00,5.000000000000000000e+00,5.000000000000000000e+00,5.000000000000000000e+00,5.000000000000000000e+00,5.000000000000000000e+00,5.000000000000000000e+00,5.000000000000000000e+00,5.000000000000000000e+00,4.403374671936035156e+00,5.000000000000000000e+00,3.990367889404296875e+00,3.940761327743530273e+00,5.000000000000000000e+00,5.000000000000000000e+00,5.000000000000000000e+00,5.000000000000000000e+00,5.000000000000000000e+00,5.000000000000000000e+00,5.000000000000000000e+00,5.000000000000000000e+00,5.000000000000000000e+00,5.000000000000000000e+00,5.000000000000000000e+00,5.000000000000000000e+00,5.000000000000000000e+00,5.000000000000000000e+00,5.000000000000000000e+00,5.000000000000000000e+00,4.849851131439208984e+00,4.691066741943359375e+00,4.542350769042968750e+00,4.402773857116699219e+00,4.271518707275390625e+00,4.147863388061523438e+00,4.031165599822998047e+00,3.920854806900024414e+00,3.816420793533325195e+00,3.717405080795288086e+00
3.095794200897216797e+00,3.174253940582275391e+00,3.256794214248657227e+00,3.343741416931152344e+00,3.435458421707153320e+00,3.532349109649658203e+00,3.634863615036010742e+00,3.743505716323852539e+00,3.858843088150024414e+00,3.981513023376464844e+00,4.112238407135009766e+00,4.251838684082031250e+00,4.401251316070556641e+00,4.561546802520751953e+00,4.733959197998046875e+00,4.919917583465576172e+00,5.000000000000000000e+00,5.000000000000000000e+00,5.000000000000000000e+00,5.000000000000000000e+00,5.000000000000000000e+00,5.000000000000000000e+00,5.000000000000000000e+00,5.000000000000000000e+00,5.000000000000000000e+00,5.000000000000000000e+00,5.000000000000000000e+00,5.000000000000000000e+00,5.000000000000000000e+00,5.000000000000000000e+00,5.000000000000000000e+00,5.000000000000000000e+00,5.000000000000000000e+00,5.000000000000000000e+00,5.000000000000000000e+00,5.000000000000000000e+00,5.000000000000000000e+00,5.000000000000000000e+00,5.000000000000000000e+00,5.000000000000000000e+00,5.000000000000000000e+00,5.000000000000000000e+00,5.000000000000000000e+00,5.000000000000000000e+00,5.000000000000000000e+00,5.000000000000000000e+00,5.000000000000000000e+00,5.000000000000000000e+00,5.000000000000000000e+00,5.000000000000000000e+00,4.458251953125000000e+00,5.000000000000000000e+00,5.000000000000000000e+00,3.956682682037353516e+00,5.000000000000000000e+00,5.000000000000000000e+00,5.000000000000000000e+00,5.000000000000000000e+00,5.000000000000000000e+00,5.000000000000000000e+00,5.000000000000000000e+00,5.000000000000000000e+00,5.000000000000000000e+00,5.000000000000000000e+00,5.000000000000000000e+00,5.000000000000000000e+00,5.000000000000000000e+00,5.000000000000000000e+00,5.000000000000000000e+00,5.000000000000000000e+00,4.849992752075195312e+00,4.691199779510498047e+00,4.542475223541259766e+00,4.402890205383300781e+00,4.271628856658935547e+00,4.147966861724853516e+00,4.031263351440429688e+00,3.920947790145874023e+00,3.816508293151855469e+00,3.717488288879394531e+00
3.095728397369384766e+00,3.174184560775756836e+00,3.256721019744873047e+00,3.343664169311523438e+00,3.435377120971679688e+00,3.532262802124023438e+00,3.634772062301635742e+00,3.743409395217895508e+00,3.858740091323852539e+00,3.981403350830078125e+00,4.112121582031250000e+00,4.251714229583740234e+00,4.401117324829101562e+00,4.561403274536132812e+00,4.733804702758789062e+00,4.855163574218750000e+00,4.853960990905761719e+00,4.852758884429931641e+00,4.851557731628417969e+00,4.850356578826904297e+00,4.849156379699707031e+00,4.847956657409667969e+00,4.846757411956787109e+00,4.845558643341064453e+00,4.844361305236816406e+00,4.843163490295410156e+00,4.841966629028320312e+00,4.840770721435546875e+00,4.839574813842773438e+00,4.838379859924316406e+00,4.837185382843017578e+00,4.835991859436035156e+00,4.834798336029052734e+00,4.833605766296386719e+00,4.832413673400878906e+00,4.831222057342529297e+00,4.830031394958496094e+00,4.828841209411621094e+00,4.827651500701904297e+00,4.826462268829345703e+00,4.825273513793945312e+00,4.824085712432861328e+00,4.822898387908935547e+00,4.821711540222167969e+00,4.820525646209716797e+00,4.819339752197265625e+00,4.818154811859130859e+00,4.816970348358154297e+00,4.815786361694335938e+00,4.814602851867675781e+00,4.390352725982666016e+00,4.812238216400146484e+00,4.811056613922119141e+00,3.800357580184936523e+00,4.808695316314697266e+00,4.807515621185302734e+00,4.806336402893066406e+00,4.805157661437988281e+00,4.803979873657226562e+00,4.802802085876464844e+00,4.801625251770019531e+00,4.800448894500732422e+00,4.799273014068603516e+00,4.798098087310791016e+00,4.796923637390136719e+00,4.795749187469482422e+00,4.794575691223144531e+00,4.793403148651123047e+00,4.792230606079101562e+00,4.791059017181396484e+00,4.789887905120849609e+00,4.691332340240478516e+00,4.542599201202392578e+00,4.403007507324218750e+00,4.271739006042480469e+00,4.148070335388183594e+00,4.031361579895019531e+00,3.921040296554565430e+00,3.816596031188964844e+00,3.717571735382080078e+00
3.095662117004394531e+00,3.174114942550659180e+00,3.256648063659667969e+00,3.343587160110473633e+00,3.435295581817626953e+00,3.532176971435546875e+00,3.634681224822998047e+00,3.743312358856201172e+00,3.771275281906127930e+00,3.770549774169921875e+00,3.769824028015136719e+00,3.769099235534667969e+00,3.768373966217041016e+00,3.767649650573730469e+00,3.766925096511840820e+00,3.766201257705688477e+00,3.765477657318115234e+00,3.764754056930541992e+00,3.764030933380126953e+00,3.763307809829711914e+00,3.762585401535034180e+00,3.761863231658935547e+00,3.761140823364257812e+00,3.760419368743896484e+00,3.759697437286376953e+00,3.758976459503173828e+00,3.758255243301391602e+00,3.757534742355346680e+00,3.756814479827880859e+00,3.756093978881835938e+00,3.755374431610107422e+00,3.754654645919799805e+00,3.753935337066650391e+00,3.753216266632080078e+00,3.752497673034667969e+00,3.751779317855834961e+00,3.751060724258422852e+00,3.750343084335327148e+00,3.749625205993652344e+00,3.748907804489135742e+00,3.748190641403198242e+00,3.747473955154418945e+00,3.746757507324218750e+00,3.746041059494018555e+00,3.745325088500976562e+00,3.744609117507934570e+00,3.743893861770629883e+00,3.743178844451904297e+00,3.742463588714599609e+00,3.741749286651611328e+00,3.741034507751464844e+00,3.740320682525634766e+00,3.739606618881225586e+00,3.738893270492553711e+00,3.738180160522460938e+00,3.737467050552368164e+00,3.736754417419433594e+00,3.736041545867919922e+00,3.735329627990722656e+00,3.734617471694946289e+00,3.733906030654907227e+00,3.733194828033447266e+00,3.732483386993408203e+00,3.731772661209106445e+00,3.731061935424804688e+00,3.730351686477661133e+00,3.729641437530517578e+00,3.728931903839111328e+00,3.728222608566284180e+00,3.727513074874877930e+00,3.726804256439208984e+00,3.726095438003540039e+00,3.725387096405029297e+00,3.724679231643676758e+00,3.723971128463745117e+00,3.723263740539550781e+00,3.722556114196777344e+00,3.721849203109741211e+00,3.721142053604125977e+00,3.717654943466186523e+00
3.083495855331420898e+00,3.083010911941528320e+00,3.082525730133056641e+00,3.082040548324584961e+00,3.081556081771850586e+00,3.081071376800537109e+00,3.080586910247802734e+00,3.080102682113647461e+00,3.079618453979492188e+00,3.079134702682495117e+00,3.078650712966918945e+00,3.078167200088500977e+00,3.077683925628662109e+00,3.077200412750244141e+00,3.076717376708984375e+00,3.076234102249145508e+00,3.075751304626464844e+00,3.075268507003784180e+00,3.074785947799682617e+00,3.074303627014160156e+00,3.073821306228637695e+00,3.073339223861694336e+00,3.072857141494750977e+00,3.072375535964965820e+00,3.071893930435180664e+00,3.071412086486816406e+00,3.070930957794189453e+00,3.070449590682983398e+00,3.069968700408935547e+00,3.069487571716308594e+00,3.069006919860839844e+00,3.068526506423950195e+00,3.068045854568481445e+00,3.067565679550170898e+00,3.067085266113281250e+00,3.066605329513549805e+00,3.066125392913818359e+00,3.065645933151245117e+00,3.065166473388671875e+00,3.064687013626098633e+00,3.064207792282104492e+00,3.063728570938110352e+00,3.063249588012695312e+00,3.062770843505859375e+00,3.062292098999023438e+00,3.061813831329345703e+00,3.061335325241088867e+00,3.060857295989990234e+00,3.060379028320312500e+00,3.059901237487792969e+00,3.059423446655273438e+00,3.058945655822753906e+00,3.058468341827392578e+00,3.057991027832031250e+00,3.057513952255249023e+00,3.057036638259887695e+00,3.056560039520263672e+00,3.056083440780639648e+00,3.055606603622436523e+00,3.055130243301391602e+00,3.054653882980346680e+00,3.054177761077880859e+00,3.053701639175415039e+00,3.053225994110107422e+00,3.052750349044799805e+00,3.052274703979492188e+00,3.051799535751342773e+00,3.051324129104614258e+00,3.050849199295043945e+00,3.050374031066894531e+00,3.049899339675903320e+00,3.049424886703491211e+00,3.048950195312500000e+00,3.048475980758666992e+00,3.048001527786254883e+00,3.047527790069580078e+00,3.047053813934326172e+00,3.046580076217651367e+00,3.046106576919555664e+00,3.045632839202880859e+00
2.605113267898559570e+00,2.604767084121704102e+00,2.604420661926269531e+00,2.604074478149414062e+00,2.603728532791137695e+00,2.603382587432861328e+00,2.603036642074584961e+00,2.602690935134887695e+00,2.602344989776611328e+00,2.601999521255493164e+00,2.601654052734375000e+00,2.601308584213256836e+00,2.600963354110717773e+00,2.600617885589599609e+00,2.600272893905639648e+00,2.599928140640258789e+00,2.599582910537719727e+00,2.599238157272338867e+00,2.598893404006958008e+00,2.598548889160156250e+00,2.598204135894775391e+00,2.597859621047973633e+00,2.597515344619750977e+00,2.597171068191528320e+00,2.596827030181884766e+00,2.596482753753662109e+00,2.596138715744018555e+00,2.595794916152954102e+00,2.595450878143310547e+00,2.595107316970825195e+00,2.594763517379760742e+00,2.594420194625854492e+00,2.594076633453369141e+00,2.593733310699462891e+00,2.593389987945556641e+00,2.593046665191650391e+00,2.592703580856323242e+00,2.592360496520996094e+00,2.592017650604248047e+00,2.591674804687500000e+00,2.591332197189331055e+00,2.590989589691162109e+00,2.590646982192993164e+00,2.590304613113403320e+00,2.589962005615234375e+00,2.589619874954223633e+00,2.589277505874633789e+00,2.588935375213623047e+00,2.588593482971191406e+00,2.588251590728759766e+00,2.587909698486328125e+00,2.587567806243896484e+00,2.587226390838623047e+00,2.586884975433349609e+00,2.586543321609497070e+00,2.586201906204223633e+00,2.585860490798950195e+00,2.585519552230834961e+00,2.585178136825561523e+00,2.584837436676025391e+00,2.584496498107910156e+00,2.584155559539794922e+00,2.583814859390258789e+00,2.583474159240722656e+00,2.583133697509765625e+00,2.582792997360229492e+00,2.582452774047851562e+00,2.582112550735473633e+00,2.581772089004516602e+00,2.581432104110717773e+00,2.581091880798339844e+00,2.580752134323120117e+00,2.580412149429321289e+00,2.580072402954101562e+00,2.579732894897460938e+00,2.579393148422241211e+00,2.579053640365600586e+00,2.578714132308959961e+00,2.578374862670898438e+00,2.578035831451416016e+00
2.255230188369750977e+00,2.254970788955688477e+00,2.254711151123046875e+00,2.254451990127563477e+00,2.254192352294921875e+00,2.253932952880859375e+00,2.253673791885375977e+00,2.253414630889892578e+00,2.253155708312988281e+00,2.252896547317504883e+00,2.252637386322021484e+00,2.252378463745117188e+00,2.252119302749633789e+00,2.251860618591308594e+00,2.251601696014404297e+00,2.251343250274658203e+00,2.251084327697753906e+00,2.250825881958007812e+00,2.250567436218261719e+00,2.250308990478515625e+00,2.250050544738769531e+00,2.249792098999023438e+00,2.249533891677856445e+00,2.249275684356689453e+00,2.249017477035522461e+00,2.248759508132934570e+00,2.248501300811767578e+00,2.248243331909179688e+00,2.247985363006591797e+00,2.247727632522583008e+00,2.247469663619995117e+00,2.247211933135986328e+00,2.246954441070556641e+00,2.246696710586547852e+00,2.246439218521118164e+00,2.246181488037109375e+00,2.245924234390258789e+00,2.245666980743408203e+00,2.245409488677978516e+00,2.245152235031127930e+00,2.244894981384277344e+00,2.244637727737426758e+00,2.244380712509155273e+00,2.244123697280883789e+00,2.243866682052612305e+00,2.243609666824340820e+00,2.243352890014648438e+00,2.243096113204956055e+00,2.242839336395263672e+00,2.242582559585571289e+00,2.242326021194458008e+00,2.242069482803344727e+00,2.241812944412231445e+00,2.241556406021118164e+00,2.241299867630004883e+00,2.241043806076049805e+00,2.240787267684936523e+00,2.240531206130981445e+00,2.240275144577026367e+00,2.240018844604492188e+00,2.239763021469116211e+00,2.239506959915161133e+00,2.239250898361206055e+00,2.238995075225830078e+00,2.238739252090454102e+00,2.238483667373657227e+00,2.238227844238281250e+00,2.237972259521484375e+00,2.237716674804687500e+00,2.237461090087890625e+00,2.237205743789672852e+00,2.236950159072875977e+00,2.236695051193237305e+00,2.236439704895019531e+00,2.236184358596801758e+00,2.235929250717163086e+00,2.235674142837524414e+00,2.235419034957885742e+00,2.235163927078247070e+00,2.234909057617187500e+00
1.988202452659606934e+00,1.988000512123107910e+00,1.987798929214477539e+00,1.987597346305847168e+00,1.987395524978637695e+00,1.987194061279296875e+00,1.986992597579956055e+00,1.986790895462036133e+00,1.986589550971984863e+00,1.986388206481933594e+00,1.986186742782592773e+00,1.985985517501831055e+00,1.985784292221069336e+00,1.985583066940307617e+00,1.985381722450256348e+00,1.985180616378784180e+00,1.984979391098022461e+00,1.984778404235839844e+00,1.984577417373657227e+00,1.984376192092895508e+00,1.984175324440002441e+00,1.983974456787109375e+00,1.983773708343505859e+00,1.983572840690612793e+00,1.983371973037719727e+00,1.983171224594116211e+00,1.982970595359802246e+00,1.982769966125488281e+00,1.982569456100463867e+00,1.982368707656860352e+00,1.982168197631835938e+00,1.981967806816101074e+00,1.981767296791076660e+00,1.981566786766052246e+00,1.981366395950317383e+00,1.981166124343872070e+00,1.980965852737426758e+00,1.980765700340270996e+00,1.980565309524536133e+00,1.980365157127380371e+00,1.980165123939514160e+00,1.979965090751647949e+00,1.979765057563781738e+00,1.979564905166625977e+00,1.979364991188049316e+00,1.979165077209472656e+00,1.978965282440185547e+00,1.978765487670898438e+00,1.978565454483032227e+00,1.978365778923034668e+00,1.978166103363037109e+00,1.977966427803039551e+00,1.977766633033752441e+00,1.977567076683044434e+00,1.977367520332336426e+00,1.977168083190917969e+00,1.976968646049499512e+00,1.976768970489501953e+00,1.976569652557373047e+00,1.976370334625244141e+00,1.976171016693115234e+00,1.975971817970275879e+00,1.975772380828857422e+00,1.975573182106018066e+00,1.975374102592468262e+00,1.975175023078918457e+00,1.974975824356079102e+00,1.974776744842529297e+00,1.974577784538269043e+00,1.974378943443298340e+00,1.974179983139038086e+00,1.973981022834777832e+00,1.973782181739807129e+00,1.973583459854125977e+00,1.973384737968444824e+00,1.973186016082763672e+00,1.972987174987792969e+00,1.972788572311401367e+00,1.972590088844299316e+00,1.972391486167907715e+00
1.777714133262634277e+00,1.777552843093872070e+00,1.777391552925109863e+00,1.777230381965637207e+00,1.777069211006164551e+00,1.776908040046691895e+00,1.776746869087219238e+00,1.776585817337036133e+00,1.776424765586853027e+00,1.776263594627380371e+00,1.776102662086486816e+00,1.775941729545593262e+00,1.775780558586120605e+00,1.775619745254516602e+00,1.775458812713623047e+00,1.775297999382019043e+00,1.775137066841125488e+00,1.774976253509521484e+00,1.774815559387207031e+00,1.774654626846313477e+00,1.774493813514709473e+00,1.774333119392395020e+00,1.774172544479370117e+00,1.774011969566345215e+00,1.773851394653320312e+00,1.773690700531005859e+00,1.773530244827270508e+00,1.773369789123535156e+00,1.773209333419799805e+00,1.773048639297485352e+00,1.772888302803039551e+00,1.772727966308593750e+00,1.772567629814147949e+00,1.772407293319702148e+00,1.772246837615966797e+00,1.772086620330810547e+00,1.771926403045654297e+00,1.771766185760498047e+00,1.771606087684631348e+00,1.771445751190185547e+00,1.771285653114318848e+00,1.771125674247741699e+00,1.770965576171875000e+00,1.770805358886718750e+00,1.770645380020141602e+00,1.770485401153564453e+00,1.770325541496276855e+00,1.770165681838989258e+00,1.770005583763122559e+00,1.769845724105834961e+00,1.769685983657836914e+00,1.769526124000549316e+00,1.769366383552551270e+00,1.769206523895263672e+00,1.769046783447265625e+00,1.768887162208557129e+00,1.768727540969848633e+00,1.768567919731140137e+00,1.768408179283142090e+00,1.768248677253723145e+00,1.768089175224304199e+00,1.767929673194885254e+00,1.767770051956176758e+00,1.767610549926757812e+00,1.767451167106628418e+00,1.767291784286499023e+00,1.767132401466369629e+00,1.766972899436950684e+00,1.766813635826110840e+00,1.766654372215270996e+00,1.766495227813720703e+00,1.766335964202880859e+00,1.766176581382751465e+00,1.766017436981201172e+00,1.765858411788940430e+00,1.765699267387390137e+00,1.765540242195129395e+00,1.765381097793579102e+00,1.765222072601318359e+00,1.765063166618347168e+00
1.607527494430541992e+00,1.607395529747009277e+00,1.607263684272766113e+00,1.607131838798522949e+00,1.606999993324279785e+00,1.606868267059326172e+00,1.606736540794372559e+00,1.606604814529418945e+00,1.606472969055175781e+00,1.606341242790222168e+00,1.606209635734558105e+00,1.606077909469604492e+00,1.605946302413940430e+00,1.605814695358276367e+00,1.605682969093322754e+00,1.605551481246948242e+00,1.605419874191284180e+00,1.605288267135620117e+00,1.605156779289245605e+00,1.605025410652160645e+00,1.604893922805786133e+00,1.604762434959411621e+00,1.604630947113037109e+00,1.604499459266662598e+00,1.604368090629577637e+00,1.604236721992492676e+00,1.604105353355407715e+00,1.603974103927612305e+00,1.603842854499816895e+00,1.603711605072021484e+00,1.603580236434936523e+00,1.603449106216430664e+00,1.603317856788635254e+00,1.603186726570129395e+00,1.603055596351623535e+00,1.602924346923828125e+00,1.602793335914611816e+00,1.602662205696105957e+00,1.602531194686889648e+00,1.602400064468383789e+00,1.602269053459167480e+00,1.602138042449951172e+00,1.602007031440734863e+00,1.601876139640808105e+00,1.601745128631591797e+00,1.601614236831665039e+00,1.601483345031738281e+00,1.601352453231811523e+00,1.601221680641174316e+00,1.601090669631958008e+00,1.600959897041320801e+00,1.600829124450683594e+00,1.600698471069335938e+00,1.600567698478698730e+00,1.600436925888061523e+00,1.600306153297424316e+00,1.600175499916076660e+00,1.600044965744018555e+00,1.599914073944091797e+00,1.599783539772033691e+00,1.599653005599975586e+00,1.599522352218627930e+00,1.599391818046569824e+00,1.599261164665222168e+00,1.599130749702453613e+00,1.599000215530395508e+00,1.598869800567626953e+00,1.598739385604858398e+00,1.598608851432800293e+00,1.598478436470031738e+00,1.598348140716552734e+00,1.598217844963073730e+00,1.598087310791015625e+00,1.597957015037536621e+00,1.597826719284057617e+00,1.597696542739868164e+00,1.597566246986389160e+00,1.597435951232910156e+00,1.597305774688720703e+00,1.597175598144531250e+00
1.467078924179077148e+00,1.466969132423400879e+00,1.466859340667724609e+00,1.466749429702758789e+00,1.466639637947082520e+00,1.466529846191406250e+00,1.466420054435729980e+00,1.466310262680053711e+00,1.466200590133666992e+00,1.466090798377990723e+00,1.465981125831604004e+00,1.465871572494506836e+00,1.465761899948120117e+00,1.465652108192443848e+00,1.465542554855346680e+00,1.465433001518249512e+00,1.465323328971862793e+00,1.465213775634765625e+00,1.465104222297668457e+00,1.464994549751281738e+00,1.464885115623474121e+00,1.464775562286376953e+00,1.464666128158569336e+00,1.464556574821472168e+00,1.464447140693664551e+00,1.464337706565856934e+00,1.464228153228759766e+00,1.464118719100952148e+00,1.464009284973144531e+00,1.463899970054626465e+00,1.463790535926818848e+00,1.463681221008300781e+00,1.463571906089782715e+00,1.463462591171264648e+00,1.463353395462036133e+00,1.463243961334228516e+00,1.463134765625000000e+00,1.463025569915771484e+00,1.462916374206542969e+00,1.462807178497314453e+00,1.462697863578796387e+00,1.462588667869567871e+00,1.462479591369628906e+00,1.462370395660400391e+00,1.462261319160461426e+00,1.462152123451232910e+00,1.462043046951293945e+00,1.461933970451354980e+00,1.461825013160705566e+00,1.461715817451477051e+00,1.461606860160827637e+00,1.461497783660888672e+00,1.461388826370239258e+00,1.461279869079589844e+00,1.461170792579650879e+00,1.461061954498291016e+00,1.460952997207641602e+00,1.460844159126281738e+00,1.460735201835632324e+00,1.460626244544982910e+00,1.460517406463623047e+00,1.460408568382263184e+00,1.460299730300903320e+00,1.460191011428833008e+00,1.460082054138183594e+00,1.459973335266113281e+00,1.459864616394042969e+00,1.459755897521972656e+00,1.459647059440612793e+00,1.459538340568542480e+00,1.459429621696472168e+00,1.459321022033691406e+00,1.459212303161621094e+00,1.459103584289550781e+00,1.458994984626770020e+00,1.458886384963989258e+00,1.458777785301208496e+00,1.458669185638427734e+00,1.458560466766357422e+00,1.458451986312866211e+00
1.349200248718261719e+00,1.349107265472412109e+00,1.349014401435852051e+00,1.348921537399291992e+00,1.348828673362731934e+00,1.348735809326171875e+00,1.348642945289611816e+00,1.348550200462341309e+00,1.348457336425781250e+00,1.348364591598510742e+00,1.348271727561950684e+00,1.348178982734680176e+00,1.348086237907409668e+00,1.347993493080139160e+00,1.347900748252868652e+00,1.347808003425598145e+00,1.347715258598327637e+00,1.347622632980346680e+00,1.347529888153076172e+00,1.347437262535095215e+00,1.347344636917114258e+00,1.347251892089843750e+00,1.347159385681152344e+00,1.347066760063171387e+00,1.346974015235900879e+00,1.346881508827209473e+00,1.346788883209228516e+00,1.346696376800537109e+00,1.346603751182556152e+00,1.346511244773864746e+00,1.346418738365173340e+00,1.346326112747192383e+00,1.346233606338500977e+00,1.346141099929809570e+00,1.346048712730407715e+00,1.345956206321716309e+00,1.345863699913024902e+00,1.345771312713623047e+00,1.345678925514221191e+00,1.345586538314819336e+00,1.345494031906127930e+00,1.345401644706726074e+00,1.345309257507324219e+00,1.345216989517211914e+00,1.345124602317810059e+00,1.345032215118408203e+00,1.344939947128295898e+00,1.344847679138183594e+00,1.344755411148071289e+00,1.344663143157958984e+00,1.344570755958557129e+00,1.344478487968444824e+00,1.344386339187622070e+00,1.344294071197509766e+00,1.344201922416687012e+00,1.344109654426574707e+00,1.344017386436462402e+00,1.343925237655639648e+00,1.343833088874816895e+00,1.343740940093994141e+00,1.343648791313171387e+00,1.343556642532348633e+00,1.343464612960815430e+00,1.343372464179992676e+00,1.343280315399169922e+00,1.343188285827636719e+00,1.343096137046813965e+00,1.343004107475280762e+00,1.342912197113037109e+00,1.342820048332214355e+00,1.342728018760681152e+00,1.342635989189147949e+00,1.342544078826904297e+00,1.342452168464660645e+00,1.342360019683837891e+00,1.342268109321594238e+00,1.342176198959350586e+00,1.342084288597106934e+00,1.341992259025573730e+00,1.341900467872619629e+00
1.248855590820312500e+00,1.248776078224182129e+00,1.248696446418762207e+00,1.248616814613342285e+00,1.248537302017211914e+00,1.248457789421081543e+00,1.248378157615661621e+00,1.248298645019531250e+00,1.248219132423400879e+00,1.248139619827270508e+00,1.248060107231140137e+00,1.247980594635009766e+00,1.247901201248168945e+00,1.247821569442749023e+00,1.247742176055908203e+00,1.247662782669067383e+00,1.247583270072937012e+00,1.247503876686096191e+00,1.247424364089965820e+00,1.247345089912414551e+00,1.247265577316284180e+00,1.247186183929443359e+00,1.247106790542602539e+00,1.247027397155761719e+00,1.246948003768920898e+00,1.246868729591369629e+00,1.246789336204528809e+00,1.246710062026977539e+00,1.246630668640136719e+00,1.246551394462585449e+00,1.246472001075744629e+00,1.246392846107482910e+00,1.246313571929931641e+00,1.246234178543090820e+00,1.246154904365539551e+00,1.246075630187988281e+00,1.245996356010437012e+00,1.245917081832885742e+00,1.245837926864624023e+00,1.245758771896362305e+00,1.245679616928100586e+00,1.245600342750549316e+00,1.245521187782287598e+00,1.245442032814025879e+00,1.245362877845764160e+00,1.245283722877502441e+00,1.245204567909240723e+00,1.245125412940979004e+00,1.245046377182006836e+00,1.244967222213745117e+00,1.244888186454772949e+00,1.244809031486511230e+00,1.244729995727539062e+00,1.244650959968566895e+00,1.244571924209594727e+00,1.244492769241333008e+00,1.244413733482360840e+00,1.244334697723388672e+00,1.244255781173706055e+00,1.244176745414733887e+00,1.244097709655761719e+00,1.244018673896789551e+00,1.243939757347106934e+00,1.243860840797424316e+00,1.243781924247741699e+00,1.243702888488769531e+00,1.243623971939086914e+00,1.243545055389404297e+00,1.243466138839721680e+00,1.243387222290039062e+00,1.243308305740356445e+00,1.243229508399963379e+00,1.243150591850280762e+00,1.243071794509887695e+00,1.242992877960205078e+00,1.242913961410522461e+00,1.242835164070129395e+00,1.242756366729736328e+00,1.242677569389343262e+00,1.242598772048950195e+00
1.162403702735900879e+00,1.162334799766540527e+00,1.162265777587890625e+00,1.162196874618530273e+00,1.162127971649169922e+00,1.162058949470520020e+00,1.161990165710449219e+00,1.161921262741088867e+00,1.161852240562438965e+00,1.161783337593078613e+00,1.161714553833007812e+00,1.161645650863647461e+00,1.161576747894287109e+00,1.161507964134216309e+00,1.161439061164855957e+00,1.161370158195495605e+00,1.161301374435424805e+00,1.161232590675354004e+00,1.161163687705993652e+00,1.161094903945922852e+00,1.161026120185852051e+00,1.160957336425781250e+00,1.160888552665710449e+00,1.160819768905639648e+00,1.160750985145568848e+00,1.160682201385498047e+00,1.160613417625427246e+00,1.160544753074645996e+00,1.160475969314575195e+00,1.160407185554504395e+00,1.160338521003723145e+00,1.160269737243652344e+00,1.160201072692871094e+00,1.160132408142089844e+00,1.160063743591308594e+00,1.159994959831237793e+00,1.159926295280456543e+00,1.159857630729675293e+00,1.159788846969604492e+00,1.159720301628112793e+00,1.159651637077331543e+00,1.159582972526550293e+00,1.159514307975769043e+00,1.159445762634277344e+00,1.159377217292785645e+00,1.159308552742004395e+00,1.159239888191223145e+00,1.159171342849731445e+00,1.159102797508239746e+00,1.159034252166748047e+00,1.158965706825256348e+00,1.158897161483764648e+00,1.158828616142272949e+00,1.158760070800781250e+00,1.158691525459289551e+00,1.158623099327087402e+00,1.158554553985595703e+00,1.158486008644104004e+00,1.158417582511901855e+00,1.158349156379699707e+00,1.158280730247497559e+00,1.158212184906005859e+00,1.158143758773803711e+00,1.158075332641601562e+00,1.158006906509399414e+00,1.157938361167907715e+00,1.157869935035705566e+00,1.157801508903503418e+00,1.157733201980590820e+00,1.157664775848388672e+00,1.157596349716186523e+00,1.157527923583984375e+00,1.157459616661071777e+00,1.157391309738159180e+00,1.157322883605957031e+00,1.157254457473754883e+00,1.157186150550842285e+00,1.157117843627929688e+00,1.157049536705017090e+00,1.156981229782104492e+00
1.087146162986755371e+00,1.087085843086242676e+00,1.087025523185729980e+00,1.086965203285217285e+00,1.086904883384704590e+00,1.086844563484191895e+00,1.086784362792968750e+00,1.086724042892456055e+00,1.086663722991943359e+00,1.086603522300720215e+00,1.086543202400207520e+00,1.086483001708984375e+00,1.086422801017761230e+00,1.086362600326538086e+00,1.086302280426025391e+00,1.086242079734802246e+00,1.086181879043579102e+00,1.086121559143066406e+00,1.086061477661132812e+00,1.086001276969909668e+00,1.085940957069396973e+00,1.085880875587463379e+00,1.085820674896240234e+00,1.085760474205017090e+00,1.085700273513793945e+00,1.085640192031860352e+00,1.085579991340637207e+00,1.085519909858703613e+00,1.085459709167480469e+00,1.085399627685546875e+00,1.085339426994323730e+00,1.085279345512390137e+00,1.085219264030456543e+00,1.085159063339233398e+00,1.085098981857299805e+00,1.085039019584655762e+00,1.084978938102722168e+00,1.084918737411499023e+00,1.084858775138854980e+00,1.084798693656921387e+00,1.084738492965698242e+00,1.084678530693054199e+00,1.084618330001831055e+00,1.084558367729187012e+00,1.084498286247253418e+00,1.084438323974609375e+00,1.084378361701965332e+00,1.084318280220031738e+00,1.084258317947387695e+00,1.084198355674743652e+00,1.084138393402099609e+00,1.084078311920166016e+00,1.084018349647521973e+00,1.083958387374877930e+00,1.083898425102233887e+00,1.083838462829589844e+00,1.083778500556945801e+00,1.083718538284301758e+00,1.083658695220947266e+00,1.083598732948303223e+00,1.083538889884948730e+00,1.083478927612304688e+00,1.083418965339660645e+00,1.083359122276306152e+00,1.083299279212951660e+00,1.083239316940307617e+00,1.083179354667663574e+00,1.083119511604309082e+00,1.083059668540954590e+00,1.082999825477600098e+00,1.082939982414245605e+00,1.082880139350891113e+00,1.082820296287536621e+00,1.082760453224182129e+00,1.082700610160827637e+00,1.082640767097473145e+00,1.082580924034118652e+00,1.082521200180053711e+00,1.082461357116699219e+00,1.082401633262634277e+00
1.021040797233581543e+00,1.020987629890441895e+00,1.020934343338012695e+00,1.020881175994873047e+00,1.020828008651733398e+00,1.020774841308593750e+00,1.020721673965454102e+00,1.020668506622314453e+00,1.020615339279174805e+00,1.020562171936035156e+00,1.020509004592895508e+00,1.020455837249755859e+00,1.020402669906616211e+00,1.020349621772766113e+00,1.020296454429626465e+00,1.020243287086486816e+00,1.020190119743347168e+00,1.020137071609497070e+00,1.020084023475646973e+00,1.020030856132507324e+00,1.019977688789367676e+00,1.019924640655517578e+00,1.019871592521667480e+00,1.019818425178527832e+00,1.019765377044677734e+00,1.019712328910827637e+00,1.019659280776977539e+00,1.019606232643127441e+00,1.019553184509277344e+00,1.019500017166137695e+00,1.019447088241577148e+00,1.019394040107727051e+00,1.019340991973876953e+00,1.019287943840026855e+00,1.019234895706176758e+00,1.019181847572326660e+00,1.019128918647766113e+00,1.019075870513916016e+00,1.019022822380065918e+00,1.018969893455505371e+00,1.018916845321655273e+00,1.018863916397094727e+00,1.018810868263244629e+00,1.018757939338684082e+00,1.018705010414123535e+00,1.018651962280273438e+00,1.018598914146423340e+00,1.018545985221862793e+00,1.018493056297302246e+00,1.018440127372741699e+00,1.018387198448181152e+00,1.018334269523620605e+00,1.018281340599060059e+00,1.018228411674499512e+00,1.018175482749938965e+00,1.018122673034667969e+00,1.018069744110107422e+00,1.018016815185546875e+00,1.017963886260986328e+00,1.017911076545715332e+00,1.017858147621154785e+00,1.017805337905883789e+00,1.017752408981323242e+00,1.017699599266052246e+00,1.017646789550781250e+00,1.017593860626220703e+00,1.017541050910949707e+00,1.017488241195678711e+00,1.017435431480407715e+00,1.017382621765136719e+00,1.017329812049865723e+00,1.017276883125305176e+00,1.017224073410034180e+00,1.017171263694763184e+00,1.017118573188781738e+00,1.017065763473510742e+00,1.017012953758239746e+00,1.016960144042968750e+00,1.016907334327697754e+00,1.016854643821716309e+00
9.625140428543090820e-01,9.624666571617126465e-01,9.624193906784057617e-01,9.623721241950988770e-01,9.623248577117919922e-01,9.622776508331298828e-01,9.622303843498229980e-01,9.621830582618713379e-01,9.621357917785644531e-01,9.620885848999023438e-01,9.620413780212402344e-01,9.619941115379333496e-01,9.619469046592712402e-01,9.618996977806091309e-01,9.618523716926574707e-01,9.618052244186401367e-01,9.617580175399780273e-01,9.617108106613159180e-01,9.616636037826538086e-01,9.616164565086364746e-01,9.615691304206848145e-01,9.615219831466674805e-01,9.614748358726501465e-01,9.614276289939880371e-01,9.613804817199707031e-01,9.613333344459533691e-01,9.612861871719360352e-01,9.612389206886291504e-01,9.611917734146118164e-01,9.611446857452392578e-01,9.610975384712219238e-01,9.610503911972045898e-01,9.610033035278320312e-01,9.609561562538146973e-01,9.609089493751525879e-01,9.608618021011352539e-01,9.608147144317626953e-01,9.607676267623901367e-01,9.607205390930175781e-01,9.606734514236450195e-01,9.606262445449829102e-01,9.605791568756103516e-01,9.605320692062377930e-01,9.604850411415100098e-01,9.604379534721374512e-01,9.603908658027648926e-01,9.603438377380371094e-01,9.602966904640197754e-01,9.602496027946472168e-01,9.602024555206298828e-01,9.601554274559020996e-01,9.601083993911743164e-01,9.600613713264465332e-01,9.600143432617187500e-01,9.599673151969909668e-01,9.599202871322631836e-01,9.598733186721801758e-01,9.598262906074523926e-01,9.597791433334350586e-01,9.597321748733520508e-01,9.596852064132690430e-01,9.596381783485412598e-01,9.595912098884582520e-01,9.595442414283752441e-01,9.594972729682922363e-01,9.594503045082092285e-01,9.594033360481262207e-01,9.593562483787536621e-01,9.593092799186706543e-01,9.592623114585876465e-01,9.592154026031494141e-01,9.591684341430664062e-01,9.591215252876281738e-01,9.590745568275451660e-01,9.590276479721069336e-01,9.589807391166687012e-01,9.589338302612304688e-01,9.588868021965026855e-01,9.588398933410644531e-01,9.587929844856262207e-01
9.103329777717590332e-01,9.102906584739685059e-01,9.102483987808227539e-01,9.102060198783874512e-01,9.101637601852416992e-01,9.101215004920959473e-01,9.100792407989501953e-01,9.100369811058044434e-01,9.099947214126586914e-01,9.099524021148681641e-01,9.099101424217224121e-01,9.098678827285766602e-01,9.098256230354309082e-01,9.097834229469299316e-01,9.097411632537841797e-01,9.096989631652832031e-01,9.096566438674926758e-01,9.096144437789916992e-01,9.095722436904907227e-01,9.095299839973449707e-01,9.094877839088439941e-01,9.094455838203430176e-01,9.094033241271972656e-01,9.093611240386962891e-01,9.093189239501953125e-01,9.092767238616943359e-01,9.092345237731933594e-01,9.091923832893371582e-01,9.091501832008361816e-01,9.091079235076904297e-01,9.090657830238342285e-01,9.090235829353332520e-01,9.089814424514770508e-01,9.089393019676208496e-01,9.088971614837646484e-01,9.088550209999084473e-01,9.088127613067626953e-01,9.087706208229064941e-01,9.087284803390502930e-01,9.086863398551940918e-01,9.086441993713378906e-01,9.086021184921264648e-01,9.085598587989807129e-01,9.085177779197692871e-01,9.084756374359130859e-01,9.084335565567016602e-01,9.083914756774902344e-01,9.083493351936340332e-01,9.083072543144226074e-01,9.082650542259216309e-01,9.082229733467102051e-01,9.081808924674987793e-01,9.081388115882873535e-01,9.080966114997863770e-01,9.080545902252197266e-01,9.080125093460083008e-01,9.079704284667968750e-01,9.079283475875854492e-01,9.078862071037292480e-01,9.078441858291625977e-01,9.078021049499511719e-01,9.077600836753845215e-01,9.077180027961730957e-01,9.076759815216064453e-01,9.076339602470397949e-01,9.075919389724731445e-01,9.075499176979064941e-01,9.075078964233398438e-01,9.074657559394836426e-01,9.074237346649169922e-01,9.073817729949951172e-01,9.073397517204284668e-01,9.072977304458618164e-01,9.072557091712951660e-01,9.072137475013732910e-01,9.071717262268066406e-01,9.071297645568847656e-01,9.070876836776733398e-01,9.070457220077514648e-01,9.070037007331848145e-01
8.635187745094299316e-01,8.634806871414184570e-01,8.634426593780517578e-01,8.634046316146850586e-01,8.633664846420288086e-01,8.633284568786621094e-01,8.632904291152954102e-01,8.632524013519287109e-01,8.632144331932067871e-01,8.631764054298400879e-01,8.631383776664733887e-01,8.631002902984619141e-01,8.630622625350952148e-01,8.630242943763732910e-01,8.629862666130065918e-01,8.629482984542846680e-01,8.629102706909179688e-01,8.628723025321960449e-01,8.628342151641845703e-01,8.627962470054626465e-01,8.627582788467407227e-01,8.627202510833740234e-01,8.626822829246520996e-01,8.626443147659301758e-01,8.626062870025634766e-01,8.625683188438415527e-01,8.625303506851196289e-01,8.624923825263977051e-01,8.624544739723205566e-01,8.624165058135986328e-01,8.623785376548767090e-01,8.623405098915100098e-01,8.623026013374328613e-01,8.622646331787109375e-01,8.622267246246337891e-01,8.621887564659118652e-01,8.621508479118347168e-01,8.621128201484680176e-01,8.620749115943908691e-01,8.620370030403137207e-01,8.619990944862365723e-01,8.619611859321594238e-01,8.619232773780822754e-01,8.618853688240051270e-01,8.618474006652832031e-01,8.618094921112060547e-01,8.617715835571289062e-01,8.617337346076965332e-01,8.616958260536193848e-01,8.616579174995422363e-01,8.616200685501098633e-01,8.615821003913879395e-01,8.615441918373107910e-01,8.615063428878784180e-01,8.614684939384460449e-01,8.614306449890136719e-01,8.613927364349365234e-01,8.613548278808593750e-01,8.613169789314270020e-01,8.612790107727050781e-01,8.612411618232727051e-01,8.612033128738403320e-01,8.611655235290527344e-01,8.611276745796203613e-01,8.610898256301879883e-01,8.610519766807556152e-01,8.610141873359680176e-01,8.609763383865356445e-01,8.609384298324584961e-01,8.609006404876708984e-01,8.608627915382385254e-01,8.608250021934509277e-01,8.607872128486633301e-01,8.607493638992309570e-01,8.607115745544433594e-01,8.606737852096557617e-01,8.606359958648681641e-01,8.605982065200805664e-01,8.605603575706481934e-01,8.605225682258605957e-01
8.212839365005493164e-01,8.212494850158691406e-01,8.212150931358337402e-01,8.211807012557983398e-01,8.211463093757629395e-01,8.211118578910827637e-01,8.210774064064025879e-01,8.210430145263671875e-01,8.210086226463317871e-01,8.209742307662963867e-01,8.209398388862609863e-01,8.209054470062255859e-01,8.208710551261901855e-01,8.208366036415100098e-01,8.208022713661193848e-01,8.207678794860839844e-01,8.207334876060485840e-01,8.206991553306579590e-01,8.206647634506225586e-01,8.206303715705871582e-01,8.205959796905517578e-01,8.205616474151611328e-01,8.205272555351257324e-01,8.204929232597351074e-01,8.204585909843444824e-01,8.204242587089538574e-01,8.203898072242736816e-01,8.203554749488830566e-01,8.203211426734924316e-01,8.202868103981018066e-01,8.202524781227111816e-01,8.202181458473205566e-01,8.201838135719299316e-01,8.201494216918945312e-01,8.201150894165039062e-01,8.200808167457580566e-01,8.200464844703674316e-01,8.200122117996215820e-01,8.199778795242309570e-01,8.199434876441955566e-01,8.199092149734497070e-01,8.198748826980590820e-01,8.198406100273132324e-01,8.198062777519226074e-01,8.197720050811767578e-01,8.197377324104309082e-01,8.197033405303955078e-01,8.196690678596496582e-01,8.196347951889038086e-01,8.196005225181579590e-01,8.195662498474121094e-01,8.195319771766662598e-01,8.194976449012756348e-01,8.194633722305297852e-01,8.194290995597839355e-01,8.193948864936828613e-01,8.193606138229370117e-01,8.193263411521911621e-01,8.192921280860900879e-01,8.192577958106994629e-01,8.192234635353088379e-01,8.191891908645629883e-01,8.191549777984619141e-01,8.191207647323608398e-01,8.190864920616149902e-01,8.190522789955139160e-01,8.190180659294128418e-01,8.189838528633117676e-01,8.189495801925659180e-01,8.189153075218200684e-01,8.188810944557189941e-01,8.188468813896179199e-01,8.188126683235168457e-01,8.187784552574157715e-01,8.187442421913146973e-01,8.187100887298583984e-01,8.186758756637573242e-01,8.186416625976562500e-01,8.186073899269104004e-01,8.185732364654541016e-01
7.829879522323608398e-01,7.829566597938537598e-01,7.829253673553466797e-01,7.828940749168395996e-01,7.828627824783325195e-01,7.828315496444702148e-01,7.828002572059631348e-01,7.827690243721008301e-01,7.827376723289489746e-01,7.827063798904418945e-01,7.826751470565795898e-01,7.826439142227172852e-01,7.826126217842102051e-01,7.825813889503479004e-01,7.825501561164855957e-01,7.825188040733337402e-01,7.824875712394714355e-01,7.824563384056091309e-01,7.824251055717468262e-01,7.823938727378845215e-01,7.823626399040222168e-01,7.823313474655151367e-01,7.823001146316528320e-01,7.822688817977905273e-01,7.822376489639282227e-01,7.822064757347106934e-01,7.821752429008483887e-01,7.821440100669860840e-01,7.821127176284790039e-01,7.820815443992614746e-01,7.820503115653991699e-01,7.820191383361816406e-01,7.819879055023193359e-01,7.819567322731018066e-01,7.819254398345947266e-01,7.818942666053771973e-01,7.818630337715148926e-01,7.818318605422973633e-01,7.818006873130798340e-01,7.817695140838623047e-01,7.817383408546447754e-01,7.817070484161376953e-01,7.816758751869201660e-01,7.816447019577026367e-01,7.816135287284851074e-01,7.815823554992675781e-01,7.815511822700500488e-01,7.815200686454772949e-01,7.814888358116149902e-01,7.814576625823974609e-01,7.814264893531799316e-01,7.813953161239624023e-01,7.813642024993896484e-01,7.813330292701721191e-01,7.813017964363098145e-01,7.812706828117370605e-01,7.812395095825195312e-01,7.812083959579467773e-01,7.811772823333740234e-01,7.811461091041564941e-01,7.811149954795837402e-01,7.810837626457214355e-01,7.810526490211486816e-01,7.810215353965759277e-01,7.809903621673583984e-01,7.809592485427856445e-01,7.809281349182128906e-01,7.808970212936401367e-01,7.808659076690673828e-01,7.808346748352050781e-01,7.808035612106323242e-01,7.807725071907043457e-01,7.807413935661315918e-01,7.807102799415588379e-01,7.806791663169860840e-01,7.806481122970581055e-01,7.806169986724853516e-01,7.805858850479125977e-01,7.805548310279846191e-01,7.805236577987670898e-01
7.481042742729187012e-01,7.480756640434265137e-01,7.480471134185791016e-01,7.480185031890869141e-01,7.479899525642395020e-01,7.479614615440368652e-01,7.479329109191894531e-01,7.479043602943420410e-01,7.478758096694946289e-01,7.478472590446472168e-01,7.478186488151550293e-01,7.477901577949523926e-01,7.477616071701049805e-01,7.477330565452575684e-01,7.477045655250549316e-01,7.476760149002075195e-01,7.476475238800048828e-01,7.476189136505126953e-01,7.475904226303100586e-01,7.475618720054626465e-01,7.475333809852600098e-01,7.475048899650573730e-01,7.474763393402099609e-01,7.474477887153625488e-01,7.474192976951599121e-01,7.473908066749572754e-01,7.473623156547546387e-01,7.473338246345520020e-01,7.473052740097045898e-01,7.472767829895019531e-01,7.472482323646545410e-01,7.472197413444519043e-01,7.471912503242492676e-01,7.471628189086914062e-01,7.471343278884887695e-01,7.471058368682861328e-01,7.470772862434387207e-01,7.470487952232360840e-01,7.470203638076782227e-01,7.469918727874755859e-01,7.469633817672729492e-01,7.469349503517150879e-01,7.469064593315124512e-01,7.468779087066650391e-01,7.468494772911071777e-01,7.468209862709045410e-01,7.467925548553466797e-01,7.467641234397888184e-01,7.467356324195861816e-01,7.467072010040283203e-01,7.466787099838256836e-01,7.466502189636230469e-01,7.466217875480651855e-01,7.465933561325073242e-01,7.465649247169494629e-01,7.465364933013916016e-01,7.465080022811889648e-01,7.464795708656311035e-01,7.464511394500732422e-01,7.464227080345153809e-01,7.463942766189575195e-01,7.463658452033996582e-01,7.463374137878417969e-01,7.463089227676391602e-01,7.462805509567260742e-01,7.462521195411682129e-01,7.462236881256103516e-01,7.461952567100524902e-01,7.461668252944946289e-01,7.461383938789367676e-01,7.461099028587341309e-01,7.460815310478210449e-01,7.460530996322631836e-01,7.460247278213500977e-01,7.459963560104370117e-01,7.459679245948791504e-01,7.459395527839660645e-01,7.459111809730529785e-01,7.458827495574951172e-01,7.458543777465820312e-01
7.161962389945983887e-01,7.161700725555419922e-01,7.161439061164855957e-01,7.161177396774291992e-01,7.160915732383728027e-01,7.160653471946716309e-01,7.160391807556152344e-01,7.160130143165588379e-01,7.159868478775024414e-01,7.159606814384460449e-01,7.159345746040344238e-01,7.159084081649780273e-01,7.158821821212768555e-01,7.158560752868652344e-01,7.158299088478088379e-01,7.158037424087524414e-01,7.157776355743408203e-01,7.157514691352844238e-01,7.157253026962280273e-01,7.156991362571716309e-01,7.156730294227600098e-01,7.156468629837036133e-01,7.156207561492919922e-01,7.155946493148803711e-01,7.155684828758239746e-01,7.155423164367675781e-01,7.155162096023559570e-01,7.154900431632995605e-01,7.154639363288879395e-01,7.154378294944763184e-01,7.154117226600646973e-01,7.153856158256530762e-01,7.153594493865966797e-01,7.153333425521850586e-01,7.153072357177734375e-01,7.152811288833618164e-01,7.152550220489501953e-01,7.152289152145385742e-01,7.152027487754821777e-01,7.151766419410705566e-01,7.151505351066589355e-01,7.151244878768920898e-01,7.150983810424804688e-01,7.150722742080688477e-01,7.150462269783020020e-01,7.150200605392456055e-01,7.149939537048339844e-01,7.149679064750671387e-01,7.149417996406555176e-01,7.149157524108886719e-01,7.148896455764770508e-01,7.148635387420654297e-01,7.148374319076538086e-01,7.148113846778869629e-01,7.147853374481201172e-01,7.147592306137084961e-01,7.147331833839416504e-01,7.147071361541748047e-01,7.146809697151184082e-01,7.146549224853515625e-01,7.146288752555847168e-01,7.146028280258178711e-01,7.145767807960510254e-01,7.145507335662841797e-01,7.145246863365173340e-01,7.144985795021057129e-01,7.144725322723388672e-01,7.144464850425720215e-01,7.144204378128051758e-01,7.143943905830383301e-01,7.143683433532714844e-01,7.143421769142150879e-01,7.143161296844482422e-01,7.142901420593261719e-01,7.142640948295593262e-01,7.142380475997924805e-01,7.142120599746704102e-01,7.141860127449035645e-01,7.141599655151367188e-01,7.141339778900146484e-01
6.868988275527954102e-01,6.868746876716613770e-01,6.868506073951721191e-01,6.868265271186828613e-01,6.868024468421936035e-01,6.867784261703491211e-01,6.867543458938598633e-01,6.867302060127258301e-01,6.867061853408813477e-01,6.866821050643920898e-01,6.866580247879028320e-01,6.866340041160583496e-01,6.866099238395690918e-01,6.865859031677246094e-01,6.865617632865905762e-01,6.865377426147460938e-01,6.865136623382568359e-01,6.864896416664123535e-01,6.864655613899230957e-01,6.864415407180786133e-01,6.864174604415893555e-01,6.863933801651000977e-01,6.863693594932556152e-01,6.863453388214111328e-01,6.863213181495666504e-01,6.862972974777221680e-01,6.862732172012329102e-01,6.862491369247436523e-01,6.862251162528991699e-01,6.862010955810546875e-01,6.861770749092102051e-01,6.861530542373657227e-01,6.861290335655212402e-01,6.861049532890319824e-01,6.860809326171875000e-01,6.860569119453430176e-01,6.860328912734985352e-01,6.860089302062988281e-01,6.859849095344543457e-01,6.859608888626098633e-01,6.859368085861206055e-01,6.859127879142761230e-01,6.858888268470764160e-01,6.858648061752319336e-01,6.858407855033874512e-01,6.858168244361877441e-01,6.857928037643432617e-01,6.857687830924987793e-01,6.857447624206542969e-01,6.857208013534545898e-01,6.856967806816101074e-01,6.856728196144104004e-01,6.856487989425659180e-01,6.856247782707214355e-01,6.856008172035217285e-01,6.855767965316772461e-01,6.855528354644775391e-01,6.855288743972778320e-01,6.855048537254333496e-01,6.854808926582336426e-01,6.854568719863891602e-01,6.854329109191894531e-01,6.854089498519897461e-01,6.853849291801452637e-01,6.853609681129455566e-01,6.853370070457458496e-01,6.853129863739013672e-01,6.852890253067016602e-01,6.852650642395019531e-01,6.852411031723022461e-01,6.852171421051025391e-01,6.851932406425476074e-01,6.851692795753479004e-01,6.851452589035034180e-01,6.851212978363037109e-01,6.850972771644592285e-01,6.850733757019042969e-01,6.850494146347045898e-01,6.850254535675048828e-01,6.850015521049499512e-01
6.599040627479553223e-01,6.598818302154541016e-01,6.598595976829528809e-01,6.598373651504516602e-01,6.598151326179504395e-01,6.597929596900939941e-01,6.597707271575927734e-01,6.597485542297363281e-01,6.597263216972351074e-01,6.597040891647338867e-01,6.596818566322326660e-01,6.596596837043762207e-01,6.596374511718750000e-01,6.596152782440185547e-01,6.595930457115173340e-01,6.595708727836608887e-01,6.595486402511596680e-01,6.595264077186584473e-01,6.595042347908020020e-01,6.594820618629455566e-01,6.594598293304443359e-01,6.594376564025878906e-01,6.594154238700866699e-01,6.593932509422302246e-01,6.593710780143737793e-01,6.593488454818725586e-01,6.593266725540161133e-01,6.593044996261596680e-01,6.592823266983032227e-01,6.592600941658020020e-01,6.592379212379455566e-01,6.592157483100891113e-01,6.591935753822326660e-01,6.591714024543762207e-01,6.591492295265197754e-01,6.591270565986633301e-01,6.591048836708068848e-01,6.590827107429504395e-01,6.590605378150939941e-01,6.590383648872375488e-01,6.590162515640258789e-01,6.589940786361694336e-01,6.589718461036682129e-01,6.589496731758117676e-01,6.589275598526000977e-01,6.589053869247436523e-01,6.588832736015319824e-01,6.588611006736755371e-01,6.588388681411743164e-01,6.588167548179626465e-01,6.587945818901062012e-01,6.587724685668945312e-01,6.587502956390380859e-01,6.587281823158264160e-01,6.587060689926147461e-01,6.586838364601135254e-01,6.586617231369018555e-01,6.586396098136901855e-01,6.586174368858337402e-01,6.585953235626220703e-01,6.585732102394104004e-01,6.585510373115539551e-01,6.585288643836975098e-01,6.585067510604858398e-01,6.584846377372741699e-01,6.584625244140625000e-01,6.584404110908508301e-01,6.584182977676391602e-01,6.583961248397827148e-01,6.583740115165710449e-01,6.583518385887145996e-01,6.583297252655029297e-01,6.583076119422912598e-01,6.582855582237243652e-01,6.582634449005126953e-01,6.582412719726562500e-01,6.582191586494445801e-01,6.581970453262329102e-01,6.581749320030212402e-01,6.581528186798095703e-01
6.349508166313171387e-01,6.349302530288696289e-01,6.349096894264221191e-01,6.348891258239746094e-01,6.348685026168823242e-01,6.348479390144348145e-01,6.348273754119873047e-01,6.348068118095397949e-01,6.347862482070922852e-01,6.347657442092895508e-01,6.347451806068420410e-01,6.347245573997497559e-01,6.347039937973022461e-01,6.346834301948547363e-01,6.346628665924072266e-01,6.346423625946044922e-01,6.346217989921569824e-01,6.346011757850646973e-01,6.345806717872619629e-01,6.345601081848144531e-01,6.345395445823669434e-01,6.345190405845642090e-01,6.344984769821166992e-01,6.344779133796691895e-01,6.344573497772216797e-01,6.344368457794189453e-01,6.344162821769714355e-01,6.343957185745239258e-01,6.343752145767211914e-01,6.343546509742736816e-01,6.343341469764709473e-01,6.343135833740234375e-01,6.342930197715759277e-01,6.342725157737731934e-01,6.342520117759704590e-01,6.342314481735229492e-01,6.342109441757202148e-01,6.341903805732727051e-01,6.341698765754699707e-01,6.341493129730224609e-01,6.341288089752197266e-01,6.341083049774169922e-01,6.340878009796142578e-01,6.340672969818115234e-01,6.340467333793640137e-01,6.340262293815612793e-01,6.340057253837585449e-01,6.339851617813110352e-01,6.339646577835083008e-01,6.339441537857055664e-01,6.339236497879028320e-01,6.339031457901000977e-01,6.338826417922973633e-01,6.338621377944946289e-01,6.338416337966918945e-01,6.338211297988891602e-01,6.338006258010864258e-01,6.337800621986389160e-01,6.337596178054809570e-01,6.337391138076782227e-01,6.337186098098754883e-01,6.336981058120727539e-01,6.336776614189147949e-01,6.336571574211120605e-01,6.336365938186645508e-01,6.336161494255065918e-01,6.335956454277038574e-01,6.335751414299011230e-01,6.335546970367431641e-01,6.335341930389404297e-01,6.335136890411376953e-01,6.334931850433349609e-01,6.334727406501770020e-01,6.334522366523742676e-01,6.334317922592163086e-01,6.334112882614135742e-01,6.333908438682556152e-01,6.333703398704528809e-01,6.333498358726501465e-01,6.333293914794921875e-01
6.118160486221313477e-01,6.117969155311584473e-01,6.117778420448303223e-01,6.117587089538574219e-01,6.117396354675292969e-01,6.117205619812011719e-01,6.117014288902282715e-01,6.116822957992553711e-01,6.116632223129272461e-01,6.116441488265991211e-01,6.116250753402709961e-01,6.116059422492980957e-01,6.115868687629699707e-01,6.115677356719970703e-01,6.115486621856689453e-01,6.115295886993408203e-01,6.115105152130126953e-01,6.114914417266845703e-01,6.114723682403564453e-01,6.114532351493835449e-01,6.114341616630554199e-01,6.114150881767272949e-01,6.113960146903991699e-01,6.113769412040710449e-01,6.113578677177429199e-01,6.113387942314147949e-01,6.113196611404418945e-01,6.113006472587585449e-01,6.112815737724304199e-01,6.112625002861022949e-01,6.112434267997741699e-01,6.112243533134460449e-01,6.112052798271179199e-01,6.111862063407897949e-01,6.111671328544616699e-01,6.111480593681335449e-01,6.111290454864501953e-01,6.111099720001220703e-01,6.110908985137939453e-01,6.110718250274658203e-01,6.110527515411376953e-01,6.110337376594543457e-01,6.110146641731262207e-01,6.109956502914428711e-01,6.109765768051147461e-01,6.109575033187866211e-01,6.109384298324584961e-01,6.109194159507751465e-01,6.109003424644470215e-01,6.108813285827636719e-01,6.108622550964355469e-01,6.108432412147521973e-01,6.108241677284240723e-01,6.108050942420959473e-01,6.107860803604125977e-01,6.107670664787292480e-01,6.107479929924011230e-01,6.107289791107177734e-01,6.107099652290344238e-01,6.106908917427062988e-01,6.106718778610229492e-01,6.106528043746948242e-01,6.106337904930114746e-01,6.106147766113281250e-01,6.105957627296447754e-01,6.105766892433166504e-01,6.105576753616333008e-01,6.105386614799499512e-01,6.105196475982666016e-01,6.105006337165832520e-01,6.104816198348999023e-01,6.104626059532165527e-01,6.104435324668884277e-01,6.104245185852050781e-01,6.104055047035217285e-01,6.103864908218383789e-01,6.103674769401550293e-01,6.103484630584716797e-01,6.103294491767883301e-01,6.103104352951049805e-01
5.903077721595764160e-01,5.902899503707885742e-01,5.902721881866455078e-01,5.902544260025024414e-01,5.902366638183593750e-01,5.902189016342163086e-01,5.902010798454284668e-01,5.901833176612854004e-01,5.901654958724975586e-01,5.901477336883544922e-01,5.901299715042114258e-01,5.901122093200683594e-01,5.900944471359252930e-01,5.900766849517822266e-01,5.900589227676391602e-01,5.900411009788513184e-01,5.900233387947082520e-01,5.900055766105651855e-01,5.899878144264221191e-01,5.899700522422790527e-01,5.899522900581359863e-01,5.899345278739929199e-01,5.899167656898498535e-01,5.898990035057067871e-01,5.898812413215637207e-01,5.898634791374206543e-01,5.898457765579223633e-01,5.898280143737792969e-01,5.898101925849914551e-01,5.897924900054931641e-01,5.897747278213500977e-01,5.897569656372070312e-01,5.897392034530639648e-01,5.897215008735656738e-01,5.897036790847778320e-01,5.896859765052795410e-01,5.896682143211364746e-01,5.896504521369934082e-01,5.896327495574951172e-01,5.896149873733520508e-01,5.895972847938537598e-01,5.895794630050659180e-01,5.895617604255676270e-01,5.895439982414245605e-01,5.895262956619262695e-01,5.895085334777832031e-01,5.894908308982849121e-01,5.894730687141418457e-01,5.894553065299987793e-01,5.894376039505004883e-01,5.894199013710021973e-01,5.894021391868591309e-01,5.893844366073608398e-01,5.893666744232177734e-01,5.893489122390747070e-01,5.893312096595764160e-01,5.893135070800781250e-01,5.892958045005798340e-01,5.892780423164367676e-01,5.892603397369384766e-01,5.892426371574401855e-01,5.892248749732971191e-01,5.892071723937988281e-01,5.891894698143005371e-01,5.891717076301574707e-01,5.891540050506591797e-01,5.891363024711608887e-01,5.891185402870178223e-01,5.891008377075195312e-01,5.890831351280212402e-01,5.890654325485229492e-01,5.890477299690246582e-01,5.890300273895263672e-01,5.890123248100280762e-01,5.889946222305297852e-01,5.889769196510314941e-01,5.889592170715332031e-01,5.889415144920349121e-01,5.889238119125366211e-01,5.889061093330383301e-01
