1.934289932250976562e+00,1.961025714874267578e+00,1.988510847091674805e+00,2.016777515411376953e+00,2.045859336853027344e+00,2.075792312622070312e+00,2.106614112854003906e+00,2.138365030288696289e+00,2.171087503433227539e+00,2.204827308654785156e+00,2.239635944366455078e+00,2.275561571121215820e+00,2.312658786773681641e+00,2.350985288619995117e+00,2.390603780746459961e+00,2.431580543518066406e+00,2.473982572555541992e+00,2.517888545989990234e+00,2.563380718231201172e+00,2.610547304153442383e+00,2.659482240676879883e+00,2.710286617279052734e+00,2.763069868087768555e+00,2.817949771881103516e+00,2.875054121017456055e+00,2.934520721435546875e+00,2.996498823165893555e+00,3.061151742935180664e+00,3.128656387329101562e+00,3.199204921722412109e+00,3.273008584976196289e+00,3.350297689437866211e+00,3.431325912475585938e+00,3.516370296478271484e+00,3.605737209320068359e+00,3.699765205383300781e+00,3.798826694488525391e+00,3.903338909149169922e+00,4.013763904571533203e+00,4.130619525909423828e+00,4.254482746124267578e+00,4.386004447937011719e+00,4.525917053222656250e+00,4.675050258636474609e+00,4.834346294403076172e+00,5.000000000000000000e+00,5.000000000000000000e+00,5.000000000000000000e+00,5.000000000000000000e+00,5.000000000000000000e+00,5.000000000000000000e+00,3.396453142166137695e+00,3.343436717987060547e+00,3.300490379333496094e+00,3.250410795211791992e+00,3.207547664642333984e+00,5.000000000000000000e+00,5.000000000000000000e+00,5.000000000000000000e+00,5.000000000000000000e+00,5.000000000000000000e+00,5.000000000000000000e+00,5.000000000000000000e+00,5.000000000000000000e+00,5.000000000000000000e+00,5.000000000000000000e+00,5.000000000000000000e+00,5.000000000000000000e+00,5.000000000000000000e+00,5.000000000000000000e+00,5.000000000000000000e+00,5.000000000000000000e+00,5.000000000000000000e+00,5.000000000000000000e+00,5.000000000000000000e+00,5.000000000000000000e+00,5.000000000000000000e+00,5.000000000000000000e+00,5.000000000000000000e+00,5.000000000000000000e+00
1.934261560440063477e+00,1.960996627807617188e+00,1.988480925559997559e+00,2.016746759414672852e+00,2.045827865600585938e+00,2.075759887695312500e+00,2.106580734252929688e+00,2.138330459594726562e+00,2.171051979064941406e+00,2.204790592193603516e+00,2.239594221115112305e+00,2.275514364242553711e+00,2.312608718872070312e+00,2.350933790206909180e+00,2.390550613403320312e+00,2.431525230407714844e+00,2.473929166793823242e+00,2.517838478088378906e+00,2.563331365585327148e+00,2.610496044158935547e+00,2.659428834915161133e+00,2.710231065750122070e+00,2.763012170791625977e+00,2.817889928817749023e+00,2.874991893768310547e+00,2.934455633163452148e+00,2.996431112289428711e+00,3.061081171035766602e+00,3.128582477569580078e+00,3.199127674102783203e+00,3.272927761077880859e+00,3.350213050842285156e+00,3.431237220764160156e+00,3.516277074813842773e+00,3.605639219284057617e+00,3.699661970138549805e+00,3.798719644546508789e+00,3.903225898742675781e+00,4.013644695281982422e+00,4.130493164062500000e+00,4.254348754882812500e+00,4.385861873626708984e+00,4.525765419006347656e+00,4.674888610839843750e+00,4.834173202514648438e+00,5.000000000000000000e+00,5.000000000000000000e+00,5.000000000000000000e+00,5.000000000000000000e+00,5.000000000000000000e+00,3.371666193008422852e+00,3.363984107971191406e+00,3.282301425933837891e+00,3.241200685501098633e+00,3.228532791137695312e+00,3.200715780258178711e+00,3.210952997207641602e+00,5.000000000000000000e+00,5.000000000000000000e+00,5.000000000000000000e+00,5.000000000000000000e+00,5.000000000000000000e+00,5.000000000000000000e+00,5.000000000000000000e+00,5.000000000000000000e+00,5.000000000000000000e+00,5.000000000000000000e+00,5.000000000000000000e+00,5.000000000000000000e+00,5.000000000000000000e+00,5.000000000000000000e+00,5.000000000000000000e+00,5.000000000000000000e+00,5.000000000000000000e+00,5.000000000000000000e+00,5.000000000000000000e+00,5.000000000000000000e+00,5.000000000000000000e+00,5.000000000000000000e+00,5.000000000000000000e+00
1.934233427047729492e+00,1.960967659950256348e+00,1.988451242446899414e+00,2.016716003417968750e+00,2.045796394348144531e+00,2.075727462768554688e+00,2.106547355651855469e+00,2.138296127319335938e+00,2.171016454696655273e+00,2.204753875732421875e+00,2.239556550979614258e+00,2.275475263595581055e+00,2.312565326690673828e+00,2.350884199142456055e+00,2.390497207641601562e+00,2.431470155715942383e+00,2.473872184753417969e+00,2.517779350280761719e+00,2.563273191452026367e+00,2.610441207885742188e+00,2.659375429153442383e+00,2.710175752639770508e+00,2.762954711914062500e+00,2.817830324172973633e+00,2.874929428100585938e+00,2.934390783309936523e+00,2.996363401412963867e+00,3.061010837554931641e+00,3.128508806228637695e+00,3.199050664901733398e+00,3.272846937179565430e+00,3.350128889083862305e+00,3.431148529052734375e+00,3.516183853149414062e+00,3.605541229248046875e+00,3.699559211730957031e+00,3.798611164093017578e+00,3.903113126754760742e+00,4.013525485992431641e+00,4.130366802215576172e+00,4.254215240478515625e+00,4.385719776153564453e+00,4.525614261627197266e+00,4.674726963043212891e+00,4.834000587463378906e+00,5.000000000000000000e+00,5.000000000000000000e+00,5.000000000000000000e+00,5.000000000000000000e+00,3.435112953186035156e+00,3.345220088958740234e+00,3.283895969390869141e+00,3.232681274414062500e+00,3.223250627517700195e+00,3.230561971664428711e+00,3.210955142974853516e+00,3.205546379089355469e+00,5.000000000000000000e+00,5.000000000000000000e+00,5.000000000000000000e+00,5.000000000000000000e+00,5.000000000000000000e+00,5.000000000000000000e+00,5.000000000000000000e+00,5.000000000000000000e+00,5.000000000000000000e+00,5.000000000000000000e+00,5.000000000000000000e+00,5.000000000000000000e+00,5.000000000000000000e+00,5.000000000000000000e+00,5.000000000000000000e+00,5.000000000000000000e+00,5.000000000000000000e+00,5.000000000000000000e+00,5.000000000000000000e+00,5.000000000000000000e+00,5.000000000000000000e+00,5.000000000000000000e+00,5.000000000000000000e+00
1.934205174446105957e+00,1.960938572883605957e+00,1.988421320915222168e+00,2.016685485839843750e+00,2.045764923095703125e+00,2.075694799423217773e+00,2.106513738632202148e+00,2.138261556625366211e+00,2.170980930328369141e+00,2.204717159271240234e+00,2.239518642425537109e+00,2.275436401367187500e+00,2.312525033950805664e+00,2.350842714309692383e+00,2.390451431274414062e+00,2.431417942047119141e+00,2.473814964294433594e+00,2.517720222473144531e+00,2.563211917877197266e+00,2.610377788543701172e+00,2.659311771392822266e+00,2.710115909576416016e+00,2.762897253036499023e+00,2.817770242691040039e+00,2.874867200851440430e+00,2.934325933456420898e+00,2.996295690536499023e+00,3.060940027236938477e+00,3.128434896469116211e+00,3.198973417282104492e+00,3.272766351699829102e+00,3.350044250488281250e+00,3.431059598922729492e+00,3.516090631484985352e+00,3.605443239212036133e+00,3.699455976486206055e+00,3.798502445220947266e+00,3.902998447418212891e+00,4.013406276702880859e+00,4.130240917205810547e+00,4.254081249237060547e+00,4.385577201843261719e+00,4.525462627410888672e+00,4.674564838409423828e+00,4.833827495574951172e+00,5.000000000000000000e+00,5.000000000000000000e+00,5.000000000000000000e+00,3.472133159637451172e+00,3.382665634155273438e+00,3.301024913787841797e+00,3.265524148941040039e+00,3.233919858932495117e+00,3.221564769744873047e+00,3.247261047363281250e+00,3.211028814315795898e+00,3.197542428970336914e+00,5.000000000000000000e+00,5.000000000000000000e+00,5.000000000000000000e+00,5.000000000000000000e+00,5.000000000000000000e+00,5.000000000000000000e+00,5.000000000000000000e+00,5.000000000000000000e+00,5.000000000000000000e+00,5.000000000000000000e+00,5.000000000000000000e+00,5.000000000000000000e+00,5.000000000000000000e+00,5.000000000000000000e+00,5.000000000000000000e+00,5.000000000000000000e+00,5.000000000000000000e+00,5.000000000000000000e+00,5.000000000000000000e+00,5.000000000000000000e+00,5.000000000000000000e+00,5.000000000000000000e+00,5.000000000000000000e+00
1.934177041053771973e+00,1.960909724235534668e+00,1.988391637802124023e+00,2.016654968261718750e+00,2.045733213424682617e+00,2.075662374496459961e+00,2.106480360031127930e+00,2.138227224349975586e+00,2.170945405960083008e+00,2.204680681228637695e+00,2.239480733871459961e+00,2.275397300720214844e+00,2.312484741210937500e+00,2.350800991058349609e+00,2.390408277511596680e+00,2.431373357772827148e+00,2.473766803741455078e+00,2.517664670944213867e+00,2.563150644302368164e+00,2.610314130783081055e+00,2.659245967864990234e+00,2.710047245025634766e+00,2.762827634811401367e+00,2.817704439163208008e+00,2.874804735183715820e+00,2.934260845184326172e+00,2.996227979660034180e+00,3.060869455337524414e+00,3.128360986709594727e+00,3.198896169662475586e+00,3.272685527801513672e+00,3.349959611892700195e+00,3.430970907211303711e+00,3.515997409820556641e+00,3.605345249176025391e+00,3.699352741241455078e+00,3.798393487930297852e+00,3.902883529663085938e+00,4.013284683227539062e+00,4.130114078521728516e+00,4.253947257995605469e+00,4.385435104370117188e+00,4.525310993194580078e+00,4.674403667449951172e+00,4.833654880523681641e+00,5.000000000000000000e+00,5.000000000000000000e+00,5.000000000000000000e+00,5.000000000000000000e+00,3.401910066604614258e+00,3.298710107803344727e+00,3.256552219390869141e+00,3.237392425537109375e+00,3.237259864807128906e+00,3.266653060913085938e+00,3.204135179519653320e+00,3.192651510238647461e+00,5.000000000000000000e+00,5.000000000000000000e+00,5.000000000000000000e+00,5.000000000000000000e+00,5.000000000000000000e+00,5.000000000000000000e+00,5.000000000000000000e+00,5.000000000000000000e+00,5.000000000000000000e+00,5.000000000000000000e+00,5.000000000000000000e+00,5.000000000000000000e+00,5.000000000000000000e+00,5.000000000000000000e+00,5.000000000000000000e+00,5.000000000000000000e+00,5.000000000000000000e+00,5.000000000000000000e+00,5.000000000000000000e+00,5.000000000000000000e+00,5.000000000000000000e+00,5.000000000000000000e+00,5.000000000000000000e+00
1.934148669242858887e+00,1.960880637168884277e+00,1.988361954689025879e+00,2.016624212265014648e+00,2.045701742172241211e+00,2.075629949569702148e+00,2.106446981430053711e+00,2.138192653656005859e+00,2.170909881591796875e+00,2.204643964767456055e+00,2.239443063735961914e+00,2.275358438491821289e+00,2.312444448471069336e+00,2.350759267807006836e+00,2.390365362167358398e+00,2.431328773498535156e+00,2.473720550537109375e+00,2.517616987228393555e+00,2.563099622726440430e+00,2.610255718231201172e+00,2.659179925918579102e+00,2.709978818893432617e+00,2.762756347656250000e+00,2.817630290985107422e+00,2.874728202819824219e+00,2.934188365936279297e+00,2.996159791946411133e+00,3.060798883438110352e+00,3.128287315368652344e+00,3.198819160461425781e+00,3.272604703903198242e+00,3.349874973297119141e+00,3.430882215499877930e+00,3.515904188156127930e+00,3.605247259140014648e+00,3.699249505996704102e+00,3.798284769058227539e+00,3.902768611907958984e+00,4.013163089752197266e+00,4.129985332489013672e+00,4.253812313079833984e+00,4.385293006896972656e+00,4.525159358978271484e+00,4.674241542816162109e+00,4.833481788635253906e+00,5.000000000000000000e+00,5.000000000000000000e+00,5.000000000000000000e+00,5.000000000000000000e+00,3.463369369506835938e+00,3.297545433044433594e+00,3.255859136581420898e+00,3.234585285186767578e+00,3.236991167068481445e+00,3.280203580856323242e+00,3.211358308792114258e+00,3.193251371383666992e+00,5.000000000000000000e+00,5.000000000000000000e+00,5.000000000000000000e+00,5.000000000000000000e+00,5.000000000000000000e+00,5.000000000000000000e+00,5.000000000000000000e+00,5.000000000000000000e+00,5.000000000000000000e+00,5.000000000000000000e+00,5.000000000000000000e+00,5.000000000000000000e+00,5.000000000000000000e+00,5.000000000000000000e+00,5.000000000000000000e+00,5.000000000000000000e+00,5.000000000000000000e+00,5.000000000000000000e+00,5.000000000000000000e+00,5.000000000000000000e+00,5.000000000000000000e+00,5.000000000000000000e+00,5.000000000000000000e+00
1.934120655059814453e+00,1.960851669311523438e+00,1.988332033157348633e+00,2.016593456268310547e+00,2.045670270919799805e+00,2.075597524642944336e+00,2.106413364410400391e+00,2.138158082962036133e+00,2.170874357223510742e+00,2.204607486724853516e+00,2.239405393600463867e+00,2.275319337844848633e+00,2.312403917312622070e+00,2.350717544555664062e+00,2.390322208404541016e+00,2.431284189224243164e+00,2.473674535751342773e+00,2.517569303512573242e+00,2.563050031661987305e+00,2.610204219818115234e+00,2.659126043319702148e+00,2.709916591644287109e+00,2.762685298919677734e+00,2.817556142807006836e+00,2.874651193618774414e+00,2.934108018875122070e+00,2.996076107025146484e+00,3.060718536376953125e+00,3.128211498260498047e+00,3.198741912841796875e+00,3.272524118423461914e+00,3.349790334701538086e+00,3.430793523788452148e+00,3.515810966491699219e+00,3.605149269104003906e+00,3.699146509170532227e+00,3.798176050186157227e+00,3.902653932571411133e+00,4.013041973114013672e+00,4.129857063293457031e+00,4.253675937652587891e+00,4.385149478912353516e+00,4.525008201599121094e+00,4.674080371856689453e+00,4.833309173583984375e+00,5.000000000000000000e+00,5.000000000000000000e+00,5.000000000000000000e+00,5.000000000000000000e+00,3.463887214660644531e+00,3.297156810760498047e+00,3.263602495193481445e+00,3.232928752899169922e+00,3.236413717269897461e+00,3.295150041580200195e+00,3.235077857971191406e+00,3.176628589630126953e+00,5.000000000000000000e+00,5.000000000000000000e+00,5.000000000000000000e+00,5.000000000000000000e+00,5.000000000000000000e+00,5.000000000000000000e+00,5.000000000000000000e+00,5.000000000000000000e+00,5.000000000000000000e+00,5.000000000000000000e+00,5.000000000000000000e+00,5.000000000000000000e+00,5.000000000000000000e+00,5.000000000000000000e+00,5.000000000000000000e+00,5.000000000000000000e+00,5.000000000000000000e+00,5.000000000000000000e+00,5.000000000000000000e+00,5.000000000000000000e+00,5.000000000000000000e+00,5.000000000000000000e+00,5.000000000000000000e+00
1.934092283248901367e+00,1.960822820663452148e+00,1.988302350044250488e+00,2.016562938690185547e+00,2.045638561248779297e+00,2.075564861297607422e+00,2.106379985809326172e+00,2.138123750686645508e+00,2.170838832855224609e+00,2.204570770263671875e+00,2.239367485046386719e+00,2.275280237197875977e+00,2.312363624572753906e+00,2.350675821304321289e+00,2.390279054641723633e+00,2.431239604949951172e+00,2.473628282546997070e+00,2.517521619796752930e+00,2.563000679016113281e+00,2.610152959823608398e+00,2.659072637557983398e+00,2.709861278533935547e+00,2.762627840042114258e+00,2.817490100860595703e+00,2.874575376510620117e+00,2.934027671813964844e+00,2.995992422103881836e+00,3.060631036758422852e+00,3.128120183944702148e+00,3.198652982711791992e+00,3.272439718246459961e+00,3.349705696105957031e+00,3.430704593658447266e+00,3.515717744827270508e+00,3.605051517486572266e+00,3.699043273925781250e+00,3.798067331314086914e+00,3.902539014816284180e+00,4.012920379638671875e+00,4.129728317260742188e+00,4.253540039062500000e+00,4.385004520416259766e+00,4.524855136871337891e+00,4.673918247222900391e+00,4.833136081695556641e+00,5.000000000000000000e+00,5.000000000000000000e+00,5.000000000000000000e+00,5.000000000000000000e+00,3.498318910598754883e+00,3.284909009933471680e+00,3.249750614166259766e+00,3.224473476409912109e+00,3.226366519927978516e+00,3.271843671798706055e+00,3.171965122222900391e+00,3.142608165740966797e+00,5.000000000000000000e+00,5.000000000000000000e+00,5.000000000000000000e+00,5.000000000000000000e+00,5.000000000000000000e+00,5.000000000000000000e+00,5.000000000000000000e+00,5.000000000000000000e+00,5.000000000000000000e+00,5.000000000000000000e+00,5.000000000000000000e+00,5.000000000000000000e+00,5.000000000000000000e+00,5.000000000000000000e+00,5.000000000000000000e+00,5.000000000000000000e+00,5.000000000000000000e+00,5.000000000000000000e+00,5.000000000000000000e+00,5.000000000000000000e+00,5.000000000000000000e+00,5.000000000000000000e+00,5.000000000000000000e+00
1.934064269065856934e+00,1.960793733596801758e+00,1.988272428512573242e+00,2.016532182693481445e+00,2.045607089996337891e+00,2.075532436370849609e+00,2.106346607208251953e+00,2.138089179992675781e+00,2.170803546905517578e+00,2.204534292221069336e+00,2.239329814910888672e+00,2.275241374969482422e+00,2.312323331832885742e+00,2.350634336471557617e+00,2.390236139297485352e+00,2.431195020675659180e+00,2.473582267761230469e+00,2.517473697662353516e+00,2.562951087951660156e+00,2.610101699829101562e+00,2.659019470214843750e+00,2.709805965423583984e+00,2.762570142745971680e+00,2.817430019378662109e+00,2.874513149261474609e+00,2.933957099914550781e+00,2.995911359786987305e+00,3.060543775558471680e+00,3.128028869628906250e+00,3.198557615280151367e+00,3.272339820861816406e+00,3.349606513977050781e+00,3.430610418319702148e+00,3.515624523162841797e+00,3.604953527450561523e+00,3.698940038681030273e+00,3.797958612442016602e+00,3.902424097061157227e+00,4.012799263000488281e+00,4.129599571228027344e+00,4.253403663635253906e+00,4.384859561920166016e+00,4.524701118469238281e+00,4.673755168914794922e+00,4.832963466644287109e+00,5.000000000000000000e+00,5.000000000000000000e+00,5.000000000000000000e+00,5.000000000000000000e+00,5.000000000000000000e+00,3.299003601074218750e+00,3.255970239639282227e+00,3.239517688751220703e+00,3.234413385391235352e+00,3.265004396438598633e+00,3.124950885772705078e+00,3.108879089355468750e+00,5.000000000000000000e+00,5.000000000000000000e+00,5.000000000000000000e+00,5.000000000000000000e+00,5.000000000000000000e+00,5.000000000000000000e+00,5.000000000000000000e+00,5.000000000000000000e+00,5.000000000000000000e+00,5.000000000000000000e+00,5.000000000000000000e+00,5.000000000000000000e+00,5.000000000000000000e+00,5.000000000000000000e+00,5.000000000000000000e+00,5.000000000000000000e+00,5.000000000000000000e+00,5.000000000000000000e+00,5.000000000000000000e+00,5.000000000000000000e+00,5.000000000000000000e+00,5.000000000000000000e+00,5.000000000000000000e+00
1.934036135673522949e+00,1.960764884948730469e+00,1.988242745399475098e+00,2.016501665115356445e+00,2.045575618743896484e+00,2.075500011444091797e+00,2.106312990188598633e+00,2.138054847717285156e+00,2.170768022537231445e+00,2.204497575759887695e+00,2.239291906356811523e+00,2.275202274322509766e+00,2.312283039093017578e+00,2.350592613220214844e+00,2.390192985534667969e+00,2.431150674819946289e+00,2.473536252975463867e+00,2.517426013946533203e+00,2.562901496887207031e+00,2.610050201416015625e+00,2.658966064453125000e+00,2.709750652313232422e+00,2.762512683868408203e+00,2.817370414733886719e+00,2.874450922012329102e+00,2.933892250061035156e+00,2.995843648910522461e+00,3.060467958450317383e+00,3.127941846847534180e+00,3.198462009429931641e+00,3.272239923477172852e+00,3.349501848220825195e+00,3.430500507354736328e+00,3.515513658523559570e+00,3.604847431182861328e+00,3.698837041854858398e+00,3.797849655151367188e+00,3.902309417724609375e+00,4.012677669525146484e+00,4.129471302032470703e+00,4.253267288208007812e+00,4.384714603424072266e+00,4.524546623229980469e+00,4.673590183258056641e+00,4.832788467407226562e+00,5.000000000000000000e+00,5.000000000000000000e+00,5.000000000000000000e+00,5.000000000000000000e+00,3.373460054397583008e+00,3.314271926879882812e+00,3.267425298690795898e+00,3.256086826324462891e+00,3.236786603927612305e+00,3.259068965911865234e+00,5.000000000000000000e+00,3.091203451156616211e+00,5.000000000000000000e+00,5.000000000000000000e+00,5.000000000000000000e+00,5.000000000000000000e+00,5.000000000000000000e+00,5.000000000000000000e+00,5.000000000000000000e+00,5.000000000000000000e+00,5.000000000000000000e+00,5.000000000000000000e+00,5.000000000000000000e+00,5.000000000000000000e+00,5.000000000000000000e+00,5.000000000000000000e+00,5.000000000000000000e+00,5.000000000000000000e+00,5.000000000000000000e+00,5.000000000000000000e+00,5.000000000000000000e+00,5.000000000000000000e+00,5.000000000000000000e+00,5.000000000000000000e+00,5.000000000000000000e+00
1.934007763862609863e+00,1.960735797882080078e+00,1.988212823867797852e+00,2.016470909118652344e+00,2.045543909072875977e+00,2.075467586517333984e+00,2.106279611587524414e+00,2.138020515441894531e+00,2.170732498168945312e+00,2.204460859298706055e+00,2.239254236221313477e+00,2.275163173675537109e+00,2.312242746353149414e+00,2.350550889968872070e+00,2.390149831771850586e+00,2.431106090545654297e+00,2.473489999771118164e+00,2.517378330230712891e+00,2.562851905822753906e+00,2.609998941421508789e+00,2.658912658691406250e+00,2.709695100784301758e+00,2.762455224990844727e+00,2.817310571670532227e+00,2.874388694763183594e+00,2.933827400207519531e+00,2.995775938034057617e+00,3.060397386550903320e+00,3.127867937088012695e+00,3.198380708694458008e+00,3.272145748138427734e+00,3.349397182464599609e+00,3.430390834808349609e+00,3.515398502349853516e+00,3.604726314544677734e+00,3.698712110519409180e+00,3.797730207443237305e+00,3.902194499969482422e+00,4.012556552886962891e+00,4.129342555999755859e+00,4.253130435943603516e+00,4.384569644927978516e+00,4.524392127990722656e+00,4.673425674438476562e+00,4.832612514495849609e+00,5.000000000000000000e+00,5.000000000000000000e+00,5.000000000000000000e+00,5.000000000000000000e+00,3.289091587066650391e+00,3.262659311294555664e+00,3.294137001037597656e+00,3.269785165786743164e+00,3.241297721862792969e+00,3.254197359085083008e+00,3.038921833038330078e+00,3.057387113571166992e+00,5.000000000000000000e+00,5.000000000000000000e+00,5.000000000000000000e+00,5.000000000000000000e+00,5.000000000000000000e+00,5.000000000000000000e+00,5.000000000000000000e+00,5.000000000000000000e+00,5.000000000000000000e+00,5.000000000000000000e+00,5.000000000000000000e+00,5.000000000000000000e+00,5.000000000000000000e+00,5.000000000000000000e+00,5.000000000000000000e+00,5.000000000000000000e+00,5.000000000000000000e+00,5.000000000000000000e+00,5.000000000000000000e+00,5.000000000000000000e+00,5.000000000000000000e+00,5.000000000000000000e+00,5.000000000000000000e+00
1.933979749679565430e+00,1.960706949234008789e+00,1.988183140754699707e+00,2.016440153121948242e+00,2.045512437820434570e+00,2.075434923171997070e+00,2.106246232986450195e+00,2.137985944747924805e+00,2.170696973800659180e+00,2.204424142837524414e+00,2.239216327667236328e+00,2.275124073028564453e+00,2.312202453613281250e+00,2.350509166717529297e+00,2.390106916427612305e+00,2.431061506271362305e+00,2.473443984985351562e+00,2.517330408096313477e+00,2.562802553176879883e+00,2.609947443008422852e+00,2.658859491348266602e+00,2.709639787673950195e+00,2.762397766113281250e+00,2.817250728607177734e+00,2.874326467514038086e+00,2.933762550354003906e+00,2.995708227157592773e+00,3.060326814651489258e+00,3.127794265747070312e+00,3.198303461074829102e+00,3.272065401077270508e+00,3.349309682846069336e+00,3.430289030075073242e+00,3.515283584594726562e+00,3.604605436325073242e+00,3.698585033416748047e+00,3.797596216201782227e+00,3.902054309844970703e+00,4.012421131134033203e+00,4.129213333129882812e+00,4.252994060516357422e+00,4.384425163269042969e+00,4.524238109588623047e+00,4.673261165618896484e+00,4.832436084747314453e+00,5.000000000000000000e+00,5.000000000000000000e+00,5.000000000000000000e+00,5.000000000000000000e+00,3.254014253616333008e+00,3.241445541381835938e+00,3.279063463211059570e+00,3.268444776535034180e+00,3.243626356124877930e+00,3.252161026000976562e+00,5.000000000000000000e+00,3.034508466720581055e+00,5.000000000000000000e+00,5.000000000000000000e+00,5.000000000000000000e+00,5.000000000000000000e+00,5.000000000000000000e+00,5.000000000000000000e+00,5.000000000000000000e+00,5.000000000000000000e+00,5.000000000000000000e+00,5.000000000000000000e+00,5.000000000000000000e+00,5.000000000000000000e+00,5.000000000000000000e+00,5.000000000000000000e+00,5.000000000000000000e+00,5.000000000000000000e+00,5.000000000000000000e+00,5.000000000000000000e+00,5.000000000000000000e+00,5.000000000000000000e+00,5.000000000000000000e+00,5.000000000000000000e+00,5.000000000000000000e+00
1.933951377868652344e+00,1.960677742958068848e+00,1.988153219223022461e+00,2.016409635543823242e+00,2.045480966567993164e+00,2.075402736663818359e+00,2.106212854385375977e+00,2.137951612472534180e+00,2.170661449432373047e+00,2.204387664794921875e+00,2.239178419113159180e+00,2.275085210800170898e+00,2.312162160873413086e+00,2.350467681884765625e+00,2.390064001083374023e+00,2.431016921997070312e+00,2.473397731781005859e+00,2.517282724380493164e+00,2.562752962112426758e+00,2.609896183013916016e+00,2.658806085586547852e+00,2.709584712982177734e+00,2.762340307235717773e+00,2.817190885543823242e+00,2.874264001846313477e+00,2.933697462081909180e+00,2.995640754699707031e+00,3.060256242752075195e+00,3.127720355987548828e+00,3.198226690292358398e+00,3.271984577178955078e+00,3.349225044250488281e+00,3.430200338363647461e+00,3.515188217163085938e+00,3.604494333267211914e+00,3.698457479476928711e+00,3.797461509704589844e+00,3.901912212371826172e+00,4.012270927429199219e+00,4.129054546356201172e+00,4.252840042114257812e+00,4.384276390075683594e+00,4.524083614349365234e+00,4.673096656799316406e+00,4.832260131835937500e+00,5.000000000000000000e+00,5.000000000000000000e+00,5.000000000000000000e+00,5.000000000000000000e+00,3.230478525161743164e+00,3.221455097198486328e+00,3.274641513824462891e+00,3.282227516174316406e+00,3.255978345870971680e+00,3.262105941772460938e+00,5.000000000000000000e+00,5.000000000000000000e+00,5.000000000000000000e+00,5.000000000000000000e+00,5.000000000000000000e+00,5.000000000000000000e+00,5.000000000000000000e+00,5.000000000000000000e+00,5.000000000000000000e+00,5.000000000000000000e+00,5.000000000000000000e+00,5.000000000000000000e+00,5.000000000000000000e+00,5.000000000000000000e+00,5.000000000000000000e+00,5.000000000000000000e+00,5.000000000000000000e+00,5.000000000000000000e+00,5.000000000000000000e+00,5.000000000000000000e+00,5.000000000000000000e+00,5.000000000000000000e+00,5.000000000000000000e+00,5.000000000000000000e+00,5.000000000000000000e+00
1.933923363685607910e+00,1.960648894309997559e+00,1.988123536109924316e+00,2.016378879547119141e+00,2.045449256896972656e+00,2.075370311737060547e+00,2.106179475784301758e+00,2.137917041778564453e+00,2.170625925064086914e+00,2.204350948333740234e+00,2.239140748977661133e+00,2.275046110153198242e+00,2.312121868133544922e+00,2.350426197052001953e+00,2.390020847320556641e+00,2.430972337722778320e+00,2.473351716995239258e+00,2.517234802246093750e+00,2.562703371047973633e+00,2.609844684600830078e+00,2.658752918243408203e+00,2.709529399871826172e+00,2.762282848358154297e+00,2.817131042480468750e+00,2.874201774597167969e+00,2.933632612228393555e+00,2.995573043823242188e+00,3.060185670852661133e+00,3.127646684646606445e+00,3.198149681091308594e+00,3.271903991699218750e+00,3.349140405654907227e+00,3.430111646652221680e+00,3.515094995498657227e+00,3.604396343231201172e+00,3.698353528976440430e+00,3.797339916229248047e+00,3.901771545410156250e+00,4.012120723724365234e+00,4.128895282745361328e+00,4.252671241760253906e+00,4.384097099304199219e+00,4.523906230926513672e+00,4.672924995422363281e+00,4.832084178924560547e+00,5.000000000000000000e+00,5.000000000000000000e+00,5.000000000000000000e+00,5.000000000000000000e+00,3.211141347885131836e+00,3.203281879425048828e+00,3.286655902862548828e+00,3.307172536849975586e+00,3.270963668823242188e+00,3.286539793014526367e+00,5.000000000000000000e+00,5.000000000000000000e+00,5.000000000000000000e+00,5.000000000000000000e+00,5.000000000000000000e+00,5.000000000000000000e+00,5.000000000000000000e+00,5.000000000000000000e+00,5.000000000000000000e+00,5.000000000000000000e+00,5.000000000000000000e+00,5.000000000000000000e+00,5.000000000000000000e+00,5.000000000000000000e+00,5.000000000000000000e+00,5.000000000000000000e+00,5.000000000000000000e+00,5.000000000000000000e+00,5.000000000000000000e+00,5.000000000000000000e+00,5.000000000000000000e+00,5.000000000000000000e+00,5.000000000000000000e+00,5.000000000000000000e+00,5.000000000000000000e+00
1.933894991874694824e+00,1.960619807243347168e+00,1.988093614578247070e+00,2.016348361968994141e+00,2.045418024063110352e+00,2.075337648391723633e+00,2.106145858764648438e+00,2.137882709503173828e+00,2.170590400695800781e+00,2.204314231872558594e+00,2.239102840423583984e+00,2.275007009506225586e+00,2.312081575393676758e+00,2.350384473800659180e+00,2.389977693557739258e+00,2.430927753448486328e+00,2.473305702209472656e+00,2.517187118530273438e+00,2.562654018402099609e+00,2.609793424606323242e+00,2.658699750900268555e+00,2.709473848342895508e+00,2.762225151062011719e+00,2.817071199417114258e+00,2.874139547348022461e+00,2.933567762374877930e+00,2.995505332946777344e+00,3.060114860534667969e+00,3.127573251724243164e+00,3.198072433471679688e+00,3.271823167800903320e+00,3.349055767059326172e+00,3.430022954940795898e+00,3.515001773834228516e+00,3.604298353195190430e+00,3.698250293731689453e+00,3.797231674194335938e+00,3.901656866073608398e+00,4.011987209320068359e+00,4.128739833831787109e+00,4.252502441406250000e+00,4.383917808532714844e+00,4.523715019226074219e+00,4.672721385955810547e+00,4.831878662109375000e+00,5.000000000000000000e+00,5.000000000000000000e+00,5.000000000000000000e+00,5.000000000000000000e+00,3.189972877502441406e+00,3.193388700485229492e+00,5.000000000000000000e+00,3.326379537582397461e+00,3.287150144577026367e+00,3.312808036804199219e+00,5.000000000000000000e+00,5.000000000000000000e+00,5.000000000000000000e+00,5.000000000000000000e+00,5.000000000000000000e+00,5.000000000000000000e+00,5.000000000000000000e+00,5.000000000000000000e+00,5.000000000000000000e+00,5.000000000000000000e+00,5.000000000000000000e+00,5.000000000000000000e+00,5.000000000000000000e+00,5.000000000000000000e+00,5.000000000000000000e+00,5.000000000000000000e+00,5.000000000000000000e+00,5.000000000000000000e+00,5.000000000000000000e+00,5.000000000000000000e+00,5.000000000000000000e+00,5.000000000000000000e+00,5.000000000000000000e+00,5.000000000000000000e+00,5.000000000000000000e+00
1.933866977691650391e+00,1.960590958595275879e+00,1.988063931465148926e+00,2.016317844390869141e+00,2.045386314392089844e+00,2.075305223464965820e+00,2.106112480163574219e+00,2.137848138809204102e+00,2.170554876327514648e+00,2.204277753829956055e+00,2.239065170288085938e+00,2.274968147277832031e+00,2.312041282653808594e+00,2.350342750549316406e+00,2.389934778213500977e+00,2.430883169174194336e+00,2.473259449005126953e+00,2.517139434814453125e+00,2.562604427337646484e+00,2.609742164611816406e+00,2.658646583557128906e+00,2.709418535232543945e+00,2.762167692184448242e+00,2.817011356353759766e+00,2.874077320098876953e+00,2.933502912521362305e+00,2.995437622070312500e+00,3.060044527053833008e+00,3.127499580383300781e+00,3.197995424270629883e+00,3.271742582321166992e+00,3.348971366882324219e+00,3.429934263229370117e+00,3.514908552169799805e+00,3.604200363159179688e+00,3.698147535324096680e+00,3.797122955322265625e+00,3.901542186737060547e+00,4.011866092681884766e+00,4.128611564636230469e+00,4.252355098724365234e+00,4.383745193481445312e+00,4.523524284362792969e+00,4.672517776489257812e+00,4.831660747528076172e+00,5.000000000000000000e+00,5.000000000000000000e+00,5.000000000000000000e+00,5.000000000000000000e+00,3.169246435165405273e+00,3.181936264038085938e+00,5.000000000000000000e+00,3.344607591629028320e+00,3.298237323760986328e+00,3.341869592666625977e+00,5.000000000000000000e+00,5.000000000000000000e+00,5.000000000000000000e+00,5.000000000000000000e+00,5.000000000000000000e+00,5.000000000000000000e+00,5.000000000000000000e+00,5.000000000000000000e+00,5.000000000000000000e+00,5.000000000000000000e+00,5.000000000000000000e+00,5.000000000000000000e+00,5.000000000000000000e+00,5.000000000000000000e+00,5.000000000000000000e+00,5.000000000000000000e+00,5.000000000000000000e+00,5.000000000000000000e+00,5.000000000000000000e+00,5.000000000000000000e+00,5.000000000000000000e+00,5.000000000000000000e+00,5.000000000000000000e+00,5.000000000000000000e+00,5.000000000000000000e+00
1.933838605880737305e+00,1.960561871528625488e+00,1.988034009933471680e+00,2.016287088394165039e+00,2.045354843139648438e+00,2.075272798538208008e+00,2.106079101562500000e+00,2.137813568115234375e+00,2.170519351959228516e+00,2.204241037368774414e+00,2.239027261734008789e+00,2.274929285049438477e+00,2.312000989913940430e+00,2.350301265716552734e+00,2.389891624450683594e+00,2.430838584899902344e+00,2.473213434219360352e+00,2.517091512680053711e+00,2.562554836273193359e+00,2.609690904617309570e+00,2.658593177795410156e+00,2.709363222122192383e+00,2.762110233306884766e+00,2.816951513290405273e+00,2.874014854431152344e+00,2.933438062667846680e+00,2.995369911193847656e+00,3.059973955154418945e+00,3.127425670623779297e+00,3.197918176651000977e+00,3.271661758422851562e+00,3.348886728286743164e+00,3.429845571517944336e+00,3.514815568923950195e+00,3.604102611541748047e+00,3.698044538497924805e+00,3.797014236450195312e+00,3.901427268981933594e+00,4.011744499206542969e+00,4.128483295440673828e+00,4.252218723297119141e+00,4.383600234985351562e+00,4.523359775543212891e+00,4.672324657440185547e+00,4.831442832946777344e+00,5.000000000000000000e+00,5.000000000000000000e+00,5.000000000000000000e+00,5.000000000000000000e+00,3.178241729736328125e+00,3.187998771667480469e+00,5.000000000000000000e+00,3.386526346206665039e+00,3.310064315795898438e+00,3.372920989990234375e+00,5.000000000000000000e+00,5.000000000000000000e+00,5.000000000000000000e+00,5.000000000000000000e+00,5.000000000000000000e+00,5.000000000000000000e+00,5.000000000000000000e+00,5.000000000000000000e+00,5.000000000000000000e+00,5.000000000000000000e+00,5.000000000000000000e+00,5.000000000000000000e+00,5.000000000000000000e+00,5.000000000000000000e+00,5.000000000000000000e+00,5.000000000000000000e+00,5.000000000000000000e+00,5.000000000000000000e+00,5.000000000000000000e+00,5.000000000000000000e+00,5.000000000000000000e+00,5.000000000000000000e+00,5.000000000000000000e+00,5.000000000000000000e+00,5.000000000000000000e+00
1.933810472488403320e+00,1.960533022880554199e+00,1.988004326820373535e+00,2.016256570816040039e+00,2.045323371887207031e+00,2.075240373611450195e+00,2.106045722961425781e+00,2.137779235839843750e+00,2.170483827590942383e+00,2.204204320907592773e+00,2.238989591598510742e+00,2.274890184402465820e+00,2.311960697174072266e+00,2.350259542465209961e+00,2.389848470687866211e+00,2.430794239044189453e+00,2.473167181015014648e+00,2.517043828964233398e+00,2.562505483627319336e+00,2.609639644622802734e+00,2.658539772033691406e+00,2.709307909011840820e+00,2.762052774429321289e+00,2.816891908645629883e+00,2.873952627182006836e+00,2.933373212814331055e+00,2.995302677154541016e+00,3.059903383255004883e+00,3.127351999282836914e+00,3.197841167449951172e+00,3.271581172943115234e+00,3.348802089691162109e+00,3.429756879806518555e+00,3.514722347259521484e+00,3.604004859924316406e+00,3.697941303253173828e+00,3.796905517578125000e+00,3.901312589645385742e+00,4.011623382568359375e+00,4.128354549407958984e+00,4.252082347869873047e+00,4.383455753326416016e+00,4.523205757141113281e+00,4.672160148620605469e+00,4.831258773803710938e+00,5.000000000000000000e+00,5.000000000000000000e+00,5.000000000000000000e+00,5.000000000000000000e+00,3.192983388900756836e+00,3.197084665298461914e+00,5.000000000000000000e+00,5.000000000000000000e+00,3.336290121078491211e+00,3.381905555725097656e+00,5.000000000000000000e+00,5.000000000000000000e+00,5.000000000000000000e+00,5.000000000000000000e+00,5.000000000000000000e+00,5.000000000000000000e+00,5.000000000000000000e+00,5.000000000000000000e+00,5.000000000000000000e+00,5.000000000000000000e+00,5.000000000000000000e+00,5.000000000000000000e+00,5.000000000000000000e+00,5.000000000000000000e+00,5.000000000000000000e+00,5.000000000000000000e+00,5.000000000000000000e+00,5.000000000000000000e+00,5.000000000000000000e+00,5.000000000000000000e+00,5.000000000000000000e+00,5.000000000000000000e+00,5.000000000000000000e+00,5.000000000000000000e+00,5.000000000000000000e+00
1.933782219886779785e+00,1.960503935813903809e+00,1.987974643707275391e+00,2.016225814819335938e+00,2.045291662216186523e+00,2.075207948684692383e+00,2.106012105941772461e+00,2.137744665145874023e+00,2.170448303222656250e+00,2.204167842864990234e+00,2.238951921463012695e+00,2.274851083755493164e+00,2.311920404434204102e+00,2.350217819213867188e+00,2.389805555343627930e+00,2.430749654769897461e+00,2.473121166229248047e+00,2.516996145248413086e+00,2.562456130981445312e+00,2.609588146209716797e+00,2.658486604690551758e+00,2.709252595901489258e+00,2.761995077133178711e+00,2.816832065582275391e+00,2.873890399932861328e+00,2.933308124542236328e+00,2.995234966278076172e+00,3.059832811355590820e+00,3.127278327941894531e+00,3.197764158248901367e+00,3.271500349044799805e+00,3.348717689514160156e+00,3.429668188095092773e+00,3.514629125595092773e+00,3.603907108306884766e+00,3.697838306427001953e+00,3.796796798706054688e+00,3.901197671890258789e+00,4.011502265930175781e+00,4.128226280212402344e+00,4.251945972442626953e+00,4.383310794830322266e+00,4.523051738739013672e+00,4.671995639801025391e+00,4.831082820892333984e+00,5.000000000000000000e+00,5.000000000000000000e+00,5.000000000000000000e+00,5.000000000000000000e+00,3.201066017150878906e+00,3.197840452194213867e+00,5.000000000000000000e+00,5.000000000000000000e+00,3.475799798965454102e+00,3.427494287490844727e+00,5.000000000000000000e+00,5.000000000000000000e+00,5.000000000000000000e+00,5.000000000000000000e+00,5.000000000000000000e+00,5.000000000000000000e+00,5.000000000000000000e+00,5.000000000000000000e+00,5.000000000000000000e+00,5.000000000000000000e+00,5.000000000000000000e+00,5.000000000000000000e+00,5.000000000000000000e+00,5.000000000000000000e+00,5.000000000000000000e+00,5.000000000000000000e+00,5.000000000000000000e+00,5.000000000000000000e+00,5.000000000000000000e+00,5.000000000000000000e+00,5.000000000000000000e+00,5.000000000000000000e+00,5.000000000000000000e+00,5.000000000000000000e+00,5.000000000000000000e+00
1.933754086494445801e+00,1.960475087165832520e+00,1.987944722175598145e+00,2.016195058822631836e+00,2.045260190963745117e+00,2.075175285339355469e+00,2.105978727340698242e+00,2.137710332870483398e+00,2.170412778854370117e+00,2.204131364822387695e+00,2.238914012908935547e+00,2.274812221527099609e+00,2.311880111694335938e+00,2.350176334381103516e+00,2.389762401580810547e+00,2.430705070495605469e+00,2.473074913024902344e+00,2.516948461532592773e+00,2.562406539916992188e+00,2.609536886215209961e+00,2.658433198928833008e+00,2.709197282791137695e+00,2.761937618255615234e+00,2.816772222518920898e+00,2.873828172683715820e+00,2.933243513107299805e+00,2.995167255401611328e+00,3.059762239456176758e+00,3.127204418182373047e+00,3.197686910629272461e+00,3.271419763565063477e+00,3.348633050918579102e+00,3.429579496383666992e+00,3.514536380767822266e+00,3.603809118270874023e+00,3.697735071182250977e+00,3.796688318252563477e+00,3.901082992553710938e+00,4.011380672454833984e+00,4.128097534179687500e+00,4.251809597015380859e+00,4.383166313171386719e+00,4.522897243499755859e+00,4.671830654144287109e+00,4.830906867980957031e+00,5.000000000000000000e+00,5.000000000000000000e+00,5.000000000000000000e+00,5.000000000000000000e+00,3.197874307632446289e+00,3.193574666976928711e+00,5.000000000000000000e+00,5.000000000000000000e+00,5.000000000000000000e+00,3.470109224319458008e+00,3.517117261886596680e+00,5.000000000000000000e+00,5.000000000000000000e+00,5.000000000000000000e+00,5.000000000000000000e+00,5.000000000000000000e+00,5.000000000000000000e+00,5.000000000000000000e+00,5.000000000000000000e+00,5.000000000000000000e+00,5.000000000000000000e+00,5.000000000000000000e+00,5.000000000000000000e+00,5.000000000000000000e+00,5.000000000000000000e+00,5.000000000000000000e+00,5.000000000000000000e+00,5.000000000000000000e+00,5.000000000000000000e+00,5.000000000000000000e+00,5.000000000000000000e+00,5.000000000000000000e+00,5.000000000000000000e+00,5.000000000000000000e+00,5.000000000000000000e+00
1.933726072311401367e+00,1.960446119308471680e+00,1.987915039062500000e+00,2.016164541244506836e+00,2.045228719711303711e+00,2.075142860412597656e+00,2.105945348739624023e+00,2.137675762176513672e+00,2.170377254486083984e+00,2.204094648361206055e+00,2.238876342773437500e+00,2.274773120880126953e+00,2.311839818954467773e+00,2.350134611129760742e+00,2.389719486236572266e+00,2.430660486221313477e+00,2.473029136657714844e+00,2.516900777816772461e+00,2.562356948852539062e+00,2.609485626220703125e+00,2.658380031585693359e+00,2.709141969680786133e+00,2.761880159378051758e+00,2.816712379455566406e+00,2.873766183853149414e+00,2.933178663253784180e+00,2.995099782943725586e+00,3.059691667556762695e+00,3.127130746841430664e+00,3.197609901428222656e+00,3.271338939666748047e+00,3.348548412322998047e+00,3.429491043090820312e+00,3.514443397521972656e+00,3.603711128234863281e+00,3.697632074356079102e+00,3.796579599380493164e+00,3.900968313217163086e+00,4.011259555816650391e+00,4.127969264984130859e+00,4.251673698425292969e+00,4.383021354675292969e+00,4.522743225097656250e+00,4.671666145324707031e+00,4.830730915069580078e+00,5.000000000000000000e+00,5.000000000000000000e+00,5.000000000000000000e+00,5.000000000000000000e+00,3.197107553482055664e+00,3.189742803573608398e+00,5.000000000000000000e+00,5.000000000000000000e+00,5.000000000000000000e+00,3.512971162796020508e+00,3.559675931930541992e+00,5.000000000000000000e+00,5.000000000000000000e+00,5.000000000000000000e+00,5.000000000000000000e+00,5.000000000000000000e+00,5.000000000000000000e+00,5.000000000000000000e+00,5.000000000000000000e+00,5.000000000000000000e+00,5.000000000000000000e+00,5.000000000000000000e+00,5.000000000000000000e+00,5.000000000000000000e+00,5.000000000000000000e+00,5.000000000000000000e+00,5.000000000000000000e+00,5.000000000000000000e+00,5.000000000000000000e+00,5.000000000000000000e+00,5.000000000000000000e+00,5.000000000000000000e+00,5.000000000000000000e+00,5.000000000000000000e+00,5.000000000000000000e+00
1.933697700500488281e+00,1.960417032241821289e+00,1.987885117530822754e+00,2.016133785247802734e+00,2.045197010040283203e+00,2.075110435485839844e+00,2.105911970138549805e+00,2.137641429901123047e+00,2.170341730117797852e+00,2.204057931900024414e+00,2.238838434219360352e+00,2.274734020233154297e+00,2.311799526214599609e+00,2.350092887878417969e+00,2.389676332473754883e+00,2.430615901947021484e+00,2.472982883453369141e+00,2.516852855682373047e+00,2.562307596206665039e+00,2.609434127807617188e+00,2.658326625823974609e+00,2.709086656570434570e+00,2.761822700500488281e+00,2.816652536392211914e+00,2.873703718185424805e+00,2.933113813400268555e+00,2.995032072067260742e+00,3.059621095657348633e+00,3.127057075500488281e+00,3.197532653808593750e+00,3.271258354187011719e+00,3.348464012145996094e+00,3.429402351379394531e+00,3.514350175857543945e+00,3.603613376617431641e+00,3.697528839111328125e+00,3.796470880508422852e+00,3.900853633880615234e+00,4.011138439178466797e+00,4.127840518951416016e+00,4.251537322998046875e+00,4.382876396179199219e+00,4.522589206695556641e+00,4.671501636505126953e+00,4.830554962158203125e+00,5.000000000000000000e+00,5.000000000000000000e+00,5.000000000000000000e+00,5.000000000000000000e+00,3.216099977493286133e+00,3.189195632934570312e+00,5.000000000000000000e+00,5.000000000000000000e+00,5.000000000000000000e+00,3.589953184127807617e+00,3.605458736419677734e+00,5.000000000000000000e+00,5.000000000000000000e+00,5.000000000000000000e+00,5.000000000000000000e+00,5.000000000000000000e+00,5.000000000000000000e+00,5.000000000000000000e+00,5.000000000000000000e+00,5.000000000000000000e+00,5.000000000000000000e+00,5.000000000000000000e+00,5.000000000000000000e+00,5.000000000000000000e+00,5.000000000000000000e+00,5.000000000000000000e+00,5.000000000000000000e+00,5.000000000000000000e+00,5.000000000000000000e+00,5.000000000000000000e+00,5.000000000000000000e+00,5.000000000000000000e+00,5.000000000000000000e+00,5.000000000000000000e+00,5.000000000000000000e+00
1.933669686317443848e+00,1.960388183593750000e+00,1.987855434417724609e+00,2.016103267669677734e+00,2.045165538787841797e+00,2.075078010559082031e+00,2.105878353118896484e+00,2.137607097625732422e+00,2.170306205749511719e+00,2.204021453857421875e+00,2.238800764083862305e+00,2.274695158004760742e+00,2.311759233474731445e+00,2.350051403045654297e+00,2.389633178710937500e+00,2.430571556091308594e+00,2.472936868667602539e+00,2.516805171966552734e+00,2.562258005142211914e+00,2.609382867813110352e+00,2.658273458480834961e+00,2.709031105041503906e+00,2.761765003204345703e+00,2.816592931747436523e+00,2.873641490936279297e+00,2.933048963546752930e+00,2.994964361190795898e+00,3.059550523757934570e+00,3.126983404159545898e+00,3.197455644607543945e+00,3.271177768707275391e+00,3.348379850387573242e+00,3.429313659667968750e+00,3.514256954193115234e+00,3.603515386581420898e+00,3.697425842285156250e+00,3.796362161636352539e+00,3.900738716125488281e+00,4.011016845703125000e+00,4.127712249755859375e+00,4.251400947570800781e+00,4.382731437683105469e+00,4.522434711456298828e+00,4.671337604522705078e+00,4.830379009246826172e+00,5.000000000000000000e+00,5.000000000000000000e+00,5.000000000000000000e+00,5.000000000000000000e+00,5.000000000000000000e+00,3.188654184341430664e+00,5.000000000000000000e+00,5.000000000000000000e+00,5.000000000000000000e+00,3.648757457733154297e+00,3.640614509582519531e+00,5.000000000000000000e+00,5.000000000000000000e+00,5.000000000000000000e+00,5.000000000000000000e+00,5.000000000000000000e+00,5.000000000000000000e+00,5.000000000000000000e+00,5.000000000000000000e+00,5.000000000000000000e+00,5.000000000000000000e+00,5.000000000000000000e+00,5.000000000000000000e+00,5.000000000000000000e+00,5.000000000000000000e+00,5.000000000000000000e+00,5.000000000000000000e+00,5.000000000000000000e+00,5.000000000000000000e+00,5.000000000000000000e+00,5.000000000000000000e+00,5.000000000000000000e+00,5.000000000000000000e+00,5.000000000000000000e+00,5.000000000000000000e+00
1.933641314506530762e+00,1.960359096527099609e+00,1.987825512886047363e+00,2.016072511672973633e+00,2.045134067535400391e+00,2.075045585632324219e+00,2.105845212936401367e+00,2.137572526931762695e+00,2.170270681381225586e+00,2.203984737396240234e+00,2.238762855529785156e+00,2.274656057357788086e+00,2.311718940734863281e+00,2.350009679794311523e+00,2.389590263366699219e+00,2.430526971817016602e+00,2.472890853881835938e+00,2.516757488250732422e+00,2.562208414077758789e+00,2.609331607818603516e+00,2.658220291137695312e+00,2.708976030349731445e+00,2.761707782745361328e+00,2.816533088684082031e+00,2.873579263687133789e+00,2.932984113693237305e+00,2.994896888732910156e+00,3.059479951858520508e+00,3.126909494400024414e+00,3.197378635406494141e+00,3.271097421646118164e+00,3.348295211791992188e+00,3.429225206375122070e+00,3.514163970947265625e+00,3.603417396545410156e+00,3.697322845458984375e+00,3.796253442764282227e+00,3.900624036788940430e+00,4.010895729064941406e+00,4.127583980560302734e+00,4.251265048980712891e+00,4.382586956024169922e+00,4.522280693054199219e+00,4.671173095703125000e+00,4.821151733398437500e+00,4.819971084594726562e+00,4.818790912628173828e+00,4.817611694335937500e+00,4.816432952880859375e+00,4.815254211425781250e+00,3.194238901138305664e+00,4.812899589538574219e+00,4.811722755432128906e+00,4.810546875000000000e+00,3.619736433029174805e+00,3.619138002395629883e+00,4.807022094726562500e+00,4.805848121643066406e+00,4.804675102233886719e+00,4.803502559661865234e+00,4.802330493927001953e+00,4.801158905029296875e+00,4.799988269805908203e+00,4.798818111419677734e+00,4.797647953033447266e+00,4.796478748321533203e+00,4.795310497283935547e+00,4.794142246246337891e+00,4.792974948883056641e+00,4.791808128356933594e+00,4.790641784667968750e+00,4.789475917816162109e+00,4.788311004638671875e+00,4.787146568298339844e+00,4.785982131958007812e+00,4.784818649291992188e+00,4.783655643463134766e+00,4.782493114471435547e+00,4.781331539154052734e+00,4.780170440673828125e+00
1.933613300323486328e+00,1.960330247879028320e+00,1.987795829772949219e+00,2.016041994094848633e+00,2.045102596282958984e+00,2.075012922286987305e+00,2.105811595916748047e+00,2.137538194656372070e+00,2.170235157012939453e+00,2.203948259353637695e+00,2.238725185394287109e+00,2.274617195129394531e+00,2.311678647994995117e+00,2.349967956542968750e+00,2.389547348022460938e+00,2.430482387542724609e+00,2.472844600677490234e+00,2.516709566116333008e+00,2.562159061431884766e+00,2.609280109405517578e+00,2.658166885375976562e+00,2.708920717239379883e+00,2.761650323867797852e+00,2.816473245620727539e+00,2.873517036437988281e+00,2.932919263839721680e+00,2.994829177856445312e+00,3.059409379959106445e+00,3.126835823059082031e+00,3.197301626205444336e+00,3.271016597747802734e+00,3.348210811614990234e+00,3.429136514663696289e+00,3.514070749282836914e+00,3.603319644927978516e+00,3.697219610214233398e+00,3.751416444778442383e+00,3.750701427459716797e+00,3.749986410140991211e+00,3.749271869659423828e+00,3.748557806015014648e+00,3.747843980789184570e+00,3.747130393981933594e+00,3.746417045593261719e+00,3.745703458786010742e+00,3.744991064071655273e+00,3.744278669357299805e+00,3.743566274642944336e+00,3.742854356765747070e+00,3.162413358688354492e+00,3.134130716323852539e+00,3.740720510482788086e+00,3.740009784698486328e+00,3.739299058914184570e+00,3.738588809967041016e+00,3.737879037857055664e+00,3.737169265747070312e+00,3.736459732055664062e+00,3.735750436782836914e+00,3.735041379928588867e+00,3.734332799911499023e+00,3.733624696731567383e+00,3.732916593551635742e+00,3.732208490371704102e+00,3.731500864028930664e+00,3.730793476104736328e+00,3.730086803436279297e+00,3.729379892349243164e+00,3.728673458099365234e+00,3.727967023849487305e+00,3.727261066436767578e+00,3.726555585861206055e+00,3.725850105285644531e+00,3.725144863128662109e+00,3.724439859390258789e+00,3.723735094070434570e+00,3.723031044006347656e+00,3.722326755523681641e+00,3.721622943878173828e+00,3.720919370651245117e+00
1.933584928512573242e+00,1.960301160812377930e+00,1.987765908241271973e+00,2.016011238098144531e+00,2.045070886611938477e+00,2.074980735778808594e+00,2.105778217315673828e+00,2.137503623962402344e+00,2.170199871063232422e+00,2.203911542892456055e+00,2.238687276840209961e+00,2.274578094482421875e+00,2.311638355255126953e+00,2.349926471710205078e+00,2.389504194259643555e+00,2.430438041687011719e+00,2.472798585891723633e+00,2.516661882400512695e+00,2.562109470367431641e+00,2.609228849411010742e+00,2.658113718032836914e+00,2.708865404129028320e+00,2.761592864990234375e+00,2.816413402557373047e+00,2.873454809188842773e+00,2.932854413986206055e+00,2.994761466979980469e+00,3.059338808059692383e+00,3.070191144943237305e+00,3.069712162017822266e+00,3.069233417510986328e+00,3.068754911422729492e+00,3.068276405334472656e+00,3.067797899246215820e+00,3.067319631576538086e+00,3.066841840744018555e+00,3.066363811492919922e+00,3.065886259078979492e+00,3.065408706665039062e+00,3.064931154251098633e+00,3.064453840255737305e+00,3.063976764678955078e+00,3.063499689102172852e+00,3.063022851943969727e+00,3.062546253204345703e+00,3.062069416046142578e+00,3.061593055725097656e+00,3.061116933822631836e+00,3.060640811920166016e+00,3.060164928436279297e+00,3.059689044952392578e+00,3.059213399887084961e+00,3.058737993240356445e+00,3.058263063430786133e+00,3.057787895202636719e+00,3.057312726974487305e+00,3.056837797164916992e+00,3.056363105773925781e+00,3.055888891220092773e+00,3.055414438247680664e+00,3.054939985275268555e+00,3.054466009140014648e+00,3.053991794586181641e+00,3.053518295288085938e+00,3.053044557571411133e+00,3.052571058273315430e+00,3.052097558975219727e+00,3.051624298095703125e+00,3.051151514053344727e+00,3.050678491592407227e+00,3.050205707550048828e+00,3.049733161926269531e+00,3.049260616302490234e+00,3.048788547515869141e+00,3.048316240310668945e+00,3.047844171524047852e+00,3.047372102737426758e+00,3.046900272369384766e+00,3.046428680419921875e+00,3.045957565307617188e+00
1.933556914329528809e+00,1.960272312164306641e+00,1.987736225128173828e+00,2.015980720520019531e+00,2.045039653778076172e+00,2.074948310852050781e+00,2.105744838714599609e+00,2.137469291687011719e+00,2.170164346694946289e+00,2.203874826431274414e+00,2.238649606704711914e+00,2.274538993835449219e+00,2.311598300933837891e+00,2.349884986877441406e+00,2.389461278915405273e+00,2.430393457412719727e+00,2.472752332687377930e+00,2.516614198684692383e+00,2.562060117721557617e+00,2.598695755004882812e+00,2.598352670669555664e+00,2.598009586334228516e+00,2.597666501998901367e+00,2.597323656082153320e+00,2.596980810165405273e+00,2.596638202667236328e+00,2.596295595169067383e+00,2.595953226089477539e+00,2.595610618591308594e+00,2.595268249511718750e+00,2.594926118850708008e+00,2.594583988189697266e+00,2.594242095947265625e+00,2.593899965286254883e+00,2.593558073043823242e+00,2.593216180801391602e+00,2.592874526977539062e+00,2.592533111572265625e+00,2.592191457748413086e+00,2.591850042343139648e+00,2.591508626937866211e+00,2.591167449951171875e+00,2.590826272964477539e+00,2.590485334396362305e+00,2.590144395828247070e+00,2.589803457260131836e+00,2.589462518692016602e+00,2.589121818542480469e+00,2.588781356811523438e+00,2.588440895080566406e+00,2.588100433349609375e+00,2.587759971618652344e+00,2.587419748306274414e+00,2.587079524993896484e+00,2.586739540100097656e+00,2.586399793624877930e+00,2.586059808731079102e+00,2.585720062255859375e+00,2.585380315780639648e+00,2.585040807723999023e+00,2.584701299667358398e+00,2.584362030029296875e+00,2.584022760391235352e+00,2.583683490753173828e+00,2.583344459533691406e+00,2.583005428314208984e+00,2.582666635513305664e+00,2.582327604293823242e+00,2.581988811492919922e+00,2.581650257110595703e+00,2.581311464309692383e+00,2.580973148345947266e+00,2.580634832382202148e+00,2.580296516418457031e+00,2.579958200454711914e+00,2.579619884490966797e+00,2.579282045364379883e+00,2.578943967819213867e+00,2.578606128692626953e+00,2.578268289566040039e+00
1.933528661727905273e+00,1.960243225097656250e+00,1.987706422805786133e+00,2.015949964523315430e+00,2.045007944107055664e+00,2.074915647506713867e+00,2.105711460113525391e+00,2.137434720993041992e+00,2.170128822326660156e+00,2.203838348388671875e+00,2.238611698150634766e+00,2.252480268478393555e+00,2.252222537994384766e+00,2.251964807510375977e+00,2.251707077026367188e+00,2.251449584960937500e+00,2.251191854476928711e+00,2.250934362411499023e+00,2.250676870346069336e+00,2.250419616699218750e+00,2.250162363052368164e+00,2.249905109405517578e+00,2.249647855758666992e+00,2.249390602111816406e+00,2.249133348464965820e+00,2.248876333236694336e+00,2.248619556427001953e+00,2.248362541198730469e+00,2.248105764389038086e+00,2.247848749160766602e+00,2.247592210769653320e+00,2.247335433959960938e+00,2.247078895568847656e+00,2.246822357177734375e+00,2.246565818786621094e+00,2.246309280395507812e+00,2.246052980422973633e+00,2.245796680450439453e+00,2.245540380477905273e+00,2.245284080505371094e+00,2.245028018951416016e+00,2.244771718978881836e+00,2.244515657424926758e+00,2.244259834289550781e+00,2.244003772735595703e+00,2.243747949600219727e+00,2.243492126464843750e+00,2.243236303329467773e+00,2.242980718612670898e+00,2.242725133895874023e+00,2.242469549179077148e+00,2.242213964462280273e+00,2.241958379745483398e+00,2.241703033447265625e+00,2.241447687149047852e+00,2.241192579269409180e+00,2.240937232971191406e+00,2.240681886672973633e+00,2.240427017211914062e+00,2.240172147750854492e+00,2.239917039871215820e+00,2.239662170410156250e+00,2.239407300949096680e+00,2.239152669906616211e+00,2.238897800445556641e+00,2.238643169403076172e+00,2.238388538360595703e+00,2.238134145736694336e+00,2.237879753112792969e+00,2.237625360488891602e+00,2.237370967864990234e+00,2.237116575241088867e+00,2.236862182617187500e+00,2.236608266830444336e+00,2.236354112625122070e+00,2.236099958419799805e+00,2.235845804214477539e+00,2.235591888427734375e+00,2.235337972640991211e+00,2.235084295272827148e+00
1.933500528335571289e+00,1.960214376449584961e+00,1.987676739692687988e+00,1.987669825553894043e+00,1.987469077110290527e+00,1.987268447875976562e+00,1.987067699432373047e+00,1.986866950988769531e+00,1.986666440963745117e+00,1.986465811729431152e+00,1.986265540122985840e+00,1.986064910888671875e+00,1.985864400863647461e+00,1.985664129257202148e+00,1.985463738441467285e+00,1.985263586044311523e+00,1.985063195228576660e+00,1.984863162040710449e+00,1.984662890434265137e+00,1.984462499618530273e+00,1.984262585639953613e+00,1.984062433242797852e+00,1.983862519264221191e+00,1.983662486076354980e+00,1.983462452888488770e+00,1.983262658119201660e+00,1.983062744140625000e+00,1.982863068580627441e+00,1.982663154602050781e+00,1.982463359832763672e+00,1.982263803482055664e+00,1.982064008712768555e+00,1.981864452362060547e+00,1.981664776802062988e+00,1.981465458869934082e+00,1.981265783309936523e+00,1.981066226959228516e+00,1.980867028236389160e+00,1.980667471885681152e+00,1.980468273162841797e+00,1.980268836021423340e+00,1.980069518089294434e+00,1.979870438575744629e+00,1.979671120643615723e+00,1.979472160339355469e+00,1.979272961616516113e+00,1.979074001312255859e+00,1.978874921798706055e+00,1.978675842285156250e+00,1.978477001190185547e+00,1.978278040885925293e+00,1.978079319000244141e+00,1.977880358695983887e+00,1.977681517601013184e+00,1.977482914924621582e+00,1.977284073829650879e+00,1.977085590362548828e+00,1.976886868476867676e+00,1.976688385009765625e+00,1.976489782333374023e+00,1.976291179656982422e+00,1.976092815399169922e+00,1.975894331932067871e+00,1.975696086883544922e+00,1.975497603416442871e+00,1.975299477577209473e+00,1.975101351737976074e+00,1.974902987480163574e+00,1.974704980850219727e+00,1.974506735801696777e+00,1.974308729171752930e+00,1.974110841751098633e+00,1.973912715911865234e+00,1.973714828491210938e+00,1.973516821861267090e+00,1.973319053649902344e+00,1.973121285438537598e+00,1.972923398017883301e+00,1.972725749015808105e+00,1.972527861595153809e+00
1.777770280838012695e+00,1.777609586715698242e+00,1.777449131011962891e+00,1.777288556098937988e+00,1.777128100395202637e+00,1.776967525482177734e+00,1.776807069778442383e+00,1.776646733283996582e+00,1.776486277580261230e+00,1.776326060295104980e+00,1.776165604591369629e+00,1.776005387306213379e+00,1.775845050811767578e+00,1.775684714317321777e+00,1.775524616241455078e+00,1.775364398956298828e+00,1.775204300880432129e+00,1.775044083595275879e+00,1.774883866310119629e+00,1.774723887443542480e+00,1.774563789367675781e+00,1.774403929710388184e+00,1.774243831634521484e+00,1.774083971977233887e+00,1.773923993110656738e+00,1.773764014244079590e+00,1.773604273796081543e+00,1.773444294929504395e+00,1.773284673690795898e+00,1.773124814033508301e+00,1.772964954376220703e+00,1.772805333137512207e+00,1.772645592689514160e+00,1.772485971450805664e+00,1.772326231002807617e+00,1.772166728973388672e+00,1.772007107734680176e+00,1.771847486495971680e+00,1.771687984466552734e+00,1.771528482437133789e+00,1.771369099617004395e+00,1.771209597587585449e+00,1.771050095558166504e+00,1.770890831947326660e+00,1.770731329917907715e+00,1.770572185516357422e+00,1.770412802696228027e+00,1.770253658294677734e+00,1.770094275474548340e+00,1.769935011863708496e+00,1.769775986671447754e+00,1.769616723060607910e+00,1.769457697868347168e+00,1.769298553466796875e+00,1.769139409065246582e+00,1.768980383872985840e+00,1.768821358680725098e+00,1.768662452697753906e+00,1.768503427505493164e+00,1.768344640731811523e+00,1.768185615539550781e+00,1.768026709556579590e+00,1.767867922782897949e+00,1.767709136009216309e+00,1.767550230026245117e+00,1.767391562461853027e+00,1.767232775688171387e+00,1.767074227333068848e+00,1.766915678977966309e+00,1.766756892204284668e+00,1.766598463058471680e+00,1.766439795494079590e+00,1.766281366348266602e+00,1.766122937202453613e+00,1.765964269638061523e+00,1.765805959701538086e+00,1.765647411346435547e+00,1.765489220619201660e+00,1.765330672264099121e+00,1.765172481536865234e+00
1.607573509216308594e+00,1.607442140579223633e+00,1.607310771942138672e+00,1.607179641723632812e+00,1.607048273086547852e+00,1.606917142868041992e+00,1.606785893440246582e+00,1.606654644012451172e+00,1.606523513793945312e+00,1.606392383575439453e+00,1.606261253356933594e+00,1.606130123138427734e+00,1.605999112129211426e+00,1.605867981910705566e+00,1.605736970901489258e+00,1.605605959892272949e+00,1.605474948883056641e+00,1.605344057083129883e+00,1.605213046073913574e+00,1.605082035064697266e+00,1.604951262474060059e+00,1.604820251464843750e+00,1.604689478874206543e+00,1.604558587074279785e+00,1.604427814483642578e+00,1.604296922683715820e+00,1.604166150093078613e+00,1.604035496711730957e+00,1.603904604911804199e+00,1.603773951530456543e+00,1.603643298149108887e+00,1.603512525558471680e+00,1.603381991386413574e+00,1.603251218795776367e+00,1.603120684623718262e+00,1.602990031242370605e+00,1.602859616279602051e+00,1.602728962898254395e+00,1.602598428726196289e+00,1.602468013763427734e+00,1.602337479591369629e+00,1.602207064628601074e+00,1.602076530456542969e+00,1.601945996284484863e+00,1.601815700531005859e+00,1.601685285568237305e+00,1.601554989814758301e+00,1.601424694061279297e+00,1.601294398307800293e+00,1.601164102554321289e+00,1.601033687591552734e+00,1.600903511047363281e+00,1.600773215293884277e+00,1.600643157958984375e+00,1.600512862205505371e+00,1.600382685661315918e+00,1.600252628326416016e+00,1.600122451782226562e+00,1.599992394447326660e+00,1.599862217903137207e+00,1.599732279777526855e+00,1.599602103233337402e+00,1.599472045898437500e+00,1.599342226982116699e+00,1.599212169647216797e+00,1.599082231521606445e+00,1.598952293395996094e+00,1.598822355270385742e+00,1.598692536354064941e+00,1.598562598228454590e+00,1.598432660102844238e+00,1.598302960395812988e+00,1.598173141479492188e+00,1.598043322563171387e+00,1.597913622856140137e+00,1.597783923149108887e+00,1.597654223442077637e+00,1.597524642944335938e+00,1.597394824028015137e+00,1.597265243530273438e+00
1.467117428779602051e+00,1.467008113861083984e+00,1.466898679733276367e+00,1.466789245605468750e+00,1.466680049896240234e+00,1.466570615768432617e+00,1.466461420059204102e+00,1.466352105140686035e+00,1.466242790222167969e+00,1.466133594512939453e+00,1.466024279594421387e+00,1.465915203094482422e+00,1.465805888175964355e+00,1.465696811676025391e+00,1.465587615966796875e+00,1.465478420257568359e+00,1.465369343757629395e+00,1.465260148048400879e+00,1.465151190757751465e+00,1.465041995048522949e+00,1.464932918548583984e+00,1.464823961257934570e+00,1.464714884757995605e+00,1.464605927467346191e+00,1.464496850967407227e+00,1.464387893676757812e+00,1.464278936386108398e+00,1.464169979095458984e+00,1.464061021804809570e+00,1.463952064514160156e+00,1.463843226432800293e+00,1.463734269142150879e+00,1.463625431060791016e+00,1.463516592979431152e+00,1.463407754898071289e+00,1.463298916816711426e+00,1.463190078735351562e+00,1.463081359863281250e+00,1.462972521781921387e+00,1.462863802909851074e+00,1.462755084037780762e+00,1.462646365165710449e+00,1.462537646293640137e+00,1.462428927421569824e+00,1.462320208549499512e+00,1.462211608886718750e+00,1.462102890014648438e+00,1.461994409561157227e+00,1.461885690689086914e+00,1.461777210235595703e+00,1.461668610572814941e+00,1.461560010910034180e+00,1.461451530456542969e+00,1.461342930793762207e+00,1.461234450340270996e+00,1.461125969886779785e+00,1.461017370223999023e+00,1.460909008979797363e+00,1.460800528526306152e+00,1.460692167282104492e+00,1.460583686828613281e+00,1.460475206375122070e+00,1.460366845130920410e+00,1.460258483886718750e+00,1.460150241851806641e+00,1.460041761398315430e+00,1.459933519363403320e+00,1.459825158119201660e+00,1.459716916084289551e+00,1.459608674049377441e+00,1.459500312805175781e+00,1.459392189979553223e+00,1.459283947944641113e+00,1.459175586700439453e+00,1.459067463874816895e+00,1.458959341049194336e+00,1.458851218223571777e+00,1.458742976188659668e+00,1.458634972572326660e+00,1.458526968955993652e+00
1.349232912063598633e+00,1.349140405654907227e+00,1.349047899246215820e+00,1.348955392837524414e+00,1.348862886428833008e+00,1.348770499229431152e+00,1.348677992820739746e+00,1.348585605621337891e+00,1.348493218421936035e+00,1.348400712013244629e+00,1.348308444023132324e+00,1.348215937614440918e+00,1.348123669624328613e+00,1.348031282424926758e+00,1.347938895225524902e+00,1.347846627235412598e+00,1.347754240036010742e+00,1.347662091255187988e+00,1.347569704055786133e+00,1.347477555274963379e+00,1.347385168075561523e+00,1.347292900085449219e+00,1.347200751304626465e+00,1.347108483314514160e+00,1.347016334533691406e+00,1.346924066543579102e+00,1.346831917762756348e+00,1.346739768981933594e+00,1.346647500991821289e+00,1.346555471420288086e+00,1.346463322639465332e+00,1.346371173858642578e+00,1.346279025077819824e+00,1.346186876296997070e+00,1.346094846725463867e+00,1.346002817153930664e+00,1.345910787582397461e+00,1.345818638801574707e+00,1.345726609230041504e+00,1.345634579658508301e+00,1.345542550086975098e+00,1.345450639724731445e+00,1.345358610153198242e+00,1.345266699790954590e+00,1.345174670219421387e+00,1.345082759857177734e+00,1.344990849494934082e+00,1.344898819923400879e+00,1.344807028770446777e+00,1.344715118408203125e+00,1.344623088836669922e+00,1.344531297683715820e+00,1.344439387321472168e+00,1.344347596168518066e+00,1.344255805015563965e+00,1.344164013862609863e+00,1.344072103500366211e+00,1.343980312347412109e+00,1.343888521194458008e+00,1.343796730041503906e+00,1.343705058097839355e+00,1.343613266944885254e+00,1.343521475791931152e+00,1.343429803848266602e+00,1.343338012695312500e+00,1.343246459960937500e+00,1.343154668807983398e+00,1.343063116073608398e+00,1.342971324920654297e+00,1.342879652976989746e+00,1.342788100242614746e+00,1.342696428298950195e+00,1.342604875564575195e+00,1.342513203620910645e+00,1.342421650886535645e+00,1.342330098152160645e+00,1.342238545417785645e+00,1.342146873474121094e+00,1.342055439949035645e+00,1.341963887214660645e+00
1.248883605003356934e+00,1.248804450035095215e+00,1.248725175857543945e+00,1.248645901679992676e+00,1.248566746711730957e+00,1.248487472534179688e+00,1.248408317565917969e+00,1.248329162597656250e+00,1.248250007629394531e+00,1.248170733451843262e+00,1.248091578483581543e+00,1.248012423515319824e+00,1.247933268547058105e+00,1.247854232788085938e+00,1.247775077819824219e+00,1.247695922851562500e+00,1.247616767883300781e+00,1.247537732124328613e+00,1.247458696365356445e+00,1.247379541397094727e+00,1.247300505638122559e+00,1.247221469879150391e+00,1.247142314910888672e+00,1.247063398361206055e+00,1.246984243392944336e+00,1.246905326843261719e+00,1.246826291084289551e+00,1.246747255325317383e+00,1.246668338775634766e+00,1.246589303016662598e+00,1.246510386466979980e+00,1.246431350708007812e+00,1.246352553367614746e+00,1.246273517608642578e+00,1.246194601058959961e+00,1.246115684509277344e+00,1.246036767959594727e+00,1.245957970619201660e+00,1.245879054069519043e+00,1.245800137519836426e+00,1.245721220970153809e+00,1.245642423629760742e+00,1.245563626289367676e+00,1.245484709739685059e+00,1.245405912399291992e+00,1.245327115058898926e+00,1.245248198509216309e+00,1.245169520378112793e+00,1.245090723037719727e+00,1.245011925697326660e+00,1.244933128356933594e+00,1.244854331016540527e+00,1.244775652885437012e+00,1.244696855545043945e+00,1.244618177413940430e+00,1.244539499282836914e+00,1.244460821151733398e+00,1.244382023811340332e+00,1.244303345680236816e+00,1.244224786758422852e+00,1.244145989418029785e+00,1.244067430496215820e+00,1.243988752365112305e+00,1.243910074234008789e+00,1.243831515312194824e+00,1.243752837181091309e+00,1.243674278259277344e+00,1.243595719337463379e+00,1.243517160415649414e+00,1.243438482284545898e+00,1.243359923362731934e+00,1.243281364440917969e+00,1.243202805519104004e+00,1.243124365806579590e+00,1.243045806884765625e+00,1.242967247962951660e+00,1.242888808250427246e+00,1.242810249328613281e+00,1.242731809616088867e+00,1.242653250694274902e+00
1.162428140640258789e+00,1.162359476089477539e+00,1.162290811538696289e+00,1.162222146987915039e+00,1.162153482437133789e+00,1.162084937095642090e+00,1.162016272544860840e+00,1.161947727203369141e+00,1.161879062652587891e+00,1.161810517311096191e+00,1.161741852760314941e+00,1.161673307418823242e+00,1.161604762077331543e+00,1.161536097526550293e+00,1.161467671394348145e+00,1.161399006843566895e+00,1.161330461502075195e+00,1.161262035369873047e+00,1.161193370819091797e+00,1.161124944686889648e+00,1.161056399345397949e+00,1.160987973213195801e+00,1.160919427871704102e+00,1.160850882530212402e+00,1.160782456398010254e+00,1.160714030265808105e+00,1.160645604133605957e+00,1.160577058792114258e+00,1.160508632659912109e+00,1.160440206527709961e+00,1.160371780395507812e+00,1.160303354263305664e+00,1.160234928131103516e+00,1.160166501998901367e+00,1.160098075866699219e+00,1.160029649734497070e+00,1.159961342811584473e+00,1.159892916679382324e+00,1.159824609756469727e+00,1.159756302833557129e+00,1.159687876701354980e+00,1.159619569778442383e+00,1.159551262855529785e+00,1.159482955932617188e+00,1.159414529800415039e+00,1.159346342086791992e+00,1.159278035163879395e+00,1.159209609031677246e+00,1.159141421318054199e+00,1.159073114395141602e+00,1.159004926681518555e+00,1.158936619758605957e+00,1.158868312835693359e+00,1.158800125122070312e+00,1.158731818199157715e+00,1.158663630485534668e+00,1.158595442771911621e+00,1.158527255058288574e+00,1.158458948135375977e+00,1.158390760421752930e+00,1.158322691917419434e+00,1.158254384994506836e+00,1.158186316490173340e+00,1.158118128776550293e+00,1.158049941062927246e+00,1.157981872558593750e+00,1.157913684844970703e+00,1.157845616340637207e+00,1.157777428627014160e+00,1.157709360122680664e+00,1.157641172409057617e+00,1.157573103904724121e+00,1.157505035400390625e+00,1.157436966896057129e+00,1.157368898391723633e+00,1.157300829887390137e+00,1.157232761383056641e+00,1.157164692878723145e+00,1.157096624374389648e+00,1.157028675079345703e+00
1.087167501449584961e+00,1.087107539176940918e+00,1.087047457695007324e+00,1.086987376213073730e+00,1.086927294731140137e+00,1.086867332458496094e+00,1.086807250976562500e+00,1.086747288703918457e+00,1.086687326431274414e+00,1.086627244949340820e+00,1.086567282676696777e+00,1.086507320404052734e+00,1.086447238922119141e+00,1.086387276649475098e+00,1.086327314376831055e+00,1.086267352104187012e+00,1.086207389831542969e+00,1.086147427558898926e+00,1.086087465286254883e+00,1.086027503013610840e+00,1.085967659950256348e+00,1.085907697677612305e+00,1.085847854614257812e+00,1.085787892341613770e+00,1.085727930068969727e+00,1.085668087005615234e+00,1.085608124732971191e+00,1.085548281669616699e+00,1.085488438606262207e+00,1.085428476333618164e+00,1.085368633270263672e+00,1.085308790206909180e+00,1.085248947143554688e+00,1.085189104080200195e+00,1.085129261016845703e+00,1.085069417953491211e+00,1.085009574890136719e+00,1.084949731826782227e+00,1.084889888763427734e+00,1.084830164909362793e+00,1.084770321846008301e+00,1.084710478782653809e+00,1.084650754928588867e+00,1.084590911865234375e+00,1.084531188011169434e+00,1.084471464157104492e+00,1.084411621093750000e+00,1.084351897239685059e+00,1.084292173385620117e+00,1.084232449531555176e+00,1.084172606468200684e+00,1.084113001823425293e+00,1.084053277969360352e+00,1.083993434906005859e+00,1.083933830261230469e+00,1.083874106407165527e+00,1.083814382553100586e+00,1.083754658699035645e+00,1.083694934844970703e+00,1.083635330200195312e+00,1.083575606346130371e+00,1.083516001701354980e+00,1.083456397056579590e+00,1.083396792411804199e+00,1.083337068557739258e+00,1.083277344703674316e+00,1.083217859268188477e+00,1.083158135414123535e+00,1.083098530769348145e+00,1.083038926124572754e+00,1.082979321479797363e+00,1.082919716835021973e+00,1.082860112190246582e+00,1.082800626754760742e+00,1.082741022109985352e+00,1.082681417465209961e+00,1.082621812820434570e+00,1.082562208175659180e+00,1.082502722740173340e+00,1.082443118095397949e+00
1.021059751510620117e+00,1.021006822586059570e+00,1.020953893661499023e+00,1.020900845527648926e+00,1.020847916603088379e+00,1.020794987678527832e+00,1.020741939544677734e+00,1.020689010620117188e+00,1.020636081695556641e+00,1.020583152770996094e+00,1.020530223846435547e+00,1.020477294921875000e+00,1.020424365997314453e+00,1.020371437072753906e+00,1.020318627357482910e+00,1.020265698432922363e+00,1.020212769508361816e+00,1.020159840583801270e+00,1.020107030868530273e+00,1.020054101943969727e+00,1.020001292228698730e+00,1.019948363304138184e+00,1.019895553588867188e+00,1.019842624664306641e+00,1.019789814949035645e+00,1.019737005233764648e+00,1.019684195518493652e+00,1.019631266593933105e+00,1.019578456878662109e+00,1.019525647163391113e+00,1.019472837448120117e+00,1.019420027732849121e+00,1.019367218017578125e+00,1.019314408302307129e+00,1.019261598587036133e+00,1.019208788871765137e+00,1.019156098365783691e+00,1.019103288650512695e+00,1.019050478935241699e+00,1.018997669219970703e+00,1.018944978713989258e+00,1.018892168998718262e+00,1.018839359283447266e+00,1.018786668777465820e+00,1.018733978271484375e+00,1.018681168556213379e+00,1.018628478050231934e+00,1.018575668334960938e+00,1.018522977828979492e+00,1.018470287322998047e+00,1.018417596817016602e+00,1.018364906311035156e+00,1.018312215805053711e+00,1.018259525299072266e+00,1.018206834793090820e+00,1.018154144287109375e+00,1.018101453781127930e+00,1.018048763275146484e+00,1.017996072769165039e+00,1.017943382263183594e+00,1.017890810966491699e+00,1.017838120460510254e+00,1.017785549163818359e+00,1.017732858657836914e+00,1.017680287361145020e+00,1.017627596855163574e+00,1.017574906349182129e+00,1.017522335052490234e+00,1.017469763755798340e+00,1.017417192459106445e+00,1.017364501953125000e+00,1.017311930656433105e+00,1.017259359359741211e+00,1.017206788063049316e+00,1.017154216766357422e+00,1.017101645469665527e+00,1.017049074172973633e+00,1.016996502876281738e+00,1.016943931579589844e+00,1.016891360282897949e+00
9.625307917594909668e-01,9.624837636947631836e-01,9.624367356300354004e-01,9.623896479606628418e-01,9.623425006866455078e-01,9.622954726219177246e-01,9.622485041618347168e-01,9.622013568878173828e-01,9.621543288230895996e-01,9.621073603630065918e-01,9.620603322982788086e-01,9.620132446289062500e-01,9.619662165641784668e-01,9.619192481040954590e-01,9.618721604347229004e-01,9.618251323699951172e-01,9.617781639099121094e-01,9.617311954498291016e-01,9.616841077804565430e-01,9.616371393203735352e-01,9.615902304649353027e-01,9.615431427955627441e-01,9.614961743354797363e-01,9.614492654800415039e-01,9.614021778106689453e-01,9.613552689552307129e-01,9.613083600997924805e-01,9.612613916397094727e-01,9.612143635749816895e-01,9.611674547195434570e-01,9.611205458641052246e-01,9.610735177993774414e-01,9.610266089439392090e-01,9.609797000885009766e-01,9.609328508377075195e-01,9.608858227729797363e-01,9.608389139175415039e-01,9.607920646667480469e-01,9.607450962066650391e-01,9.606981873512268066e-01,9.606513381004333496e-01,9.606044888496398926e-01,9.605575203895568848e-01,9.605106711387634277e-01,9.604638218879699707e-01,9.604168534278869629e-01,9.603700041770935059e-01,9.603231549263000488e-01,9.602762460708618164e-01,9.602293968200683594e-01,9.601825475692749023e-01,9.601357579231262207e-01,9.600888490676879883e-01,9.600419998168945312e-01,9.599952101707458496e-01,9.599483013153076172e-01,9.599015116691589355e-01,9.598547220230102539e-01,9.598079323768615723e-01,9.597610235214233398e-01,9.597142934799194336e-01,9.596675038337707520e-01,9.596206545829772949e-01,9.595738649368286133e-01,9.595271348953247070e-01,9.594803452491760254e-01,9.594334959983825684e-01,9.593867659568786621e-01,9.593400359153747559e-01,9.592931866645812988e-01,9.592464566230773926e-01,9.591997265815734863e-01,9.591528773307800293e-01,9.591061472892761230e-01,9.590594172477722168e-01,9.590127468109130859e-01,9.589658975601196289e-01,9.589192271232604980e-01,9.588724970817565918e-01,9.588257074356079102e-01
9.103480577468872070e-01,9.103059768676757812e-01,9.102638959884643555e-01,9.102217555046081543e-01,9.101796746253967285e-01,9.101375937461853027e-01,9.100955128669738770e-01,9.100533723831176758e-01,9.100112915039062500e-01,9.099692702293395996e-01,9.099271297454833984e-01,9.098850488662719727e-01,9.098430275917053223e-01,9.098008871078491211e-01,9.097588658332824707e-01,9.097168445587158203e-01,9.096748232841491699e-01,9.096326828002929688e-01,9.095906615257263184e-01,9.095486402511596680e-01,9.095065593719482422e-01,9.094645380973815918e-01,9.094225168228149414e-01,9.093805551528930664e-01,9.093384146690368652e-01,9.092964529991149902e-01,9.092544317245483398e-01,9.092123508453369141e-01,9.091703891754150391e-01,9.091284275054931641e-01,9.090864658355712891e-01,9.090443849563598633e-01,9.090024232864379883e-01,9.089604616165161133e-01,9.089184403419494629e-01,9.088764786720275879e-01,9.088345170021057129e-01,9.087924957275390625e-01,9.087505340576171875e-01,9.087085723876953125e-01,9.086666703224182129e-01,9.086246490478515625e-01,9.085826873779296875e-01,9.085407853126525879e-01,9.084987640380859375e-01,9.084568619728088379e-01,9.084149599075317383e-01,9.083730578422546387e-01,9.083310365676879883e-01,9.082891345024108887e-01,9.082472920417785645e-01,9.082052707672119141e-01,9.081633687019348145e-01,9.081215262413024902e-01,9.080796241760253906e-01,9.080376625061035156e-01,9.079958200454711914e-01,9.079539179801940918e-01,9.079119563102722168e-01,9.078701138496398926e-01,9.078282713890075684e-01,9.077863097190856934e-01,9.077444672584533691e-01,9.077026247978210449e-01,9.076607823371887207e-01,9.076188206672668457e-01,9.075769782066345215e-01,9.075351953506469727e-01,9.074932336807250977e-01,9.074514508247375488e-01,9.074096083641052246e-01,9.073678255081176758e-01,9.073259234428405762e-01,9.072840809822082520e-01,9.072422981262207031e-01,9.072003960609436035e-01,9.071586132049560547e-01,9.071168303489685059e-01,9.070750474929809570e-01,9.070331454277038574e-01
8.635324239730834961e-01,8.634945750236511230e-01,8.634566068649291992e-01,8.634187579154968262e-01,8.633809089660644531e-01,8.633430600166320801e-01,8.633050918579101562e-01,8.632672429084777832e-01,8.632293939590454102e-01,8.631914854049682617e-01,8.631536364555358887e-01,8.631158471107482910e-01,8.630779981613159180e-01,8.630400896072387695e-01,8.630022406578063965e-01,8.629644513130187988e-01,8.629265427589416504e-01,8.628886938095092773e-01,8.628509044647216797e-01,8.628131151199340820e-01,8.627752065658569336e-01,8.627374172210693359e-01,8.626996278762817383e-01,8.626617193222045898e-01,8.626239299774169922e-01,8.625861406326293945e-01,8.625482916831970215e-01,8.625105023384094238e-01,8.624727129936218262e-01,8.624349236488342285e-01,8.623970746994018555e-01,8.623592853546142578e-01,8.623215556144714355e-01,8.622837066650390625e-01,8.622459173202514648e-01,8.622081875801086426e-01,8.621704578399658203e-01,8.621326088905334473e-01,8.620948791503906250e-01,8.620570898056030273e-01,8.620193004608154297e-01,8.619815707206726074e-01,8.619438409805297852e-01,8.619061112403869629e-01,8.618682622909545898e-01,8.618305325508117676e-01,8.617928624153137207e-01,8.617550134658813477e-01,8.617173433303833008e-01,8.616796135902404785e-01,8.616418242454528809e-01,8.616041541099548340e-01,8.615664243698120117e-01,8.615287542343139648e-01,8.614909648895263672e-01,8.614532947540283203e-01,8.614155650138854980e-01,8.613778352737426758e-01,8.613401055335998535e-01,8.613024353981018066e-01,8.612647652626037598e-01,8.612270355224609375e-01,8.611893653869628906e-01,8.611516952514648438e-01,8.611139655113220215e-01,8.610762953758239746e-01,8.610386252403259277e-01,8.610008955001831055e-01,8.609632849693298340e-01,8.609256148338317871e-01,8.608880043029785156e-01,8.608502745628356934e-01,8.608126640319824219e-01,8.607749938964843750e-01,8.607372641563415527e-01,8.606996536254882812e-01,8.606620430946350098e-01,8.606244325637817383e-01,8.605867624282836914e-01,8.605491518974304199e-01
8.212963938713073730e-01,8.212621212005615234e-01,8.212277889251708984e-01,8.211935758590698242e-01,8.211593031883239746e-01,8.211249709129333496e-01,8.210907578468322754e-01,8.210564851760864258e-01,8.210222125053405762e-01,8.209879994392395020e-01,8.209537267684936523e-01,8.209195137023925781e-01,8.208852410316467285e-01,8.208510279655456543e-01,8.208168148994445801e-01,8.207824826240539551e-01,8.207482695579528809e-01,8.207140564918518066e-01,8.206798434257507324e-01,8.206455707550048828e-01,8.206114172935485840e-01,8.205772042274475098e-01,8.205429315567016602e-01,8.205087184906005859e-01,8.204745650291442871e-01,8.204403519630432129e-01,8.204060792922973633e-01,8.203719258308410645e-01,8.203377723693847656e-01,8.203034996986389160e-01,8.202693462371826172e-01,8.202351331710815430e-01,8.202009201049804688e-01,8.201667666435241699e-01,8.201326131820678711e-01,8.200984597206115723e-01,8.200641870498657227e-01,8.200300335884094238e-01,8.199958801269531250e-01,8.199616670608520508e-01,8.199275732040405273e-01,8.198934197425842285e-01,8.198592662811279297e-01,8.198250532150268555e-01,8.197908997535705566e-01,8.197568058967590332e-01,8.197225928306579590e-01,8.196884393692016602e-01,8.196543455123901367e-01,8.196202516555786133e-01,8.195860385894775391e-01,8.195519447326660156e-01,8.195177912712097168e-01,8.194836378097534180e-01,8.194495439529418945e-01,8.194154500961303711e-01,8.193812370300292969e-01,8.193471431732177734e-01,8.193130493164062500e-01,8.192789554595947266e-01,8.192448019981384277e-01,8.192107081413269043e-01,8.191766738891601562e-01,8.191425204277038574e-01,8.191084265708923340e-01,8.190743327140808105e-01,8.190402984619140625e-01,8.190061450004577637e-01,8.189720511436462402e-01,8.189380168914794922e-01,8.189038634300231934e-01,8.188698291778564453e-01,8.188357949256896973e-01,8.188017010688781738e-01,8.187676072120666504e-01,8.187335729598999023e-01,8.186995387077331543e-01,8.186653852462768555e-01,8.186313509941101074e-01,8.185973167419433594e-01
7.829992771148681641e-01,7.829681038856506348e-01,7.829369306564331055e-01,7.829058170318603516e-01,7.828746438026428223e-01,7.828435301780700684e-01,7.828123569488525391e-01,7.827812433242797852e-01,7.827500700950622559e-01,7.827189564704895020e-01,7.826878428459167480e-01,7.826566696166992188e-01,7.826255559921264648e-01,7.825944423675537109e-01,7.825633883476257324e-01,7.825322151184082031e-01,7.825011014938354492e-01,7.824699878692626953e-01,7.824388146400451660e-01,7.824077606201171875e-01,7.823766469955444336e-01,7.823454737663269043e-01,7.823144197463989258e-01,7.822833657264709473e-01,7.822522521018981934e-01,7.822211384773254395e-01,7.821900248527526855e-01,7.821589708328247070e-01,7.821278572082519531e-01,7.820967435836791992e-01,7.820656895637512207e-01,7.820346355438232422e-01,7.820035219192504883e-01,7.819724678993225098e-01,7.819414138793945312e-01,7.819103002548217773e-01,7.818792462348937988e-01,7.818481922149658203e-01,7.818171381950378418e-01,7.817860245704650879e-01,7.817550301551818848e-01,7.817239761352539062e-01,7.816928625106811523e-01,7.816618084907531738e-01,7.816308140754699707e-01,7.815997004508972168e-01,7.815687060356140137e-01,7.815376520156860352e-01,7.815066576004028320e-01,7.814755439758300781e-01,7.814445495605468750e-01,7.814135551452636719e-01,7.813824415206909180e-01,7.813514471054077148e-01,7.813204526901245117e-01,7.812894582748413086e-01,7.812584042549133301e-01,7.812274098396301270e-01,7.811964154243469238e-01,7.811653017997741699e-01,7.811343669891357422e-01,7.811033725738525391e-01,7.810723781585693359e-01,7.810413241386413574e-01,7.810103297233581543e-01,7.809793353080749512e-01,7.809483408927917480e-01,7.809173464775085449e-01,7.808863520622253418e-01,7.808553576469421387e-01,7.808243632316589355e-01,7.807934284210205078e-01,7.807624340057373047e-01,7.807314395904541016e-01,7.807005047798156738e-01,7.806695103645324707e-01,7.806385159492492676e-01,7.806075811386108398e-01,7.805765867233276367e-01,7.805456519126892090e-01
7.481145858764648438e-01,7.480861544609069824e-01,7.480577230453491211e-01,7.480293512344360352e-01,7.480008602142333984e-01,7.479724287986755371e-01,7.479440569877624512e-01,7.479155659675598145e-01,7.478871345520019531e-01,7.478587627410888672e-01,7.478302717208862305e-01,7.478018999099731445e-01,7.477734684944152832e-01,7.477450966835021973e-01,7.477166056632995605e-01,7.476882338523864746e-01,7.476598620414733887e-01,7.476313710212707520e-01,7.476029992103576660e-01,7.475746273994445801e-01,7.475462555885314941e-01,7.475178241729736328e-01,7.474894523620605469e-01,7.474610209465026855e-01,7.474325895309448242e-01,7.474042177200317383e-01,7.473758459091186523e-01,7.473475337028503418e-01,7.473191022872924805e-01,7.472907304763793945e-01,7.472623586654663086e-01,7.472339272499084473e-01,7.472055554389953613e-01,7.471772432327270508e-01,7.471488118171691895e-01,7.471204400062561035e-01,7.470921277999877930e-01,7.470637559890747070e-01,7.470353841781616211e-01,7.470070123672485352e-01,7.469787001609802246e-01,7.469502687454223633e-01,7.469219565391540527e-01,7.468936443328857422e-01,7.468652725219726562e-01,7.468369007110595703e-01,7.468085885047912598e-01,7.467802762985229492e-01,7.467518448829650879e-01,7.467235326766967773e-01,7.466952204704284668e-01,7.466669082641601562e-01,7.466385364532470703e-01,7.466102242469787598e-01,7.465819120407104492e-01,7.465535402297973633e-01,7.465252280235290527e-01,7.464969754219055176e-01,7.464686036109924316e-01,7.464402914047241211e-01,7.464119791984558105e-01,7.463837265968322754e-01,7.463553547859191895e-01,7.463270425796508789e-01,7.462987899780273438e-01,7.462704181671142578e-01,7.462421655654907227e-01,7.462138533592224121e-01,7.461856007575988770e-01,7.461572289466857910e-01,7.461289763450622559e-01,7.461007237434387207e-01,7.460723519325256348e-01,7.460440993309020996e-01,7.460158467292785645e-01,7.459875941276550293e-01,7.459592819213867188e-01,7.459309697151184082e-01,7.459027171134948730e-01,7.458744049072265625e-01
7.162057757377624512e-01,7.161797285079956055e-01,7.161536812782287598e-01,7.161275744438171387e-01,7.161015272140502930e-01,7.160754799842834473e-01,7.160493731498718262e-01,7.160233259201049805e-01,7.159973382949829102e-01,7.159712910652160645e-01,7.159451842308044434e-01,7.159191370010375977e-01,7.158931493759155273e-01,7.158670425415039062e-01,7.158409953117370605e-01,7.158150076866149902e-01,7.157889604568481445e-01,7.157629132270812988e-01,7.157368659973144531e-01,7.157108783721923828e-01,7.156847715377807617e-01,7.156587839126586914e-01,7.156327962875366211e-01,7.156066894531250000e-01,7.155807018280029297e-01,7.155547142028808594e-01,7.155287265777587891e-01,7.155026197433471680e-01,7.154766321182250977e-01,7.154506444931030273e-01,7.154245972633361816e-01,7.153986096382141113e-01,7.153726220130920410e-01,7.153466343879699707e-01,7.153205871582031250e-01,7.152945995330810547e-01,7.152686119079589844e-01,7.152425646781921387e-01,7.152165770530700684e-01,7.151906490325927734e-01,7.151646614074707031e-01,7.151386141777038574e-01,7.151126265525817871e-01,7.150866985321044922e-01,7.150606513023376465e-01,7.150346636772155762e-01,7.150087356567382812e-01,7.149826884269714355e-01,7.149567604064941406e-01,7.149307727813720703e-01,7.149048447608947754e-01,7.148787975311279297e-01,7.148528695106506348e-01,7.148268818855285645e-01,7.148008942604064941e-01,7.147749662399291992e-01,7.147490382194519043e-01,7.147230505943298340e-01,7.146970629692077637e-01,7.146711349487304688e-01,7.146452069282531738e-01,7.146192193031311035e-01,7.145932912826538086e-01,7.145673036575317383e-01,7.145413160324096680e-01,7.145153880119323730e-01,7.144895195960998535e-01,7.144635915756225586e-01,7.144376039505004883e-01,7.144116759300231934e-01,7.143857479095458984e-01,7.143597602844238281e-01,7.143338322639465332e-01,7.143079638481140137e-01,7.142820358276367188e-01,7.142560482025146484e-01,7.142301797866821289e-01,7.142042517662048340e-01,7.141782641410827637e-01,7.141523957252502441e-01
6.869075894355773926e-01,6.868836283683776855e-01,6.868596076965332031e-01,6.868356466293334961e-01,6.868116855621337891e-01,6.867877244949340820e-01,6.867637038230895996e-01,6.867398023605346680e-01,6.867158412933349609e-01,6.866918206214904785e-01,6.866678595542907715e-01,6.866439580917358398e-01,6.866199374198913574e-01,6.865959763526916504e-01,6.865720748901367188e-01,6.865481138229370117e-01,6.865241527557373047e-01,6.865001916885375977e-01,6.864762902259826660e-01,6.864522695541381836e-01,6.864283680915832520e-01,6.864044070243835449e-01,6.863805055618286133e-01,6.863564848899841309e-01,6.863325834274291992e-01,6.863086819648742676e-01,6.862847208976745605e-01,6.862607598304748535e-01,6.862368583679199219e-01,6.862128973007202148e-01,6.861889958381652832e-01,6.861650943756103516e-01,6.861411333084106445e-01,6.861171722412109375e-01,6.860932707786560059e-01,6.860693693161010742e-01,6.860454082489013672e-01,6.860215067863464355e-01,6.859976053237915039e-01,6.859737038612365723e-01,6.859498023986816406e-01,6.859259009361267090e-01,6.859019994735717773e-01,6.858780384063720703e-01,6.858541369438171387e-01,6.858302950859069824e-01,6.858063936233520508e-01,6.857824325561523438e-01,6.857585310935974121e-01,6.857346892356872559e-01,6.857107281684875488e-01,6.856868863105773926e-01,6.856629848480224609e-01,6.856390833854675293e-01,6.856151819229125977e-01,6.855913400650024414e-01,6.855674386024475098e-01,6.855435371398925781e-01,6.855196356773376465e-01,6.854957938194274902e-01,6.854718923568725586e-01,6.854479908943176270e-01,6.854241490364074707e-01,6.854003071784973145e-01,6.853764057159423828e-01,6.853525042533874512e-01,6.853286623954772949e-01,6.853047609329223633e-01,6.852809190750122070e-01,6.852570772171020508e-01,6.852332353591918945e-01,6.852093338966369629e-01,6.851854920387268066e-01,6.851616501808166504e-01,6.851377487182617188e-01,6.851139068603515625e-01,6.850900650024414062e-01,6.850661635398864746e-01,6.850423812866210938e-01,6.850185394287109375e-01
6.599122285842895508e-01,6.598900556564331055e-01,6.598679423332214355e-01,6.598458290100097656e-01,6.598237156867980957e-01,6.598015427589416504e-01,6.597794294357299805e-01,6.597573757171630859e-01,6.597352027893066406e-01,6.597130894660949707e-01,6.596909761428833008e-01,6.596688628196716309e-01,6.596467494964599609e-01,6.596246361732482910e-01,6.596025228500366211e-01,6.595804095268249512e-01,6.595582962036132812e-01,6.595362424850463867e-01,6.595140695571899414e-01,6.594920158386230469e-01,6.594699025154113770e-01,6.594478487968444824e-01,6.594256758689880371e-01,6.594036221504211426e-01,6.593815088272094727e-01,6.593593955039978027e-01,6.593373417854309082e-01,6.593152284622192383e-01,6.592931747436523438e-01,6.592710614204406738e-01,6.592489480972290039e-01,6.592268943786621094e-01,6.592047810554504395e-01,6.591827273368835449e-01,6.591606736183166504e-01,6.591385602951049805e-01,6.591164469718933105e-01,6.590943932533264160e-01,6.590723395347595215e-01,6.590502262115478516e-01,6.590281724929809570e-01,6.590061187744140625e-01,6.589840054512023926e-01,6.589619517326354980e-01,6.589398980140686035e-01,6.589178442955017090e-01,6.588957905769348145e-01,6.588737368583679199e-01,6.588516831398010254e-01,6.588295698165893555e-01,6.588075160980224609e-01,6.587855219841003418e-01,6.587634682655334473e-01,6.587413549423217773e-01,6.587193608283996582e-01,6.586973071098327637e-01,6.586751937866210938e-01,6.586531996726989746e-01,6.586311459541320801e-01,6.586091518402099609e-01,6.585870385169982910e-01,6.585650444030761719e-01,6.585429906845092773e-01,6.585209369659423828e-01,6.584988832473754883e-01,6.584768891334533691e-01,6.584548354148864746e-01,6.584327816963195801e-01,6.584107875823974609e-01,6.583887338638305664e-01,6.583666801452636719e-01,6.583446860313415527e-01,6.583226919174194336e-01,6.583006381988525391e-01,6.582785844802856445e-01,6.582565903663635254e-01,6.582345962524414062e-01,6.582125425338745117e-01,6.581905484199523926e-01,6.581685543060302734e-01
6.349584460258483887e-01,6.349379420280456543e-01,6.349174380302429199e-01,6.348969936370849609e-01,6.348764300346374512e-01,6.348559856414794922e-01,6.348355412483215332e-01,6.348149776458740234e-01,6.347945332527160645e-01,6.347740888595581055e-01,6.347535848617553711e-01,6.347330808639526367e-01,6.347126364707946777e-01,6.346921920776367188e-01,6.346716880798339844e-01,6.346512436866760254e-01,6.346307992935180664e-01,6.346102952957153320e-01,6.345898509025573730e-01,6.345693469047546387e-01,6.345489025115966797e-01,6.345284581184387207e-01,6.345079541206359863e-01,6.344875097274780273e-01,6.344670653343200684e-01,6.344466209411621094e-01,6.344261765480041504e-01,6.344057321548461914e-01,6.343852281570434570e-01,6.343647837638854980e-01,6.343443393707275391e-01,6.343238949775695801e-01,6.343034505844116211e-01,6.342830061912536621e-01,6.342625617980957031e-01,6.342421174049377441e-01,6.342216730117797852e-01,6.342012882232666016e-01,6.341807842254638672e-01,6.341603398323059082e-01,6.341399550437927246e-01,6.341195106506347656e-01,6.340990662574768066e-01,6.340786218643188477e-01,6.340582370758056641e-01,6.340377330780029297e-01,6.340173482894897461e-01,6.339969038963317871e-01,6.339765191078186035e-01,6.339560747146606445e-01,6.339356303215026855e-01,6.339152455329895020e-01,6.338948011398315430e-01,6.338743567466735840e-01,6.338539719581604004e-01,6.338335275650024414e-01,6.338131427764892578e-01,6.337927579879760742e-01,6.337723135948181152e-01,6.337518692016601562e-01,6.337314844131469727e-01,6.337110996246337891e-01,6.336906552314758301e-01,6.336702704429626465e-01,6.336498856544494629e-01,6.336295008659362793e-01,6.336090564727783203e-01,6.335886716842651367e-01,6.335682868957519531e-01,6.335478425025939941e-01,6.335274577140808105e-01,6.335070729255676270e-01,6.334866881370544434e-01,6.334662437438964844e-01,6.334458589553833008e-01,6.334255337715148926e-01,6.334050893783569336e-01,6.333847045898437500e-01,6.333643198013305664e-01,6.333439350128173828e-01
