4.887502670288085938e+00,5.000000000000000000e+00,5.000000000000000000e+00,5.000000000000000000e+00,5.000000000000000000e+00,5.000000000000000000e+00,5.000000000000000000e+00,5.000000000000000000e+00,5.000000000000000000e+00,5.000000000000000000e+00,5.000000000000000000e+00,5.000000000000000000e+00,5.000000000000000000e+00,5.000000000000000000e+00,5.000000000000000000e+00,5.000000000000000000e+00,5.000000000000000000e+00,5.000000000000000000e+00,5.000000000000000000e+00,5.000000000000000000e+00,5.000000000000000000e+00,5.000000000000000000e+00,5.000000000000000000e+00,5.000000000000000000e+00,5.000000000000000000e+00,5.000000000000000000e+00,5.000000000000000000e+00,5.000000000000000000e+00,5.000000000000000000e+00,5.000000000000000000e+00,5.000000000000000000e+00,5.000000000000000000e+00,5.000000000000000000e+00,5.000000000000000000e+00,5.000000000000000000e+00,5.000000000000000000e+00,5.000000000000000000e+00,5.000000000000000000e+00,5.000000000000000000e+00,5.000000000000000000e+00,5.000000000000000000e+00,5.000000000000000000e+00,5.000000000000000000e+00,5.000000000000000000e+00,5.000000000000000000e+00,5.000000000000000000e+00,5.000000000000000000e+00,5.000000000000000000e+00,5.000000000000000000e+00,5.000000000000000000e+00,5.000000000000000000e+00,5.000000000000000000e+00,5.000000000000000000e+00,5.000000000000000000e+00,5.000000000000000000e+00,4.993918418884277344e+00,4.793003559112548828e+00,4.607630252838134766e+00,4.436062335968017578e+00,4.276812076568603516e+00,4.128599643707275391e+00,3.990315437316894531e+00,3.860994815826416016e+00,3.739793300628662109e+00,3.625969171524047852e+00,3.518869400024414062e+00,3.417914867401123047e+00,3.322591066360473633e+00,3.232440471649169922e+00,3.147052526473999023e+00,3.066059589385986328e+00,2.989131212234497070e+00,2.915968656539916992e+00,2.846301555633544922e+00,2.779886245727539062e+00,2.716499567031860352e+00,2.655938863754272461e+00,2.598019599914550781e+00,2.542572736740112305e+00,2.489443063735961914e+00
4.887351512908935547e+00,5.000000000000000000e+00,5.000000000000000000e+00,5.000000000000000000e+00,5.000000000000000000e+00,5.000000000000000000e+00,5.000000000000000000e+00,5.000000000000000000e+00,5.000000000000000000e+00,5.000000000000000000e+00,5.000000000000000000e+00,5.000000000000000000e+00,5.000000000000000000e+00,5.000000000000000000e+00,5.000000000000000000e+00,5.000000000000000000e+00,5.000000000000000000e+00,5.000000000000000000e+00,5.000000000000000000e+00,5.000000000000000000e+00,5.000000000000000000e+00,5.000000000000000000e+00,5.000000000000000000e+00,5.000000000000000000e+00,5.000000000000000000e+00,5.000000000000000000e+00,5.000000000000000000e+00,5.000000000000000000e+00,5.000000000000000000e+00,5.000000000000000000e+00,5.000000000000000000e+00,5.000000000000000000e+00,5.000000000000000000e+00,5.000000000000000000e+00,5.000000000000000000e+00,5.000000000000000000e+00,5.000000000000000000e+00,5.000000000000000000e+00,5.000000000000000000e+00,5.000000000000000000e+00,5.000000000000000000e+00,5.000000000000000000e+00,5.000000000000000000e+00,5.000000000000000000e+00,5.000000000000000000e+00,5.000000000000000000e+00,5.000000000000000000e+00,5.000000000000000000e+00,5.000000000000000000e+00,5.000000000000000000e+00,5.000000000000000000e+00,5.000000000000000000e+00,5.000000000000000000e+00,5.000000000000000000e+00,5.000000000000000000e+00,4.994087696075439453e+00,4.793159484863281250e+00,4.607774734497070312e+00,4.436195850372314453e+00,4.276936054229736328e+00,4.128715038299560547e+00,3.990423679351806641e+00,3.861096143722534180e+00,3.739887952804565430e+00,3.626058578491210938e+00,3.518953561782836914e+00,3.417993783950805664e+00,3.322666168212890625e+00,3.232511520385742188e+00,3.147119522094726562e+00,3.066123485565185547e+00,2.989192008972167969e+00,2.916026115417480469e+00,2.846356630325317383e+00,2.779938697814941406e+00,2.716549396514892578e+00,2.655986785888671875e+00,2.598065376281738281e+00,2.542616605758666992e+00,2.489485025405883789e+00
4.887200355529785156e+00,5.000000000000000000e+00,5.000000000000000000e+00,5.000000000000000000e+00,5.000000000000000000e+00,5.000000000000000000e+00,5.000000000000000000e+00,5.000000000000000000e+00,5.000000000000000000e+00,5.000000000000000000e+00,5.000000000000000000e+00,5.000000000000000000e+00,5.000000000000000000e+00,5.000000000000000000e+00,5.000000000000000000e+00,5.000000000000000000e+00,5.000000000000000000e+00,5.000000000000000000e+00,5.000000000000000000e+00,5.000000000000000000e+00,5.000000000000000000e+00,5.000000000000000000e+00,5.000000000000000000e+00,5.000000000000000000e+00,5.000000000000000000e+00,5.000000000000000000e+00,5.000000000000000000e+00,5.000000000000000000e+00,5.000000000000000000e+00,5.000000000000000000e+00,5.000000000000000000e+00,5.000000000000000000e+00,5.000000000000000000e+00,5.000000000000000000e+00,5.000000000000000000e+00,5.000000000000000000e+00,5.000000000000000000e+00,5.000000000000000000e+00,5.000000000000000000e+00,5.000000000000000000e+00,5.000000000000000000e+00,5.000000000000000000e+00,5.000000000000000000e+00,5.000000000000000000e+00,5.000000000000000000e+00,5.000000000000000000e+00,5.000000000000000000e+00,5.000000000000000000e+00,5.000000000000000000e+00,5.000000000000000000e+00,5.000000000000000000e+00,5.000000000000000000e+00,5.000000000000000000e+00,5.000000000000000000e+00,5.000000000000000000e+00,4.994256496429443359e+00,4.793315410614013672e+00,4.607918739318847656e+00,4.436329364776611328e+00,4.277060508728027344e+00,4.128830909729003906e+00,3.990531444549560547e+00,3.861196994781494141e+00,3.739983081817626953e+00,3.626147985458374023e+00,3.519037246704101562e+00,3.418073177337646484e+00,3.322741031646728516e+00,3.232582092285156250e+00,3.147186756134033203e+00,3.066187381744384766e+00,2.989252328872680664e+00,2.916083812713623047e+00,2.846411705017089844e+00,2.779990911483764648e+00,2.716599464416503906e+00,2.656034708023071289e+00,2.598111152648925781e+00,2.542660474777221680e+00,2.489527225494384766e+00
4.887049198150634766e+00,5.000000000000000000e+00,5.000000000000000000e+00,5.000000000000000000e+00,5.000000000000000000e+00,5.000000000000000000e+00,5.000000000000000000e+00,5.000000000000000000e+00,5.000000000000000000e+00,5.000000000000000000e+00,5.000000000000000000e+00,5.000000000000000000e+00,5.000000000000000000e+00,5.000000000000000000e+00,5.000000000000000000e+00,5.000000000000000000e+00,5.000000000000000000e+00,5.000000000000000000e+00,5.000000000000000000e+00,5.000000000000000000e+00,5.000000000000000000e+00,5.000000000000000000e+00,5.000000000000000000e+00,5.000000000000000000e+00,5.000000000000000000e+00,5.000000000000000000e+00,5.000000000000000000e+00,5.000000000000000000e+00,5.000000000000000000e+00,5.000000000000000000e+00,5.000000000000000000e+00,5.000000000000000000e+00,5.000000000000000000e+00,5.000000000000000000e+00,5.000000000000000000e+00,5.000000000000000000e+00,5.000000000000000000e+00,5.000000000000000000e+00,5.000000000000000000e+00,5.000000000000000000e+00,5.000000000000000000e+00,5.000000000000000000e+00,5.000000000000000000e+00,5.000000000000000000e+00,5.000000000000000000e+00,5.000000000000000000e+00,5.000000000000000000e+00,5.000000000000000000e+00,5.000000000000000000e+00,5.000000000000000000e+00,5.000000000000000000e+00,5.000000000000000000e+00,5.000000000000000000e+00,5.000000000000000000e+00,5.000000000000000000e+00,4.994426250457763672e+00,4.793471336364746094e+00,4.608062267303466797e+00,4.436462879180908203e+00,4.277184486389160156e+00,4.128946304321289062e+00,3.990639686584472656e+00,3.861298322677612305e+00,3.740077972412109375e+00,3.626236915588378906e+00,3.519121408462524414e+00,3.418152570724487305e+00,3.322815895080566406e+00,3.232653141021728516e+00,3.147254228591918945e+00,3.066251039505004883e+00,2.989313125610351562e+00,2.916141748428344727e+00,2.846466541290283203e+00,2.780043601989746094e+00,2.716649770736694336e+00,2.656082391738891602e+00,2.598156929016113281e+00,2.542704343795776367e+00,2.489569187164306641e+00
4.886897563934326172e+00,5.000000000000000000e+00,5.000000000000000000e+00,5.000000000000000000e+00,5.000000000000000000e+00,5.000000000000000000e+00,5.000000000000000000e+00,5.000000000000000000e+00,5.000000000000000000e+00,5.000000000000000000e+00,5.000000000000000000e+00,5.000000000000000000e+00,5.000000000000000000e+00,5.000000000000000000e+00,5.000000000000000000e+00,5.000000000000000000e+00,5.000000000000000000e+00,5.000000000000000000e+00,5.000000000000000000e+00,5.000000000000000000e+00,5.000000000000000000e+00,5.000000000000000000e+00,5.000000000000000000e+00,5.000000000000000000e+00,5.000000000000000000e+00,5.000000000000000000e+00,5.000000000000000000e+00,5.000000000000000000e+00,5.000000000000000000e+00,5.000000000000000000e+00,5.000000000000000000e+00,5.000000000000000000e+00,5.000000000000000000e+00,5.000000000000000000e+00,5.000000000000000000e+00,5.000000000000000000e+00,5.000000000000000000e+00,5.000000000000000000e+00,5.000000000000000000e+00,5.000000000000000000e+00,5.000000000000000000e+00,5.000000000000000000e+00,5.000000000000000000e+00,5.000000000000000000e+00,5.000000000000000000e+00,5.000000000000000000e+00,5.000000000000000000e+00,5.000000000000000000e+00,5.000000000000000000e+00,5.000000000000000000e+00,5.000000000000000000e+00,5.000000000000000000e+00,5.000000000000000000e+00,5.000000000000000000e+00,5.000000000000000000e+00,4.994595050811767578e+00,4.793627262115478516e+00,4.608206748962402344e+00,4.436596393585205078e+00,4.277308464050292969e+00,4.129062175750732422e+00,3.990747928619384766e+00,3.861399173736572266e+00,3.740172624588012695e+00,3.626326322555541992e+00,3.519205570220947266e+00,3.418231725692749023e+00,3.322890758514404297e+00,3.232724189758300781e+00,3.147321224212646484e+00,3.066314935684204102e+00,2.989373683929443359e+00,2.916199207305908203e+00,2.846521615982055664e+00,2.780096054077148438e+00,2.716699600219726562e+00,2.656130313873291016e+00,2.598202943801879883e+00,2.542748212814331055e+00,2.489611148834228516e+00
4.886746406555175781e+00,5.000000000000000000e+00,5.000000000000000000e+00,5.000000000000000000e+00,5.000000000000000000e+00,5.000000000000000000e+00,5.000000000000000000e+00,5.000000000000000000e+00,5.000000000000000000e+00,5.000000000000000000e+00,5.000000000000000000e+00,5.000000000000000000e+00,5.000000000000000000e+00,5.000000000000000000e+00,5.000000000000000000e+00,5.000000000000000000e+00,5.000000000000000000e+00,5.000000000000000000e+00,5.000000000000000000e+00,5.000000000000000000e+00,5.000000000000000000e+00,5.000000000000000000e+00,5.000000000000000000e+00,5.000000000000000000e+00,5.000000000000000000e+00,5.000000000000000000e+00,5.000000000000000000e+00,5.000000000000000000e+00,5.000000000000000000e+00,5.000000000000000000e+00,5.000000000000000000e+00,5.000000000000000000e+00,5.000000000000000000e+00,5.000000000000000000e+00,5.000000000000000000e+00,5.000000000000000000e+00,5.000000000000000000e+00,5.000000000000000000e+00,5.000000000000000000e+00,5.000000000000000000e+00,5.000000000000000000e+00,5.000000000000000000e+00,5.000000000000000000e+00,5.000000000000000000e+00,5.000000000000000000e+00,5.000000000000000000e+00,5.000000000000000000e+00,5.000000000000000000e+00,5.000000000000000000e+00,5.000000000000000000e+00,5.000000000000000000e+00,5.000000000000000000e+00,5.000000000000000000e+00,5.000000000000000000e+00,5.000000000000000000e+00,4.994764328002929688e+00,4.793783187866210938e+00,4.608350753784179688e+00,4.436729907989501953e+00,4.277432918548583984e+00,4.129178047180175781e+00,3.990855693817138672e+00,3.861500501632690430e+00,3.740267753601074219e+00,3.626415491104125977e+00,3.519289493560791016e+00,3.418311119079589844e+00,3.322965860366821289e+00,3.232794761657714844e+00,3.147388458251953125e+00,3.066378831863403320e+00,2.989434242248535156e+00,2.916256904602050781e+00,2.846576690673828125e+00,2.780148267745971680e+00,2.716749668121337891e+00,2.656178236007690430e+00,2.598248481750488281e+00,2.542792081832885742e+00,2.489653348922729492e+00
4.886594772338867188e+00,5.000000000000000000e+00,5.000000000000000000e+00,5.000000000000000000e+00,5.000000000000000000e+00,5.000000000000000000e+00,5.000000000000000000e+00,5.000000000000000000e+00,5.000000000000000000e+00,5.000000000000000000e+00,5.000000000000000000e+00,5.000000000000000000e+00,5.000000000000000000e+00,5.000000000000000000e+00,5.000000000000000000e+00,5.000000000000000000e+00,5.000000000000000000e+00,5.000000000000000000e+00,5.000000000000000000e+00,5.000000000000000000e+00,5.000000000000000000e+00,5.000000000000000000e+00,5.000000000000000000e+00,5.000000000000000000e+00,5.000000000000000000e+00,5.000000000000000000e+00,5.000000000000000000e+00,5.000000000000000000e+00,5.000000000000000000e+00,5.000000000000000000e+00,5.000000000000000000e+00,5.000000000000000000e+00,5.000000000000000000e+00,5.000000000000000000e+00,5.000000000000000000e+00,5.000000000000000000e+00,5.000000000000000000e+00,5.000000000000000000e+00,5.000000000000000000e+00,5.000000000000000000e+00,5.000000000000000000e+00,5.000000000000000000e+00,5.000000000000000000e+00,5.000000000000000000e+00,5.000000000000000000e+00,5.000000000000000000e+00,5.000000000000000000e+00,5.000000000000000000e+00,5.000000000000000000e+00,5.000000000000000000e+00,5.000000000000000000e+00,5.000000000000000000e+00,5.000000000000000000e+00,5.000000000000000000e+00,5.000000000000000000e+00,4.994924545288085938e+00,4.793932437896728516e+00,4.608490467071533203e+00,4.436860561370849609e+00,4.277555942535400391e+00,4.129293441772460938e+00,3.990963935852050781e+00,3.861601829528808594e+00,3.740362405776977539e+00,3.626504659652709961e+00,3.519373655319213867e+00,3.418390512466430664e+00,3.323040485382080078e+00,3.232865810394287109e+00,3.147455692291259766e+00,3.066442251205444336e+00,2.989495038986206055e+00,2.916314840316772461e+00,2.846631526947021484e+00,2.780200719833374023e+00,2.716799974441528320e+00,2.656225919723510742e+00,2.598294496536254883e+00,2.542835950851440430e+00,2.489695310592651367e+00
4.886443614959716797e+00,5.000000000000000000e+00,5.000000000000000000e+00,5.000000000000000000e+00,5.000000000000000000e+00,5.000000000000000000e+00,5.000000000000000000e+00,5.000000000000000000e+00,5.000000000000000000e+00,5.000000000000000000e+00,5.000000000000000000e+00,5.000000000000000000e+00,5.000000000000000000e+00,5.000000000000000000e+00,5.000000000000000000e+00,5.000000000000000000e+00,5.000000000000000000e+00,5.000000000000000000e+00,5.000000000000000000e+00,5.000000000000000000e+00,5.000000000000000000e+00,5.000000000000000000e+00,5.000000000000000000e+00,5.000000000000000000e+00,5.000000000000000000e+00,5.000000000000000000e+00,5.000000000000000000e+00,5.000000000000000000e+00,5.000000000000000000e+00,5.000000000000000000e+00,5.000000000000000000e+00,5.000000000000000000e+00,5.000000000000000000e+00,5.000000000000000000e+00,5.000000000000000000e+00,5.000000000000000000e+00,5.000000000000000000e+00,5.000000000000000000e+00,5.000000000000000000e+00,5.000000000000000000e+00,5.000000000000000000e+00,5.000000000000000000e+00,5.000000000000000000e+00,5.000000000000000000e+00,5.000000000000000000e+00,5.000000000000000000e+00,5.000000000000000000e+00,5.000000000000000000e+00,5.000000000000000000e+00,5.000000000000000000e+00,5.000000000000000000e+00,5.000000000000000000e+00,5.000000000000000000e+00,5.000000000000000000e+00,5.000000000000000000e+00,4.995080947875976562e+00,4.794076442718505859e+00,4.608623504638671875e+00,4.436984062194824219e+00,4.277670383453369141e+00,4.129400730133056641e+00,3.991065502166748047e+00,3.861697912216186523e+00,3.740453720092773438e+00,3.626591444015502930e+00,3.519456148147583008e+00,3.418469429016113281e+00,3.323115587234497070e+00,3.232936859130859375e+00,3.147522926330566406e+00,3.066506147384643555e+00,2.989555597305297852e+00,2.916372299194335938e+00,2.846686363220214844e+00,2.780253410339355469e+00,2.716849803924560547e+00,2.656273841857910156e+00,2.598340272903442383e+00,2.542879819869995117e+00,2.489737272262573242e+00
4.886292457580566406e+00,5.000000000000000000e+00,5.000000000000000000e+00,5.000000000000000000e+00,5.000000000000000000e+00,5.000000000000000000e+00,5.000000000000000000e+00,5.000000000000000000e+00,5.000000000000000000e+00,5.000000000000000000e+00,5.000000000000000000e+00,5.000000000000000000e+00,5.000000000000000000e+00,5.000000000000000000e+00,5.000000000000000000e+00,5.000000000000000000e+00,5.000000000000000000e+00,5.000000000000000000e+00,5.000000000000000000e+00,5.000000000000000000e+00,5.000000000000000000e+00,5.000000000000000000e+00,5.000000000000000000e+00,5.000000000000000000e+00,5.000000000000000000e+00,5.000000000000000000e+00,5.000000000000000000e+00,5.000000000000000000e+00,5.000000000000000000e+00,5.000000000000000000e+00,5.000000000000000000e+00,5.000000000000000000e+00,5.000000000000000000e+00,5.000000000000000000e+00,5.000000000000000000e+00,5.000000000000000000e+00,5.000000000000000000e+00,5.000000000000000000e+00,5.000000000000000000e+00,5.000000000000000000e+00,5.000000000000000000e+00,5.000000000000000000e+00,5.000000000000000000e+00,5.000000000000000000e+00,5.000000000000000000e+00,5.000000000000000000e+00,5.000000000000000000e+00,5.000000000000000000e+00,5.000000000000000000e+00,5.000000000000000000e+00,5.000000000000000000e+00,5.000000000000000000e+00,5.000000000000000000e+00,5.000000000000000000e+00,5.000000000000000000e+00,4.995237350463867188e+00,4.794220447540283203e+00,4.608757019042968750e+00,4.437107563018798828e+00,4.277785301208496094e+00,4.129508018493652344e+00,3.991165161132812500e+00,3.861791610717773438e+00,3.740541696548461914e+00,3.626673936843872070e+00,3.519533872604370117e+00,3.418542623519897461e+00,3.323185443878173828e+00,3.233003616333007812e+00,3.147587299346923828e+00,3.066567897796630859e+00,2.989614725112915039e+00,2.916429281234741211e+00,2.846741437911987305e+00,2.780305624008178711e+00,2.716900110244750977e+00,2.656321763992309570e+00,2.598386049270629883e+00,2.542923688888549805e+00,2.489779472351074219e+00
4.886141300201416016e+00,5.000000000000000000e+00,5.000000000000000000e+00,5.000000000000000000e+00,5.000000000000000000e+00,5.000000000000000000e+00,5.000000000000000000e+00,5.000000000000000000e+00,5.000000000000000000e+00,5.000000000000000000e+00,5.000000000000000000e+00,5.000000000000000000e+00,5.000000000000000000e+00,5.000000000000000000e+00,5.000000000000000000e+00,5.000000000000000000e+00,5.000000000000000000e+00,5.000000000000000000e+00,5.000000000000000000e+00,5.000000000000000000e+00,5.000000000000000000e+00,5.000000000000000000e+00,5.000000000000000000e+00,5.000000000000000000e+00,5.000000000000000000e+00,5.000000000000000000e+00,5.000000000000000000e+00,5.000000000000000000e+00,5.000000000000000000e+00,5.000000000000000000e+00,5.000000000000000000e+00,5.000000000000000000e+00,5.000000000000000000e+00,5.000000000000000000e+00,5.000000000000000000e+00,5.000000000000000000e+00,5.000000000000000000e+00,5.000000000000000000e+00,5.000000000000000000e+00,5.000000000000000000e+00,5.000000000000000000e+00,5.000000000000000000e+00,5.000000000000000000e+00,5.000000000000000000e+00,5.000000000000000000e+00,5.000000000000000000e+00,5.000000000000000000e+00,5.000000000000000000e+00,5.000000000000000000e+00,5.000000000000000000e+00,5.000000000000000000e+00,5.000000000000000000e+00,5.000000000000000000e+00,5.000000000000000000e+00,5.000000000000000000e+00,4.995394229888916016e+00,4.794364929199218750e+00,4.608890056610107422e+00,4.437231063842773438e+00,4.277900218963623047e+00,4.129614830017089844e+00,3.991265296936035156e+00,3.861885070800781250e+00,3.740629196166992188e+00,3.626756668090820312e+00,3.519611597061157227e+00,3.418615818023681641e+00,3.323254823684692383e+00,3.233069181442260742e+00,3.147649288177490234e+00,3.066626787185668945e+00,2.989670991897583008e+00,2.916482925415039062e+00,2.846792221069335938e+00,2.780354738235473633e+00,2.716947555541992188e+00,2.656367778778076172e+00,2.598430395126342773e+00,2.542966842651367188e+00,2.489821434020996094e+00
4.885990142822265625e+00,5.000000000000000000e+00,5.000000000000000000e+00,5.000000000000000000e+00,5.000000000000000000e+00,5.000000000000000000e+00,5.000000000000000000e+00,5.000000000000000000e+00,5.000000000000000000e+00,5.000000000000000000e+00,5.000000000000000000e+00,5.000000000000000000e+00,5.000000000000000000e+00,5.000000000000000000e+00,5.000000000000000000e+00,5.000000000000000000e+00,5.000000000000000000e+00,5.000000000000000000e+00,5.000000000000000000e+00,5.000000000000000000e+00,5.000000000000000000e+00,5.000000000000000000e+00,5.000000000000000000e+00,5.000000000000000000e+00,5.000000000000000000e+00,5.000000000000000000e+00,5.000000000000000000e+00,5.000000000000000000e+00,5.000000000000000000e+00,5.000000000000000000e+00,5.000000000000000000e+00,5.000000000000000000e+00,5.000000000000000000e+00,5.000000000000000000e+00,5.000000000000000000e+00,5.000000000000000000e+00,5.000000000000000000e+00,5.000000000000000000e+00,5.000000000000000000e+00,5.000000000000000000e+00,5.000000000000000000e+00,5.000000000000000000e+00,5.000000000000000000e+00,5.000000000000000000e+00,5.000000000000000000e+00,5.000000000000000000e+00,5.000000000000000000e+00,5.000000000000000000e+00,5.000000000000000000e+00,5.000000000000000000e+00,5.000000000000000000e+00,5.000000000000000000e+00,5.000000000000000000e+00,5.000000000000000000e+00,5.000000000000000000e+00,4.995550632476806641e+00,4.794508934020996094e+00,4.609023571014404297e+00,4.437355041503906250e+00,4.278015136718750000e+00,4.129722118377685547e+00,3.991364955902099609e+00,3.861978769302368164e+00,3.740717172622680664e+00,3.626838922500610352e+00,3.519689083099365234e+00,3.418689250946044922e+00,3.323323965072631836e+00,3.233134746551513672e+00,3.147711515426635742e+00,3.066685914993286133e+00,2.989727020263671875e+00,2.916536092758178711e+00,2.846843242645263672e+00,2.780403375625610352e+00,2.716993808746337891e+00,2.656412124633789062e+00,2.598472833633422852e+00,2.543007373809814453e+00,2.489860057830810547e+00
4.885838508605957031e+00,5.000000000000000000e+00,5.000000000000000000e+00,5.000000000000000000e+00,5.000000000000000000e+00,5.000000000000000000e+00,5.000000000000000000e+00,5.000000000000000000e+00,5.000000000000000000e+00,5.000000000000000000e+00,5.000000000000000000e+00,5.000000000000000000e+00,5.000000000000000000e+00,5.000000000000000000e+00,5.000000000000000000e+00,5.000000000000000000e+00,5.000000000000000000e+00,5.000000000000000000e+00,5.000000000000000000e+00,5.000000000000000000e+00,5.000000000000000000e+00,5.000000000000000000e+00,5.000000000000000000e+00,5.000000000000000000e+00,5.000000000000000000e+00,5.000000000000000000e+00,5.000000000000000000e+00,5.000000000000000000e+00,5.000000000000000000e+00,5.000000000000000000e+00,5.000000000000000000e+00,5.000000000000000000e+00,5.000000000000000000e+00,5.000000000000000000e+00,5.000000000000000000e+00,5.000000000000000000e+00,5.000000000000000000e+00,5.000000000000000000e+00,5.000000000000000000e+00,5.000000000000000000e+00,5.000000000000000000e+00,5.000000000000000000e+00,5.000000000000000000e+00,5.000000000000000000e+00,5.000000000000000000e+00,5.000000000000000000e+00,5.000000000000000000e+00,5.000000000000000000e+00,5.000000000000000000e+00,5.000000000000000000e+00,5.000000000000000000e+00,5.000000000000000000e+00,5.000000000000000000e+00,5.000000000000000000e+00,5.000000000000000000e+00,4.995707035064697266e+00,4.794653415679931641e+00,4.609156608581542969e+00,4.437478542327880859e+00,4.278129577636718750e+00,4.129828929901123047e+00,3.991465330123901367e+00,3.862072229385375977e+00,3.740804910659790039e+00,3.626921653747558594e+00,3.519767045974731445e+00,3.418762445449829102e+00,3.323393344879150391e+00,3.233200550079345703e+00,3.147773504257202148e+00,3.066744804382324219e+00,2.989783287048339844e+00,2.916589498519897461e+00,2.846894025802612305e+00,2.780452013015747070e+00,2.717040061950683594e+00,2.656456232070922852e+00,2.598515272140502930e+00,2.543047904968261719e+00,2.489898920059204102e+00
4.885687351226806641e+00,5.000000000000000000e+00,5.000000000000000000e+00,5.000000000000000000e+00,5.000000000000000000e+00,5.000000000000000000e+00,5.000000000000000000e+00,5.000000000000000000e+00,5.000000000000000000e+00,5.000000000000000000e+00,5.000000000000000000e+00,5.000000000000000000e+00,5.000000000000000000e+00,5.000000000000000000e+00,5.000000000000000000e+00,5.000000000000000000e+00,5.000000000000000000e+00,5.000000000000000000e+00,5.000000000000000000e+00,5.000000000000000000e+00,5.000000000000000000e+00,5.000000000000000000e+00,5.000000000000000000e+00,5.000000000000000000e+00,5.000000000000000000e+00,5.000000000000000000e+00,5.000000000000000000e+00,5.000000000000000000e+00,5.000000000000000000e+00,5.000000000000000000e+00,5.000000000000000000e+00,5.000000000000000000e+00,5.000000000000000000e+00,5.000000000000000000e+00,5.000000000000000000e+00,5.000000000000000000e+00,5.000000000000000000e+00,5.000000000000000000e+00,5.000000000000000000e+00,5.000000000000000000e+00,5.000000000000000000e+00,5.000000000000000000e+00,5.000000000000000000e+00,5.000000000000000000e+00,5.000000000000000000e+00,5.000000000000000000e+00,5.000000000000000000e+00,5.000000000000000000e+00,5.000000000000000000e+00,5.000000000000000000e+00,5.000000000000000000e+00,5.000000000000000000e+00,5.000000000000000000e+00,5.000000000000000000e+00,5.000000000000000000e+00,4.995863914489746094e+00,4.794797897338867188e+00,4.609289646148681641e+00,4.437602043151855469e+00,4.278244495391845703e+00,4.129935741424560547e+00,3.991564989089965820e+00,3.862165927886962891e+00,3.740892887115478516e+00,3.627003908157348633e+00,3.519845008850097656e+00,3.418835878372192383e+00,3.323462486267089844e+00,3.233265876770019531e+00,3.147835731506347656e+00,3.066803932189941406e+00,2.989839076995849609e+00,2.916643142700195312e+00,2.846944808959960938e+00,2.780500411987304688e+00,2.717086315155029297e+00,2.656500577926635742e+00,2.598557710647583008e+00,2.543088436126708984e+00,2.489937782287597656e+00
4.885536193847656250e+00,5.000000000000000000e+00,5.000000000000000000e+00,5.000000000000000000e+00,5.000000000000000000e+00,5.000000000000000000e+00,5.000000000000000000e+00,5.000000000000000000e+00,5.000000000000000000e+00,5.000000000000000000e+00,5.000000000000000000e+00,5.000000000000000000e+00,5.000000000000000000e+00,5.000000000000000000e+00,5.000000000000000000e+00,5.000000000000000000e+00,5.000000000000000000e+00,5.000000000000000000e+00,5.000000000000000000e+00,5.000000000000000000e+00,5.000000000000000000e+00,5.000000000000000000e+00,5.000000000000000000e+00,5.000000000000000000e+00,5.000000000000000000e+00,5.000000000000000000e+00,5.000000000000000000e+00,5.000000000000000000e+00,5.000000000000000000e+00,5.000000000000000000e+00,5.000000000000000000e+00,5.000000000000000000e+00,5.000000000000000000e+00,5.000000000000000000e+00,5.000000000000000000e+00,5.000000000000000000e+00,5.000000000000000000e+00,5.000000000000000000e+00,5.000000000000000000e+00,5.000000000000000000e+00,5.000000000000000000e+00,5.000000000000000000e+00,5.000000000000000000e+00,5.000000000000000000e+00,5.000000000000000000e+00,5.000000000000000000e+00,5.000000000000000000e+00,5.000000000000000000e+00,5.000000000000000000e+00,5.000000000000000000e+00,5.000000000000000000e+00,5.000000000000000000e+00,5.000000000000000000e+00,5.000000000000000000e+00,5.000000000000000000e+00,4.996020317077636719e+00,4.794941902160644531e+00,4.609423160552978516e+00,4.437725543975830078e+00,4.278359413146972656e+00,4.130043029785156250e+00,3.991665124893188477e+00,3.862259387969970703e+00,3.740980863571166992e+00,3.627086639404296875e+00,3.519922494888305664e+00,3.418909072875976562e+00,3.323532104492187500e+00,3.233331680297851562e+00,3.147897720336914062e+00,3.066862821578979492e+00,2.989895343780517578e+00,2.916696310043334961e+00,2.846995592117309570e+00,2.780548810958862305e+00,2.717132806777954102e+00,2.656544685363769531e+00,2.598599910736083984e+00,2.543129205703735352e+00,2.489976882934570312e+00
4.885385036468505859e+00,5.000000000000000000e+00,5.000000000000000000e+00,5.000000000000000000e+00,5.000000000000000000e+00,5.000000000000000000e+00,5.000000000000000000e+00,5.000000000000000000e+00,5.000000000000000000e+00,5.000000000000000000e+00,5.000000000000000000e+00,5.000000000000000000e+00,5.000000000000000000e+00,5.000000000000000000e+00,5.000000000000000000e+00,5.000000000000000000e+00,5.000000000000000000e+00,5.000000000000000000e+00,5.000000000000000000e+00,5.000000000000000000e+00,5.000000000000000000e+00,5.000000000000000000e+00,5.000000000000000000e+00,5.000000000000000000e+00,5.000000000000000000e+00,5.000000000000000000e+00,5.000000000000000000e+00,5.000000000000000000e+00,5.000000000000000000e+00,5.000000000000000000e+00,5.000000000000000000e+00,5.000000000000000000e+00,5.000000000000000000e+00,5.000000000000000000e+00,5.000000000000000000e+00,5.000000000000000000e+00,5.000000000000000000e+00,5.000000000000000000e+00,5.000000000000000000e+00,5.000000000000000000e+00,5.000000000000000000e+00,5.000000000000000000e+00,5.000000000000000000e+00,5.000000000000000000e+00,5.000000000000000000e+00,5.000000000000000000e+00,5.000000000000000000e+00,5.000000000000000000e+00,5.000000000000000000e+00,5.000000000000000000e+00,5.000000000000000000e+00,5.000000000000000000e+00,5.000000000000000000e+00,5.000000000000000000e+00,5.000000000000000000e+00,4.996176719665527344e+00,4.795086383819580078e+00,4.609556674957275391e+00,4.437849044799804688e+00,4.278474330902099609e+00,4.130149841308593750e+00,3.991764783859252930e+00,3.862353086471557617e+00,3.741068363189697266e+00,3.627168893814086914e+00,3.520000457763671875e+00,3.418982505798339844e+00,3.323601245880126953e+00,3.233397006988525391e+00,3.147960186004638672e+00,3.066921949386596680e+00,2.989951372146606445e+00,2.916749715805053711e+00,2.847046613693237305e+00,2.780597209930419922e+00,2.717179059982299805e+00,2.656589031219482422e+00,2.598642349243164062e+00,2.543169498443603516e+00,2.490015745162963867e+00
4.885252475738525391e+00,5.000000000000000000e+00,5.000000000000000000e+00,5.000000000000000000e+00,5.000000000000000000e+00,5.000000000000000000e+00,5.000000000000000000e+00,5.000000000000000000e+00,5.000000000000000000e+00,5.000000000000000000e+00,5.000000000000000000e+00,5.000000000000000000e+00,5.000000000000000000e+00,5.000000000000000000e+00,5.000000000000000000e+00,5.000000000000000000e+00,5.000000000000000000e+00,5.000000000000000000e+00,5.000000000000000000e+00,5.000000000000000000e+00,5.000000000000000000e+00,5.000000000000000000e+00,5.000000000000000000e+00,5.000000000000000000e+00,5.000000000000000000e+00,5.000000000000000000e+00,5.000000000000000000e+00,5.000000000000000000e+00,5.000000000000000000e+00,5.000000000000000000e+00,5.000000000000000000e+00,5.000000000000000000e+00,5.000000000000000000e+00,5.000000000000000000e+00,5.000000000000000000e+00,5.000000000000000000e+00,5.000000000000000000e+00,5.000000000000000000e+00,5.000000000000000000e+00,5.000000000000000000e+00,5.000000000000000000e+00,5.000000000000000000e+00,5.000000000000000000e+00,5.000000000000000000e+00,5.000000000000000000e+00,5.000000000000000000e+00,5.000000000000000000e+00,5.000000000000000000e+00,5.000000000000000000e+00,5.000000000000000000e+00,5.000000000000000000e+00,5.000000000000000000e+00,5.000000000000000000e+00,5.000000000000000000e+00,5.000000000000000000e+00,4.996333599090576172e+00,4.795230388641357422e+00,4.609689712524414062e+00,4.437972545623779297e+00,4.278589248657226562e+00,4.130257129669189453e+00,3.991864919662475586e+00,3.862446546554565430e+00,3.741156339645385742e+00,3.627251625061035156e+00,3.520077943801879883e+00,3.419055700302124023e+00,3.323670625686645508e+00,3.233462810516357422e+00,3.148022174835205078e+00,3.066981077194213867e+00,2.990007400512695312e+00,2.916803121566772461e+00,2.847097396850585938e+00,2.780645847320556641e+00,2.717225313186645508e+00,2.656633377075195312e+00,2.598684787750244141e+00,2.543210268020629883e+00,2.490054607391357422e+00
4.885124683380126953e+00,5.000000000000000000e+00,5.000000000000000000e+00,5.000000000000000000e+00,5.000000000000000000e+00,5.000000000000000000e+00,5.000000000000000000e+00,5.000000000000000000e+00,5.000000000000000000e+00,5.000000000000000000e+00,5.000000000000000000e+00,5.000000000000000000e+00,5.000000000000000000e+00,5.000000000000000000e+00,5.000000000000000000e+00,5.000000000000000000e+00,5.000000000000000000e+00,5.000000000000000000e+00,5.000000000000000000e+00,5.000000000000000000e+00,5.000000000000000000e+00,5.000000000000000000e+00,5.000000000000000000e+00,5.000000000000000000e+00,5.000000000000000000e+00,5.000000000000000000e+00,5.000000000000000000e+00,5.000000000000000000e+00,5.000000000000000000e+00,5.000000000000000000e+00,5.000000000000000000e+00,5.000000000000000000e+00,5.000000000000000000e+00,5.000000000000000000e+00,5.000000000000000000e+00,5.000000000000000000e+00,5.000000000000000000e+00,5.000000000000000000e+00,5.000000000000000000e+00,5.000000000000000000e+00,5.000000000000000000e+00,5.000000000000000000e+00,5.000000000000000000e+00,5.000000000000000000e+00,5.000000000000000000e+00,5.000000000000000000e+00,5.000000000000000000e+00,5.000000000000000000e+00,5.000000000000000000e+00,5.000000000000000000e+00,5.000000000000000000e+00,5.000000000000000000e+00,5.000000000000000000e+00,5.000000000000000000e+00,5.000000000000000000e+00,4.996490001678466797e+00,4.795374870300292969e+00,4.609823226928710938e+00,4.438096046447753906e+00,4.278704166412353516e+00,4.130363941192626953e+00,3.991965293884277344e+00,3.862540245056152344e+00,3.741244077682495117e+00,3.627334117889404297e+00,3.520155906677246094e+00,3.419129371643066406e+00,3.323739767074584961e+00,3.233528614044189453e+00,3.148084402084350586e+00,3.067039966583251953e+00,2.990063428878784180e+00,2.916856527328491211e+00,2.847148418426513672e+00,2.780694246292114258e+00,2.717271566390991211e+00,2.656677722930908203e+00,2.598726987838745117e+00,2.543250799179077148e+00,2.490093469619750977e+00
4.884996891021728516e+00,5.000000000000000000e+00,5.000000000000000000e+00,5.000000000000000000e+00,5.000000000000000000e+00,5.000000000000000000e+00,5.000000000000000000e+00,5.000000000000000000e+00,5.000000000000000000e+00,5.000000000000000000e+00,5.000000000000000000e+00,5.000000000000000000e+00,5.000000000000000000e+00,5.000000000000000000e+00,5.000000000000000000e+00,5.000000000000000000e+00,5.000000000000000000e+00,5.000000000000000000e+00,5.000000000000000000e+00,5.000000000000000000e+00,5.000000000000000000e+00,5.000000000000000000e+00,5.000000000000000000e+00,5.000000000000000000e+00,5.000000000000000000e+00,5.000000000000000000e+00,5.000000000000000000e+00,5.000000000000000000e+00,5.000000000000000000e+00,5.000000000000000000e+00,5.000000000000000000e+00,5.000000000000000000e+00,5.000000000000000000e+00,5.000000000000000000e+00,5.000000000000000000e+00,5.000000000000000000e+00,5.000000000000000000e+00,5.000000000000000000e+00,5.000000000000000000e+00,5.000000000000000000e+00,4.958123683929443359e+00,5.000000000000000000e+00,5.000000000000000000e+00,5.000000000000000000e+00,5.000000000000000000e+00,5.000000000000000000e+00,5.000000000000000000e+00,5.000000000000000000e+00,5.000000000000000000e+00,5.000000000000000000e+00,5.000000000000000000e+00,5.000000000000000000e+00,5.000000000000000000e+00,5.000000000000000000e+00,5.000000000000000000e+00,4.996646881103515625e+00,4.795518875122070312e+00,4.609956264495849609e+00,4.438219547271728516e+00,4.278819084167480469e+00,4.130470752716064453e+00,3.992064952850341797e+00,3.862633705139160156e+00,3.741332054138183594e+00,3.627416849136352539e+00,3.520233392715454102e+00,3.419202327728271484e+00,3.323809146881103516e+00,3.233593940734863281e+00,3.148146629333496094e+00,3.067099094390869141e+00,2.990119695663452148e+00,2.916909694671630859e+00,2.847198963165283203e+00,2.780742883682250977e+00,2.717318058013916016e+00,2.656721830368041992e+00,2.598769664764404297e+00,2.543291330337524414e+00,2.490132331848144531e+00
4.884869098663330078e+00,5.000000000000000000e+00,5.000000000000000000e+00,5.000000000000000000e+00,5.000000000000000000e+00,5.000000000000000000e+00,5.000000000000000000e+00,5.000000000000000000e+00,5.000000000000000000e+00,5.000000000000000000e+00,5.000000000000000000e+00,5.000000000000000000e+00,5.000000000000000000e+00,5.000000000000000000e+00,5.000000000000000000e+00,5.000000000000000000e+00,5.000000000000000000e+00,5.000000000000000000e+00,5.000000000000000000e+00,5.000000000000000000e+00,5.000000000000000000e+00,5.000000000000000000e+00,5.000000000000000000e+00,5.000000000000000000e+00,5.000000000000000000e+00,5.000000000000000000e+00,5.000000000000000000e+00,5.000000000000000000e+00,5.000000000000000000e+00,5.000000000000000000e+00,5.000000000000000000e+00,5.000000000000000000e+00,5.000000000000000000e+00,5.000000000000000000e+00,5.000000000000000000e+00,5.000000000000000000e+00,5.000000000000000000e+00,5.000000000000000000e+00,5.000000000000000000e+00,5.000000000000000000e+00,4.938397884368896484e+00,4.949503421783447266e+00,5.000000000000000000e+00,5.000000000000000000e+00,5.000000000000000000e+00,5.000000000000000000e+00,5.000000000000000000e+00,5.000000000000000000e+00,5.000000000000000000e+00,5.000000000000000000e+00,5.000000000000000000e+00,5.000000000000000000e+00,5.000000000000000000e+00,5.000000000000000000e+00,5.000000000000000000e+00,4.996803283691406250e+00,4.795663356781005859e+00,4.610089778900146484e+00,4.438343524932861328e+00,4.278934001922607422e+00,4.130578041076660156e+00,3.992165088653564453e+00,3.862727403640747070e+00,3.741419553756713867e+00,3.627499103546142578e+00,3.520311355590820312e+00,3.419275999069213867e+00,3.323878288269042969e+00,3.233659744262695312e+00,3.148208856582641602e+00,3.067157983779907227e+00,2.990175724029541016e+00,2.916963338851928711e+00,2.847249984741210938e+00,2.780791282653808594e+00,2.717364549636840820e+00,2.656766176223754883e+00,2.598811864852905273e+00,2.543331861495971680e+00,2.490171432495117188e+00
4.884741306304931641e+00,5.000000000000000000e+00,5.000000000000000000e+00,5.000000000000000000e+00,5.000000000000000000e+00,5.000000000000000000e+00,5.000000000000000000e+00,5.000000000000000000e+00,5.000000000000000000e+00,5.000000000000000000e+00,5.000000000000000000e+00,5.000000000000000000e+00,5.000000000000000000e+00,5.000000000000000000e+00,5.000000000000000000e+00,5.000000000000000000e+00,5.000000000000000000e+00,5.000000000000000000e+00,5.000000000000000000e+00,5.000000000000000000e+00,5.000000000000000000e+00,5.000000000000000000e+00,5.000000000000000000e+00,5.000000000000000000e+00,5.000000000000000000e+00,5.000000000000000000e+00,5.000000000000000000e+00,5.000000000000000000e+00,5.000000000000000000e+00,5.000000000000000000e+00,5.000000000000000000e+00,5.000000000000000000e+00,5.000000000000000000e+00,5.000000000000000000e+00,5.000000000000000000e+00,5.000000000000000000e+00,5.000000000000000000e+00,5.000000000000000000e+00,5.000000000000000000e+00,5.000000000000000000e+00,5.000000000000000000e+00,4.822693824768066406e+00,5.000000000000000000e+00,5.000000000000000000e+00,5.000000000000000000e+00,5.000000000000000000e+00,5.000000000000000000e+00,5.000000000000000000e+00,5.000000000000000000e+00,5.000000000000000000e+00,5.000000000000000000e+00,5.000000000000000000e+00,5.000000000000000000e+00,5.000000000000000000e+00,5.000000000000000000e+00,4.996960163116455078e+00,4.795807838439941406e+00,4.610223293304443359e+00,4.438467025756835938e+00,4.279048919677734375e+00,4.130684852600097656e+00,3.992264986038208008e+00,3.862820863723754883e+00,3.741507530212402344e+00,3.627581834793090820e+00,3.520389080047607422e+00,3.419349431991577148e+00,3.323947906494140625e+00,3.233725070953369141e+00,3.148270845413208008e+00,3.067217111587524414e+00,2.990231990814208984e+00,2.917016506195068359e+00,2.847301006317138672e+00,2.780839920043945312e+00,2.717410802841186523e+00,2.656810522079467773e+00,2.598854303359985352e+00,2.543372631072998047e+00,2.490210294723510742e+00
4.884693622589111328e+00,5.000000000000000000e+00,5.000000000000000000e+00,5.000000000000000000e+00,5.000000000000000000e+00,5.000000000000000000e+00,5.000000000000000000e+00,5.000000000000000000e+00,5.000000000000000000e+00,5.000000000000000000e+00,5.000000000000000000e+00,5.000000000000000000e+00,5.000000000000000000e+00,5.000000000000000000e+00,5.000000000000000000e+00,5.000000000000000000e+00,5.000000000000000000e+00,5.000000000000000000e+00,5.000000000000000000e+00,5.000000000000000000e+00,5.000000000000000000e+00,5.000000000000000000e+00,5.000000000000000000e+00,5.000000000000000000e+00,5.000000000000000000e+00,5.000000000000000000e+00,5.000000000000000000e+00,5.000000000000000000e+00,5.000000000000000000e+00,5.000000000000000000e+00,5.000000000000000000e+00,5.000000000000000000e+00,5.000000000000000000e+00,5.000000000000000000e+00,5.000000000000000000e+00,5.000000000000000000e+00,5.000000000000000000e+00,5.000000000000000000e+00,5.000000000000000000e+00,5.000000000000000000e+00,5.000000000000000000e+00,4.917254447937011719e+00,5.000000000000000000e+00,5.000000000000000000e+00,5.000000000000000000e+00,5.000000000000000000e+00,5.000000000000000000e+00,5.000000000000000000e+00,5.000000000000000000e+00,5.000000000000000000e+00,5.000000000000000000e+00,5.000000000000000000e+00,5.000000000000000000e+00,5.000000000000000000e+00,5.000000000000000000e+00,4.997116565704345703e+00,4.795951843261718750e+00,4.610356807708740234e+00,4.438590526580810547e+00,4.279163837432861328e+00,4.130792140960693359e+00,3.992365121841430664e+00,3.862914562225341797e+00,3.741595268249511719e+00,3.627664566040039062e+00,3.520466804504394531e+00,3.419422626495361328e+00,3.324017047882080078e+00,3.233790874481201172e+00,3.148333311080932617e+00,3.067276000976562500e+00,2.990287780761718750e+00,2.917070150375366211e+00,2.847351789474487305e+00,2.780888319015502930e+00,2.717457056045532227e+00,2.656854867935180664e+00,2.598896503448486328e+00,2.543413162231445312e+00,2.490249156951904297e+00
4.872751712799072266e+00,4.871532440185546875e+00,4.870312690734863281e+00,4.869094371795654297e+00,4.867876529693603516e+00,4.866659164428710938e+00,4.865442276000976562e+00,4.864226341247558594e+00,4.863010883331298828e+00,4.861795902252197266e+00,4.860581398010253906e+00,4.859367847442626953e+00,4.858154773712158203e+00,4.856942653656005859e+00,4.855730533599853516e+00,4.854519367218017578e+00,4.853308200836181641e+00,4.852098464965820312e+00,4.850888729095458984e+00,4.849680423736572266e+00,4.848471641540527344e+00,4.847264289855957031e+00,4.846057415008544922e+00,4.844850540161132812e+00,4.843645095825195312e+00,4.842439651489257812e+00,4.841235160827636719e+00,4.840031147003173828e+00,4.838827610015869141e+00,4.837624549865722656e+00,4.836422443389892578e+00,4.835220813751220703e+00,4.834019660949707031e+00,4.832818984985351562e+00,4.831619262695312500e+00,4.830420017242431641e+00,4.829221248626708984e+00,4.828022956848144531e+00,4.826825618743896484e+00,4.825628757476806641e+00,4.824432373046875000e+00,4.823236942291259766e+00,4.822041511535644531e+00,4.820847511291503906e+00,4.819653034210205078e+00,4.818459987640380859e+00,4.817266941070556641e+00,4.816074848175048828e+00,4.814883708953857422e+00,4.813692569732666016e+00,4.812501907348632812e+00,4.811312198638916016e+00,4.810122966766357422e+00,4.808934211730957031e+00,4.807746410369873047e+00,4.806559085845947266e+00,4.796096324920654297e+00,4.610489845275878906e+00,4.438714027404785156e+00,4.279278755187988281e+00,4.130898952484130859e+00,3.992465019226074219e+00,3.863008022308349609e+00,3.741683244705200195e+00,3.627747058868408203e+00,3.520544528961181641e+00,3.419496059417724609e+00,3.324086427688598633e+00,3.233856439590454102e+00,3.148395299911499023e+00,3.067335128784179688e+00,2.990344047546386719e+00,2.917123317718505859e+00,2.847402811050415039e+00,2.780936956405639648e+00,2.717503309249877930e+00,2.656898975372314453e+00,2.598938941955566406e+00,2.543453693389892578e+00,2.490288019180297852e+00
3.776791572570800781e+00,3.776058673858642578e+00,3.775326251983642578e+00,3.774593591690063477e+00,3.773861885070800781e+00,3.773130178451538086e+00,3.772398948669433594e+00,3.771667718887329102e+00,3.770936727523803711e+00,3.770206212997436523e+00,3.769475936889648438e+00,3.768746137619018555e+00,3.768016099929809570e+00,3.767286777496337891e+00,3.766557693481445312e+00,3.765828847885131836e+00,3.765100479125976562e+00,3.764371633529663086e+00,3.763643741607666016e+00,3.762916088104248047e+00,3.762188911437988281e+00,3.761461734771728516e+00,3.760734558105468750e+00,3.760008096694946289e+00,3.759281873703002930e+00,3.758555889129638672e+00,3.757829666137695312e+00,3.757104396820068359e+00,3.756379127502441406e+00,3.755654335021972656e+00,3.754929780960083008e+00,3.754204988479614258e+00,3.753481149673461914e+00,3.752757310867309570e+00,3.752033948898315430e+00,3.751310825347900391e+00,3.750587463378906250e+00,3.749864816665649414e+00,3.749142408370971680e+00,3.748420476913452148e+00,3.747698307037353516e+00,3.746976852416992188e+00,3.746255397796630859e+00,3.745534658432006836e+00,3.744813919067382812e+00,3.744093179702758789e+00,3.743372917175292969e+00,3.742653131484985352e+00,3.741933584213256836e+00,3.741214275360107422e+00,3.740494966506958008e+00,3.739776372909545898e+00,3.739057779312133789e+00,3.738339662551879883e+00,3.737621784210205078e+00,3.736903667449951172e+00,3.736186265945434570e+00,3.735469341278076172e+00,3.734752416610717773e+00,3.734035491943359375e+00,3.733319282531738281e+00,3.732603311538696289e+00,3.731887578964233398e+00,3.731172323226928711e+00,3.627829790115356445e+00,3.520622491836547852e+00,3.419569253921508789e+00,3.324155569076538086e+00,3.233922243118286133e+00,3.148457527160644531e+00,3.067394018173217773e+00,2.990400314331054688e+00,2.917176723480224609e+00,2.847453355789184570e+00,2.780985355377197266e+00,2.717549800872802734e+00,2.656943321228027344e+00,2.598981380462646484e+00,2.543494462966918945e+00,2.490326881408691406e+00
3.083306312561035156e+00,3.082818031311035156e+00,3.082329511642456055e+00,3.081841468811035156e+00,3.081353425979614258e+00,3.080865621566772461e+00,3.080377817153930664e+00,3.079890489578247070e+00,3.079403162002563477e+00,3.078916072845458984e+00,3.078428983688354492e+00,3.077941894531250000e+00,3.077455282211303711e+00,3.076968669891357422e+00,3.076482295989990234e+00,3.075996160507202148e+00,3.075509786605834961e+00,3.075023889541625977e+00,3.074537992477416992e+00,3.074052333831787109e+00,3.073566675186157227e+00,3.073081493377685547e+00,3.072596311569213867e+00,3.072111368179321289e+00,3.071626424789428711e+00,3.071141481399536133e+00,3.070657014846801758e+00,3.070172548294067383e+00,3.069688320159912109e+00,3.069204330444335938e+00,3.068720102310180664e+00,3.068236351013183594e+00,3.067752599716186523e+00,3.067269325256347656e+00,3.066786050796508789e+00,3.066302537918090820e+00,3.065819501876831055e+00,3.065336704254150391e+00,3.064854145050048828e+00,3.064371347427368164e+00,3.063888788223266602e+00,3.063406705856323242e+00,3.062924623489379883e+00,3.062442541122436523e+00,3.061960458755493164e+00,3.061478853225708008e+00,3.060997486114501953e+00,3.060516119003295898e+00,3.060034751892089844e+00,3.059553623199462891e+00,3.059072732925415039e+00,3.058591842651367188e+00,3.058111429214477539e+00,3.057630538940429688e+00,3.057150363922119141e+00,3.056670188903808594e+00,3.056190252304077148e+00,3.055710315704345703e+00,3.055230379104614258e+00,3.054750919342041016e+00,3.054271459579467773e+00,3.053792238235473633e+00,3.053313255310058594e+00,3.052834033966064453e+00,3.052355289459228516e+00,3.051876783370971680e+00,3.051398277282714844e+00,3.050919771194458008e+00,3.050441503524780273e+00,3.049963474273681641e+00,3.049485445022583008e+00,2.990456342697143555e+00,2.917230129241943359e+00,2.847504377365112305e+00,2.781033992767333984e+00,2.717596054077148438e+00,2.656987667083740234e+00,2.599023818969726562e+00,2.543534994125366211e+00,2.490365743637084961e+00
2.604985237121582031e+00,2.604636430740356445e+00,2.604287862777709961e+00,2.603939533233642578e+00,2.603591203689575195e+00,2.603242635726928711e+00,2.602894544601440430e+00,2.602546453475952148e+00,2.602198600769042969e+00,2.601850748062133789e+00,2.601502656936645508e+00,2.601155042648315430e+00,2.600807428359985352e+00,2.600460052490234375e+00,2.600112676620483398e+00,2.599765062332153320e+00,2.599417924880981445e+00,2.599070787429809570e+00,2.598723649978637695e+00,2.598376512527465820e+00,2.598029613494873047e+00,2.597682952880859375e+00,2.597336292266845703e+00,2.596989631652832031e+00,2.596642971038818359e+00,2.596296548843383789e+00,2.595950365066528320e+00,2.595604181289672852e+00,2.595257997512817383e+00,2.594911813735961914e+00,2.594565868377685547e+00,2.594220161437988281e+00,2.593874454498291016e+00,2.593528747558593750e+00,2.593183040618896484e+00,2.592837572097778320e+00,2.592492103576660156e+00,2.592146873474121094e+00,2.591801404953002930e+00,2.591456413269042969e+00,2.591111421585083008e+00,2.590766429901123047e+00,2.590421676635742188e+00,2.590076684951782227e+00,2.589732170104980469e+00,2.589387655258178711e+00,2.589043140411376953e+00,2.588698863983154297e+00,2.588354349136352539e+00,2.588010072708129883e+00,2.587666034698486328e+00,2.587321996688842773e+00,2.586977958679199219e+00,2.586634159088134766e+00,2.586290597915649414e+00,2.585946798324584961e+00,2.585603237152099609e+00,2.585259675979614258e+00,2.584916353225708008e+00,2.584573030471801758e+00,2.584229946136474609e+00,2.583886861801147461e+00,2.583543777465820312e+00,2.583200693130493164e+00,2.582858085632324219e+00,2.582515239715576172e+00,2.582172393798828125e+00,2.581830024719238281e+00,2.581487417221069336e+00,2.581145048141479492e+00,2.580802917480468750e+00,2.580460548400878906e+00,2.580118417739868164e+00,2.579776525497436523e+00,2.579434633255004883e+00,2.579092741012573242e+00,2.578750848770141602e+00,2.578409194946289062e+00,2.543575525283813477e+00,2.490404844284057617e+00
2.255139589309692383e+00,2.254878282546997070e+00,2.254617214202880859e+00,2.254355907440185547e+00,2.254094839096069336e+00,2.253833770751953125e+00,2.253572702407836914e+00,2.253311872482299805e+00,2.253051042556762695e+00,2.252790212631225586e+00,2.252529382705688477e+00,2.252268791198730469e+00,2.252008199691772461e+00,2.251747608184814453e+00,2.251487016677856445e+00,2.251226663589477539e+00,2.250966310501098633e+00,2.250705957412719727e+00,2.250445604324340820e+00,2.250185251235961914e+00,2.249925136566162109e+00,2.249665260314941406e+00,2.249405145645141602e+00,2.249145030975341797e+00,2.248885154724121094e+00,2.248625278472900391e+00,2.248365640640258789e+00,2.248106002807617188e+00,2.247846126556396484e+00,2.247586488723754883e+00,2.247327089309692383e+00,2.247067451477050781e+00,2.246808052062988281e+00,2.246548652648925781e+00,2.246289491653442383e+00,2.246030092239379883e+00,2.245770931243896484e+00,2.245511770248413086e+00,2.245252609252929688e+00,2.244993686676025391e+00,2.244734764099121094e+00,2.244475841522216797e+00,2.244216918945312500e+00,2.243958234786987305e+00,2.243699550628662109e+00,2.243440866470336914e+00,2.243182182312011719e+00,2.242923736572265625e+00,2.242665290832519531e+00,2.242406845092773438e+00,2.242148637771606445e+00,2.241890192031860352e+00,2.241631984710693359e+00,2.241373777389526367e+00,2.241115808486938477e+00,2.240857601165771484e+00,2.240599632263183594e+00,2.240341663360595703e+00,2.240083694458007812e+00,2.239825963973999023e+00,2.239568233489990234e+00,2.239310503005981445e+00,2.239052772521972656e+00,2.238795280456542969e+00,2.238537788391113281e+00,2.238280296325683594e+00,2.238022804260253906e+00,2.237765550613403320e+00,2.237508296966552734e+00,2.237251043319702148e+00,2.236993789672851562e+00,2.236736774444580078e+00,2.236479759216308594e+00,2.236222743988037109e+00,2.235965728759765625e+00,2.235708713531494141e+00,2.235451936721801758e+00,2.235195398330688477e+00,2.234938621520996094e+00,2.234681844711303711e+00
1.988136053085327148e+00,1.987932920455932617e+00,1.987729907035827637e+00,1.987526893615722656e+00,1.987323999404907227e+00,1.987121105194091797e+00,1.986918210983276367e+00,1.986715435981750488e+00,1.986512422561645508e+00,1.986309647560119629e+00,1.986106991767883301e+00,1.985904335975646973e+00,1.985701799392700195e+00,1.985499143600463867e+00,1.985296726226806641e+00,1.985094189643859863e+00,1.984891772270202637e+00,1.984689116477966309e+00,1.984486699104309082e+00,1.984284400939941406e+00,1.984082102775573730e+00,1.983879923820495605e+00,1.983677744865417480e+00,1.983475565910339355e+00,1.983273506164550781e+00,1.983071327209472656e+00,1.982869148254394531e+00,1.982667088508605957e+00,1.982465147972106934e+00,1.982263326644897461e+00,1.982061386108398438e+00,1.981859564781188965e+00,1.981657743453979492e+00,1.981456041336059570e+00,1.981254339218139648e+00,1.981052637100219727e+00,1.980850815773010254e+00,1.980649232864379883e+00,1.980447769165039062e+00,1.980246186256408691e+00,1.980044722557067871e+00,1.979843378067016602e+00,1.979641914367675781e+00,1.979440689086914062e+00,1.979239344596862793e+00,1.979037880897521973e+00,1.978836655616760254e+00,1.978635430335998535e+00,1.978434324264526367e+00,1.978233218193054199e+00,1.978032231330871582e+00,1.977831125259399414e+00,1.977630257606506348e+00,1.977429270744323730e+00,1.977228403091430664e+00,1.977027297019958496e+00,1.976826548576354980e+00,1.976625800132751465e+00,1.976425051689147949e+00,1.976224303245544434e+00,1.976023674011230469e+00,1.975823163986206055e+00,1.975622534751892090e+00,1.975422024726867676e+00,1.975221276283264160e+00,1.975020885467529297e+00,1.974820494651794434e+00,1.974620103836059570e+00,1.974419832229614258e+00,1.974219560623168945e+00,1.974019289016723633e+00,1.973819136619567871e+00,1.973618984222412109e+00,1.973418593406677246e+00,1.973218560218811035e+00,1.973018527030944824e+00,1.972818493843078613e+00,1.972618579864501953e+00,1.972418665885925293e+00,1.972218751907348633e+00
1.777664542198181152e+00,1.777502179145812988e+00,1.777339696884155273e+00,1.777177453041076660e+00,1.777015209197998047e+00,1.776852965354919434e+00,1.776690721511840820e+00,1.776528596878051758e+00,1.776366472244262695e+00,1.776204347610473633e+00,1.776042222976684570e+00,1.775879979133605957e+00,1.775717973709106445e+00,1.775555968284606934e+00,1.775394082069396973e+00,1.775232076644897461e+00,1.775070190429687500e+00,1.774908304214477539e+00,1.774746417999267578e+00,1.774584650993347168e+00,1.774422645568847656e+00,1.774260878562927246e+00,1.774099230766296387e+00,1.773937463760375977e+00,1.773775815963745117e+00,1.773614168167114258e+00,1.773452639579772949e+00,1.773290991783142090e+00,1.773129463195800781e+00,1.772967934608459473e+00,1.772806286811828613e+00,1.772644758224487305e+00,1.772483348846435547e+00,1.772321939468383789e+00,1.772160530090332031e+00,1.771999239921569824e+00,1.771837949752807617e+00,1.771676659584045410e+00,1.771515369415283203e+00,1.771353960037231445e+00,1.771192789077758789e+00,1.771031618118286133e+00,1.770870447158813477e+00,1.770709276199340820e+00,1.770548224449157715e+00,1.770387172698974609e+00,1.770226120948791504e+00,1.770065188407897949e+00,1.769904255867004395e+00,1.769743084907531738e+00,1.769582152366638184e+00,1.769421339035034180e+00,1.769260406494140625e+00,1.769099593162536621e+00,1.768938899040222168e+00,1.768778085708618164e+00,1.768617391586303711e+00,1.768456697463989258e+00,1.768295764923095703e+00,1.768135190010070801e+00,1.767974495887756348e+00,1.767813920974731445e+00,1.767653346061706543e+00,1.767492890357971191e+00,1.767332434654235840e+00,1.767171859741210938e+00,1.767011523246765137e+00,1.766851067543029785e+00,1.766690492630004883e+00,1.766530156135559082e+00,1.766369819641113281e+00,1.766209483146667480e+00,1.766049265861511230e+00,1.765889048576354980e+00,1.765728831291198730e+00,1.765568614006042480e+00,1.765408515930175781e+00,1.765248298645019531e+00,1.765088200569152832e+00,1.764928102493286133e+00
1.607489585876464844e+00,1.607356905937194824e+00,1.607224106788635254e+00,1.607091426849365234e+00,1.606958746910095215e+00,1.606825947761535645e+00,1.606693267822265625e+00,1.606560587882995605e+00,1.606428027153015137e+00,1.606295466423034668e+00,1.606162905693054199e+00,1.606030344963073730e+00,1.605897903442382812e+00,1.605765342712402344e+00,1.605632901191711426e+00,1.605500221252441406e+00,1.605367898941040039e+00,1.605235457420349121e+00,1.605103015899658203e+00,1.604970693588256836e+00,1.604838371276855469e+00,1.604706048965454102e+00,1.604573726654052734e+00,1.604441523551940918e+00,1.604309082031250000e+00,1.604176878929138184e+00,1.604044675827026367e+00,1.603912472724914551e+00,1.603780269622802734e+00,1.603648185729980469e+00,1.603515982627868652e+00,1.603383898735046387e+00,1.603251814842224121e+00,1.603119850158691406e+00,1.602987647056579590e+00,1.602855563163757324e+00,1.602723598480224609e+00,1.602591633796691895e+00,1.602459669113159180e+00,1.602327823638916016e+00,1.602195858955383301e+00,1.602064013481140137e+00,1.601932168006896973e+00,1.601800203323364258e+00,1.601668357849121094e+00,1.601536512374877930e+00,1.601404786109924316e+00,1.601273059844970703e+00,1.601141333580017090e+00,1.601009607315063477e+00,1.600877881050109863e+00,1.600746273994445801e+00,1.600614428520202637e+00,1.600482821464538574e+00,1.600351214408874512e+00,1.600219607353210449e+00,1.600088119506835938e+00,1.599956512451171875e+00,1.599825024604797363e+00,1.599693536758422852e+00,1.599562048912048340e+00,1.599430561065673828e+00,1.599299073219299316e+00,1.599167585372924805e+00,1.599036216735839844e+00,1.598904848098754883e+00,1.598773598670959473e+00,1.598642230033874512e+00,1.598510980606079102e+00,1.598379611968994141e+00,1.598248362541198730e+00,1.598116993904113770e+00,1.597985863685607910e+00,1.597854614257812500e+00,1.597723484039306641e+00,1.597592353820800781e+00,1.597461223602294922e+00,1.597330093383789062e+00,1.597198963165283203e+00,1.597067952156066895e+00
1.467049598693847656e+00,1.466939091682434082e+00,1.466828465461730957e+00,1.466717958450317383e+00,1.466607451438903809e+00,1.466496944427490234e+00,1.466386437416076660e+00,1.466275930404663086e+00,1.466165542602539062e+00,1.466054916381835938e+00,1.465944528579711914e+00,1.465834140777587891e+00,1.465723752975463867e+00,1.465613365173339844e+00,1.465502977371215820e+00,1.465392708778381348e+00,1.465282320976257324e+00,1.465172052383422852e+00,1.465061664581298828e+00,1.464951276779174805e+00,1.464841127395629883e+00,1.464730858802795410e+00,1.464620590209960938e+00,1.464510440826416016e+00,1.464400172233581543e+00,1.464290022850036621e+00,1.464179873466491699e+00,1.464069724082946777e+00,1.463959455490112305e+00,1.463849425315856934e+00,1.463739275932312012e+00,1.463629245758056641e+00,1.463519215583801270e+00,1.463409185409545898e+00,1.463299155235290527e+00,1.463189125061035156e+00,1.463079094886779785e+00,1.462968945503234863e+00,1.462859034538269043e+00,1.462749123573303223e+00,1.462639212608337402e+00,1.462529301643371582e+00,1.462419390678405762e+00,1.462309479713439941e+00,1.462199687957763672e+00,1.462089776992797852e+00,1.461979866027832031e+00,1.461870074272155762e+00,1.461760282516479492e+00,1.461650490760803223e+00,1.461540699005126953e+00,1.461431026458740234e+00,1.461321234703063965e+00,1.461211562156677246e+00,1.461101889610290527e+00,1.460992217063903809e+00,1.460882425308227539e+00,1.460772752761840820e+00,1.460663199424743652e+00,1.460553526878356934e+00,1.460443973541259766e+00,1.460334300994873047e+00,1.460224747657775879e+00,1.460115194320678711e+00,1.460005760192871094e+00,1.459896087646484375e+00,1.459786534309387207e+00,1.459677100181579590e+00,1.459567666053771973e+00,1.459458231925964355e+00,1.459348797798156738e+00,1.459239363670349121e+00,1.459129929542541504e+00,1.459020614624023438e+00,1.458911180496215820e+00,1.458801746368408203e+00,1.458692431449890137e+00,1.458583116531372070e+00,1.458473801612854004e+00,1.458364486694335938e+00
1.349177479743957520e+00,1.349083900451660156e+00,1.348990440368652344e+00,1.348896861076354980e+00,1.348803400993347168e+00,1.348709821701049805e+00,1.348616480827331543e+00,1.348523020744323730e+00,1.348429560661315918e+00,1.348336100578308105e+00,1.348242759704589844e+00,1.348149299621582031e+00,1.348055839538574219e+00,1.347962498664855957e+00,1.347869157791137695e+00,1.347775816917419434e+00,1.347682476043701172e+00,1.347589254379272461e+00,1.347495913505554199e+00,1.347402572631835938e+00,1.347309350967407227e+00,1.347216129302978516e+00,1.347122788429260254e+00,1.347029566764831543e+00,1.346936345100402832e+00,1.346843123435974121e+00,1.346749901771545410e+00,1.346656680107116699e+00,1.346563577651977539e+00,1.346470355987548828e+00,1.346377253532409668e+00,1.346284031867980957e+00,1.346190929412841797e+00,1.346097826957702637e+00,1.346004724502563477e+00,1.345911622047424316e+00,1.345818519592285156e+00,1.345725536346435547e+00,1.345632433891296387e+00,1.345539450645446777e+00,1.345446348190307617e+00,1.345353364944458008e+00,1.345260381698608398e+00,1.345167398452758789e+00,1.345074415206909180e+00,1.344981431961059570e+00,1.344888567924499512e+00,1.344795584678649902e+00,1.344702720642089844e+00,1.344609737396240234e+00,1.344516754150390625e+00,1.344423890113830566e+00,1.344331026077270508e+00,1.344238162040710449e+00,1.344145417213439941e+00,1.344052553176879883e+00,1.343959689140319824e+00,1.343866944313049316e+00,1.343774199485778809e+00,1.343681216239929199e+00,1.343588471412658691e+00,1.343495726585388184e+00,1.343402981758117676e+00,1.343310356140136719e+00,1.343217611312866211e+00,1.343124866485595703e+00,1.343032240867614746e+00,1.342939496040344238e+00,1.342846870422363281e+00,1.342754125595092773e+00,1.342661499977111816e+00,1.342568874359130859e+00,1.342476248741149902e+00,1.342383742332458496e+00,1.342291116714477539e+00,1.342198491096496582e+00,1.342105984687805176e+00,1.342013478279113770e+00,1.341920852661132812e+00,1.341828346252441406e+00
1.248837709426879883e+00,1.248757600784301758e+00,1.248677492141723633e+00,1.248597383499145508e+00,1.248517274856567383e+00,1.248437285423278809e+00,1.248357057571411133e+00,1.248276948928833008e+00,1.248196959495544434e+00,1.248116850852966309e+00,1.248036861419677734e+00,1.247956871986389160e+00,1.247876882553100586e+00,1.247796773910522461e+00,1.247716784477233887e+00,1.247636914253234863e+00,1.247556805610656738e+00,1.247476816177368164e+00,1.247396826744079590e+00,1.247316956520080566e+00,1.247236967086791992e+00,1.247157096862792969e+00,1.247077226638793945e+00,1.246997237205505371e+00,1.246917366981506348e+00,1.246837377548217773e+00,1.246757507324218750e+00,1.246677637100219727e+00,1.246597886085510254e+00,1.246518015861511230e+00,1.246438145637512207e+00,1.246358394622802734e+00,1.246278524398803711e+00,1.246198773384094238e+00,1.246118903160095215e+00,1.246039032936096191e+00,1.245959281921386719e+00,1.245879530906677246e+00,1.245799779891967773e+00,1.245720028877258301e+00,1.245640397071838379e+00,1.245560646057128906e+00,1.245480895042419434e+00,1.245401263236999512e+00,1.245321393013000488e+00,1.245241761207580566e+00,1.245162129402160645e+00,1.245082497596740723e+00,1.245002865791320801e+00,1.244923233985900879e+00,1.244843602180480957e+00,1.244763970375061035e+00,1.244684338569641113e+00,1.244604706764221191e+00,1.244525074958801270e+00,1.244445443153381348e+00,1.244365930557250977e+00,1.244286417961120605e+00,1.244206786155700684e+00,1.244127273559570312e+00,1.244047760963439941e+00,1.243968248367309570e+00,1.243888735771179199e+00,1.243809223175048828e+00,1.243729710578918457e+00,1.243650197982788086e+00,1.243570804595947266e+00,1.243491291999816895e+00,1.243411898612976074e+00,1.243332505226135254e+00,1.243252992630004883e+00,1.243173599243164062e+00,1.243094086647033691e+00,1.243014693260192871e+00,1.242935419082641602e+00,1.242856025695800781e+00,1.242776632308959961e+00,1.242697238922119141e+00,1.242617964744567871e+00,1.242538571357727051e+00
1.162389755249023438e+00,1.162320256233215332e+00,1.162250876426696777e+00,1.162181496620178223e+00,1.162111997604370117e+00,1.162042617797851562e+00,1.161973237991333008e+00,1.161903977394104004e+00,1.161834597587585449e+00,1.161765217781066895e+00,1.161695837974548340e+00,1.161626458168029785e+00,1.161557078361511230e+00,1.161487817764282227e+00,1.161418557167053223e+00,1.161349177360534668e+00,1.161279916763305664e+00,1.161210656166076660e+00,1.161141395568847656e+00,1.161072015762329102e+00,1.161002755165100098e+00,1.160933494567871094e+00,1.160864233970642090e+00,1.160794973373413086e+00,1.160725831985473633e+00,1.160656571388244629e+00,1.160587310791015625e+00,1.160518169403076172e+00,1.160448908805847168e+00,1.160379648208618164e+00,1.160310506820678711e+00,1.160241365432739258e+00,1.160172224044799805e+00,1.160102963447570801e+00,1.160033822059631348e+00,1.159964680671691895e+00,1.159895658493041992e+00,1.159826517105102539e+00,1.159757256507873535e+00,1.159688234329223633e+00,1.159619092941284180e+00,1.159549951553344727e+00,1.159480929374694824e+00,1.159411907196044922e+00,1.159342765808105469e+00,1.159273743629455566e+00,1.159204721450805664e+00,1.159135699272155762e+00,1.159066557884216309e+00,1.158997535705566406e+00,1.158928513526916504e+00,1.158859491348266602e+00,1.158790469169616699e+00,1.158721566200256348e+00,1.158652544021606445e+00,1.158583521842956543e+00,1.158514618873596191e+00,1.158445596694946289e+00,1.158376574516296387e+00,1.158307671546936035e+00,1.158238768577575684e+00,1.158169865608215332e+00,1.158100962638854980e+00,1.158032059669494629e+00,1.157963156700134277e+00,1.157894253730773926e+00,1.157825231552124023e+00,1.157756447792053223e+00,1.157687544822692871e+00,1.157618641853332520e+00,1.157549858093261719e+00,1.157480955123901367e+00,1.157412171363830566e+00,1.157343387603759766e+00,1.157274484634399414e+00,1.157205700874328613e+00,1.157136797904968262e+00,1.157068014144897461e+00,1.156999230384826660e+00,1.156930446624755859e+00
1.087135076522827148e+00,1.087074398994445801e+00,1.087013721466064453e+00,1.086952924728393555e+00,1.086892247200012207e+00,1.086831569671630859e+00,1.086770892143249512e+00,1.086710214614868164e+00,1.086649537086486816e+00,1.086588859558105469e+00,1.086528182029724121e+00,1.086467504501342773e+00,1.086406826972961426e+00,1.086346268653869629e+00,1.086285471916198730e+00,1.086224913597106934e+00,1.086164236068725586e+00,1.086103677749633789e+00,1.086043119430541992e+00,1.085982441902160645e+00,1.085921883583068848e+00,1.085861325263977051e+00,1.085800766944885254e+00,1.085740089416503906e+00,1.085679531097412109e+00,1.085618972778320312e+00,1.085558414459228516e+00,1.085497856140136719e+00,1.085437297821044922e+00,1.085376858711242676e+00,1.085316300392150879e+00,1.085255742073059082e+00,1.085195183753967285e+00,1.085134744644165039e+00,1.085074186325073242e+00,1.085013747215270996e+00,1.084953188896179199e+00,1.084892749786376953e+00,1.084832310676574707e+00,1.084771871566772461e+00,1.084711313247680664e+00,1.084650874137878418e+00,1.084590435028076172e+00,1.084529995918273926e+00,1.084469556808471680e+00,1.084409117698669434e+00,1.084348678588867188e+00,1.084288239479064941e+00,1.084227919578552246e+00,1.084167480468750000e+00,1.084107041358947754e+00,1.084046602249145508e+00,1.083986282348632812e+00,1.083925843238830566e+00,1.083865523338317871e+00,1.083805203437805176e+00,1.083744883537292480e+00,1.083684444427490234e+00,1.083624124526977539e+00,1.083563804626464844e+00,1.083503484725952148e+00,1.083443164825439453e+00,1.083382844924926758e+00,1.083322525024414062e+00,1.083262205123901367e+00,1.083201885223388672e+00,1.083141684532165527e+00,1.083081364631652832e+00,1.083021163940429688e+00,1.082960844039916992e+00,1.082900524139404297e+00,1.082840323448181152e+00,1.082780003547668457e+00,1.082719802856445312e+00,1.082659602165222168e+00,1.082599401473999023e+00,1.082539081573486328e+00,1.082478880882263184e+00,1.082418680191040039e+00,1.082358479499816895e+00
1.021032214164733887e+00,1.020978569984436035e+00,1.020925045013427734e+00,1.020871520042419434e+00,1.020817995071411133e+00,1.020764470100402832e+00,1.020710945129394531e+00,1.020657420158386230e+00,1.020603775978088379e+00,1.020550251007080078e+00,1.020496726036071777e+00,1.020443320274353027e+00,1.020389795303344727e+00,1.020336270332336426e+00,1.020282745361328125e+00,1.020229339599609375e+00,1.020175814628601074e+00,1.020122289657592773e+00,1.020068883895874023e+00,1.020015358924865723e+00,1.019961953163146973e+00,1.019908428192138672e+00,1.019855022430419922e+00,1.019801616668701172e+00,1.019748210906982422e+00,1.019694805145263672e+00,1.019641280174255371e+00,1.019587874412536621e+00,1.019534468650817871e+00,1.019481062889099121e+00,1.019427657127380371e+00,1.019374251365661621e+00,1.019320845603942871e+00,1.019267439842224121e+00,1.019214153289794922e+00,1.019160747528076172e+00,1.019107341766357422e+00,1.019053936004638672e+00,1.019000649452209473e+00,1.018947243690490723e+00,1.018893957138061523e+00,1.018840551376342773e+00,1.018787264823913574e+00,1.018733978271484375e+00,1.018680572509765625e+00,1.018627285957336426e+00,1.018573880195617676e+00,1.018520593643188477e+00,1.018467307090759277e+00,1.018414020538330078e+00,1.018360733985900879e+00,1.018307447433471680e+00,1.018254160881042480e+00,1.018200874328613281e+00,1.018147706985473633e+00,1.018094301223754883e+00,1.018041133880615234e+00,1.017987847328186035e+00,1.017934560775756836e+00,1.017881393432617188e+00,1.017828106880187988e+00,1.017774939537048340e+00,1.017721652984619141e+00,1.017668485641479492e+00,1.017615199089050293e+00,1.017562031745910645e+00,1.017508864402770996e+00,1.017455577850341797e+00,1.017402410507202148e+00,1.017349243164062500e+00,1.017296075820922852e+00,1.017242908477783203e+00,1.017189741134643555e+00,1.017136573791503906e+00,1.017083406448364258e+00,1.017030239105224609e+00,1.016977071762084961e+00,1.016923904418945312e+00,1.016870856285095215e+00,1.016817688941955566e+00
9.625073075294494629e-01,9.624596834182739258e-01,9.624121189117431641e-01,9.623644948005676270e-01,9.623169302940368652e-01,9.622693657875061035e-01,9.622218012809753418e-01,9.621741771697998047e-01,9.621266126632690430e-01,9.620791077613830566e-01,9.620315432548522949e-01,9.619838595390319824e-01,9.619363546371459961e-01,9.618887901306152344e-01,9.618412256240844727e-01,9.617937207221984863e-01,9.617462158203125000e-01,9.616987109184265137e-01,9.616511464118957520e-01,9.616036415100097656e-01,9.615561366081237793e-01,9.615086317062377930e-01,9.614611268043518066e-01,9.614136815071105957e-01,9.613661766052246094e-01,9.613186717033386230e-01,9.612712264060974121e-01,9.612237215042114258e-01,9.611762762069702148e-01,9.611287713050842285e-01,9.610812067985534668e-01,9.610337615013122559e-01,9.609863162040710449e-01,9.609388709068298340e-01,9.608914256095886230e-01,9.608439803123474121e-01,9.607965946197509766e-01,9.607491493225097656e-01,9.607017040252685547e-01,9.606543183326721191e-01,9.606068730354309082e-01,9.605594873428344727e-01,9.605121016502380371e-01,9.604646563529968262e-01,9.604172706604003906e-01,9.603698849678039551e-01,9.603224992752075195e-01,9.602751135826110840e-01,9.602277278900146484e-01,9.601802825927734375e-01,9.601328969001770020e-01,9.600855112075805664e-01,9.600381851196289062e-01,9.599907994270324707e-01,9.599434733390808105e-01,9.598961472511291504e-01,9.598488211631774902e-01,9.598014950752258301e-01,9.597541093826293945e-01,9.597067832946777344e-01,9.596595168113708496e-01,9.596121907234191895e-01,9.595648646354675293e-01,9.595175385475158691e-01,9.594702720642089844e-01,9.594229459762573242e-01,9.593756794929504395e-01,9.593283534049987793e-01,9.592809677124023438e-01,9.592337012290954590e-01,9.591864347457885742e-01,9.591391682624816895e-01,9.590919017791748047e-01,9.590446352958679199e-01,9.589973688125610352e-01,9.589501619338989258e-01,9.589028954505920410e-01,9.588556289672851562e-01,9.588084220886230469e-01,9.587611556053161621e-01
9.103277921676635742e-01,9.102852344512939453e-01,9.102426767349243164e-01,9.102001190185546875e-01,9.101575613021850586e-01,9.101150035858154297e-01,9.100724458694458008e-01,9.100298881530761719e-01,9.099873304367065430e-01,9.099447727203369141e-01,9.099022150039672852e-01,9.098597168922424316e-01,9.098171591758728027e-01,9.097746610641479492e-01,9.097321033477783203e-01,9.096894860267639160e-01,9.096469879150390625e-01,9.096044898033142090e-01,9.095619320869445801e-01,9.095194339752197266e-01,9.094769358634948730e-01,9.094344377517700195e-01,9.093919396400451660e-01,9.093495011329650879e-01,9.093070030212402344e-01,9.092645049095153809e-01,9.092220067977905273e-01,9.091795682907104492e-01,9.091370701789855957e-01,9.090946316719055176e-01,9.090521931648254395e-01,9.090096950531005859e-01,9.089672565460205078e-01,9.089248180389404297e-01,9.088822603225708008e-01,9.088398218154907227e-01,9.087973833084106445e-01,9.087549448013305664e-01,9.087125062942504883e-01,9.086701273918151855e-01,9.086276888847351074e-01,9.085852503776550293e-01,9.085428714752197266e-01,9.085004329681396484e-01,9.084580540657043457e-01,9.084156751632690430e-01,9.083732366561889648e-01,9.083308577537536621e-01,9.082884788513183594e-01,9.082460999488830566e-01,9.082037210464477539e-01,9.081613421440124512e-01,9.081188440322875977e-01,9.080764651298522949e-01,9.080341458320617676e-01,9.079917669296264648e-01,9.079493880271911621e-01,9.079070687294006348e-01,9.078646898269653320e-01,9.078223705291748047e-01,9.077799916267395020e-01,9.077376723289489746e-01,9.076953530311584473e-01,9.076530337333679199e-01,9.076106548309326172e-01,9.075683355331420898e-01,9.075260162353515625e-01,9.074837565422058105e-01,9.074414372444152832e-01,9.073991179466247559e-01,9.073567986488342285e-01,9.073144197463989258e-01,9.072721004486083984e-01,9.072298407554626465e-01,9.071875214576721191e-01,9.071452617645263672e-01,9.071030020713806152e-01,9.070606827735900879e-01,9.070184230804443359e-01,9.069761633872985840e-01
8.635149002075195312e-01,8.634766340255737305e-01,8.634383082389831543e-01,8.633999824523925781e-01,8.633617162704467773e-01,8.633233904838562012e-01,8.632851243019104004e-01,8.632468581199645996e-01,8.632085323333740234e-01,8.631702661514282227e-01,8.631319999694824219e-01,8.630937337875366211e-01,8.630554080009460449e-01,8.630171418190002441e-01,8.629788756370544434e-01,8.629406690597534180e-01,8.629024028778076172e-01,8.628641366958618164e-01,8.628258109092712402e-01,8.627875447273254395e-01,8.627492785453796387e-01,8.627110719680786133e-01,8.626728057861328125e-01,8.626345992088317871e-01,8.625963330268859863e-01,8.625581264495849609e-01,8.625199198722839355e-01,8.624816536903381348e-01,8.624434471130371094e-01,8.624052405357360840e-01,8.623670339584350586e-01,8.623288273811340332e-01,8.622906208038330078e-01,8.622524142265319824e-01,8.622142076492309570e-01,8.621760010719299316e-01,8.621378540992736816e-01,8.620995283126831055e-01,8.620613813400268555e-01,8.620231747627258301e-01,8.619850277900695801e-01,8.619468212127685547e-01,8.619086742401123047e-01,8.618704676628112793e-01,8.618323206901550293e-01,8.617941737174987793e-01,8.617560267448425293e-01,8.617178797721862793e-01,8.616797327995300293e-01,8.616415858268737793e-01,8.616034388542175293e-01,8.615652918815612793e-01,8.615271449089050293e-01,8.614889979362487793e-01,8.614508509635925293e-01,8.614127635955810547e-01,8.613745570182800293e-01,8.613364100456237793e-01,8.612983226776123047e-01,8.612601757049560547e-01,8.612220883369445801e-01,8.611840009689331055e-01,8.611458539962768555e-01,8.611077666282653809e-01,8.610696792602539062e-01,8.610315918922424316e-01,8.609935045242309570e-01,8.609554171562194824e-01,8.609173297882080078e-01,8.608792424201965332e-01,8.608411550521850586e-01,8.608030676841735840e-01,8.607650399208068848e-01,8.607269525527954102e-01,8.606889247894287109e-01,8.606507778167724609e-01,8.606126904487609863e-01,8.605746626853942871e-01,8.605365753173828125e-01,8.604985475540161133e-01
8.212812542915344238e-01,8.212466239929199219e-01,8.212119936943054199e-01,8.211772441864013672e-01,8.211426138877868652e-01,8.211079239845275879e-01,8.210732936859130859e-01,8.210386633872985840e-01,8.210040330886840820e-01,8.209694027900695801e-01,8.209347724914550781e-01,8.209001421928405762e-01,8.208655118942260742e-01,8.208309412002563477e-01,8.207963109016418457e-01,8.207616806030273438e-01,8.207271099090576172e-01,8.206924796104431152e-01,8.206578493118286133e-01,8.206232786178588867e-01,8.205886483192443848e-01,8.205540776252746582e-01,8.205193877220153809e-01,8.204848170280456543e-01,8.204502463340759277e-01,8.204156756401062012e-01,8.203810453414916992e-01,8.203464746475219727e-01,8.203119039535522461e-01,8.202773332595825195e-01,8.202427625656127930e-01,8.202081918716430664e-01,8.201736807823181152e-01,8.201391100883483887e-01,8.201045393943786621e-01,8.200699687004089355e-01,8.200354576110839844e-01,8.200008869171142578e-01,8.199663162231445312e-01,8.199318051338195801e-01,8.198971748352050781e-01,8.198626041412353516e-01,8.198280930519104004e-01,8.197935819625854492e-01,8.197590112686157227e-01,8.197245001792907715e-01,8.196899890899658203e-01,8.196554780006408691e-01,8.196209669113159180e-01,8.195864558219909668e-01,8.195519447326660156e-01,8.195174336433410645e-01,8.194829225540161133e-01,8.194484114646911621e-01,8.194139003753662109e-01,8.193793892860412598e-01,8.193449378013610840e-01,8.193104267120361328e-01,8.192759156227111816e-01,8.192413449287414551e-01,8.192068934440612793e-01,8.191724419593811035e-01,8.191379308700561523e-01,8.191034793853759766e-01,8.190689682960510254e-01,8.190345168113708496e-01,8.190000653266906738e-01,8.189656138420104980e-01,8.189311623573303223e-01,8.188967108726501465e-01,8.188622593879699707e-01,8.188278079032897949e-01,8.187933564186096191e-01,8.187589049339294434e-01,8.187244534492492676e-01,8.186900019645690918e-01,8.186555504798889160e-01,8.186211585998535156e-01,8.185866475105285645e-01,8.185521960258483887e-01
7.829861640930175781e-01,7.829546332359313965e-01,7.829231619834899902e-01,7.828916311264038086e-01,7.828601598739624023e-01,7.828286886215209961e-01,7.827970981597900391e-01,7.827656269073486328e-01,7.827341556549072266e-01,7.827026844024658203e-01,7.826712131500244141e-01,7.826397418975830078e-01,7.826082706451416016e-01,7.825767993927001953e-01,7.825453281402587891e-01,7.825138568878173828e-01,7.824823856353759766e-01,7.824509739875793457e-01,7.824195027351379395e-01,7.823880314826965332e-01,7.823565602302551270e-01,7.823251485824584961e-01,7.822936773300170898e-01,7.822622656822204590e-01,7.822307944297790527e-01,7.821993231773376465e-01,7.821678519248962402e-01,7.821364402770996094e-01,7.821050286293029785e-01,7.820735573768615723e-01,7.820421457290649414e-01,7.820107340812683105e-01,7.819793224334716797e-01,7.819479107856750488e-01,7.819164991378784180e-01,7.818850874900817871e-01,7.818536758422851562e-01,7.818222641944885254e-01,7.817908525466918945e-01,7.817594408988952637e-01,7.817280292510986328e-01,7.816966772079467773e-01,7.816652655601501465e-01,7.816338539123535156e-01,7.816023826599121094e-01,7.815710306167602539e-01,7.815396189689636230e-01,7.815082669258117676e-01,7.814768552780151367e-01,7.814455032348632812e-01,7.814140915870666504e-01,7.813827395439147949e-01,7.813513875007629395e-01,7.813200354576110840e-01,7.812886238098144531e-01,7.812572717666625977e-01,7.812259197235107422e-01,7.811945676803588867e-01,7.811632156372070312e-01,7.811318635940551758e-01,7.811005115509033203e-01,7.810691595077514648e-01,7.810378074645996094e-01,7.810063958168029785e-01,7.809750437736511230e-01,7.809437513351440430e-01,7.809123992919921875e-01,7.808810472488403320e-01,7.808497548103332520e-01,7.808184027671813965e-01,7.807871103286743164e-01,7.807557582855224609e-01,7.807244658470153809e-01,7.806931138038635254e-01,7.806618213653564453e-01,7.806305289268493652e-01,7.805991768836975098e-01,7.805678844451904297e-01,7.805365920066833496e-01,7.805052995681762695e-01
7.481032013893127441e-01,7.480744123458862305e-01,7.480456829071044922e-01,7.480168938636779785e-01,7.479881644248962402e-01,7.479594349861145020e-01,7.479307055473327637e-01,7.479019761085510254e-01,7.478731870651245117e-01,7.478444576263427734e-01,7.478156685829162598e-01,7.477869391441345215e-01,7.477582097053527832e-01,7.477294802665710449e-01,7.477007508277893066e-01,7.476720213890075684e-01,7.476432919502258301e-01,7.476146221160888672e-01,7.475858926773071289e-01,7.475571632385253906e-01,7.475284337997436523e-01,7.474997639656066895e-01,7.474710345268249512e-01,7.474423646926879883e-01,7.474136352539062500e-01,7.473849058151245117e-01,7.473562359809875488e-01,7.473275065422058105e-01,7.472988367080688477e-01,7.472701072692871094e-01,7.472413778305053711e-01,7.472127079963684082e-01,7.471840381622314453e-01,7.471553087234497070e-01,7.471266388893127441e-01,7.470979690551757812e-01,7.470692992210388184e-01,7.470406293869018555e-01,7.470119595527648926e-01,7.469832897186279297e-01,7.469546198844909668e-01,7.469259500503540039e-01,7.468972802162170410e-01,7.468686103820800781e-01,7.468399405479431152e-01,7.468113303184509277e-01,7.467826604843139648e-01,7.467539906501770020e-01,7.467252612113952637e-01,7.466966509819030762e-01,7.466679811477661133e-01,7.466393709182739258e-01,7.466107010841369629e-01,7.465820908546447754e-01,7.465534210205078125e-01,7.465248107910156250e-01,7.464961409568786621e-01,7.464675307273864746e-01,7.464389204978942871e-01,7.464102506637573242e-01,7.463816404342651367e-01,7.463530302047729492e-01,7.463244199752807617e-01,7.462958097457885742e-01,7.462671995162963867e-01,7.462385892868041992e-01,7.462098598480224609e-01,7.461812496185302734e-01,7.461526989936828613e-01,7.461240887641906738e-01,7.460954785346984863e-01,7.460668683052062988e-01,7.460382580757141113e-01,7.460096478462219238e-01,7.459810972213745117e-01,7.459524869918823242e-01,7.459238767623901367e-01,7.458953261375427246e-01,7.458667159080505371e-01,7.458381652832031250e-01
7.161958217620849609e-01,7.161694765090942383e-01,7.161430716514587402e-01,7.161167263984680176e-01,7.160903811454772949e-01,7.160640358924865723e-01,7.160376906394958496e-01,7.160113453865051270e-01,7.159850001335144043e-01,7.159587144851684570e-01,7.159323692321777344e-01,7.159060239791870117e-01,7.158796787261962891e-01,7.158533334732055664e-01,7.158269882202148438e-01,7.158006429672241211e-01,7.157742977142333984e-01,7.157480120658874512e-01,7.157216668128967285e-01,7.156953811645507812e-01,7.156690359115600586e-01,7.156427502632141113e-01,7.156164050102233887e-01,7.155901193618774414e-01,7.155637741088867188e-01,7.155374884605407715e-01,7.155112028121948242e-01,7.154848575592041016e-01,7.154585719108581543e-01,7.154322862625122070e-01,7.154060006141662598e-01,7.153797149658203125e-01,7.153533101081848145e-01,7.153270244598388672e-01,7.153007388114929199e-01,7.152744531631469727e-01,7.152481675148010254e-01,7.152218818664550781e-01,7.151955962181091309e-01,7.151693701744079590e-01,7.151430845260620117e-01,7.151167988777160645e-01,7.150905132293701172e-01,7.150642275810241699e-01,7.150380015373229980e-01,7.150117158889770508e-01,7.149854302406311035e-01,7.149592041969299316e-01,7.149329185485839844e-01,7.149066329002380371e-01,7.148804068565368652e-01,7.148540616035461426e-01,7.148278355598449707e-01,7.148015499114990234e-01,7.147753238677978516e-01,7.147490978240966797e-01,7.147228121757507324e-01,7.146965861320495605e-01,7.146703600883483887e-01,7.146440744400024414e-01,7.146178483963012695e-01,7.145916223526000977e-01,7.145653963088989258e-01,7.145391702651977539e-01,7.145129442214965820e-01,7.144867181777954102e-01,7.144604325294494629e-01,7.144342660903930664e-01,7.144080400466918945e-01,7.143818140029907227e-01,7.143555283546447754e-01,7.143293023109436035e-01,7.143030762672424316e-01,7.142768502235412598e-01,7.142506241798400879e-01,7.142244577407836914e-01,7.141982316970825195e-01,7.141720056533813477e-01,7.141458392143249512e-01,7.141196131706237793e-01
6.868988871574401855e-01,6.868746280670166016e-01,6.868503689765930176e-01,6.868261694908142090e-01,6.868019104003906250e-01,6.867776513099670410e-01,6.867534518241882324e-01,6.867291927337646484e-01,6.867049932479858398e-01,6.866807341575622559e-01,6.866565346717834473e-01,6.866322755813598633e-01,6.866080760955810547e-01,6.865838766098022461e-01,6.865596175193786621e-01,6.865354180335998535e-01,6.865112185478210449e-01,6.864869594573974609e-01,6.864627003669738770e-01,6.864385008811950684e-01,6.864143013954162598e-01,6.863901019096374512e-01,6.863659024238586426e-01,6.863417029380798340e-01,6.863175034523010254e-01,6.862933039665222168e-01,6.862691044807434082e-01,6.862449049949645996e-01,6.862207055091857910e-01,6.861965060234069824e-01,6.861723065376281738e-01,6.861481070518493652e-01,6.861239075660705566e-01,6.860997676849365234e-01,6.860755681991577148e-01,6.860513687133789062e-01,6.860271096229553223e-01,6.860029697418212891e-01,6.859787702560424805e-01,6.859545707702636719e-01,6.859304308891296387e-01,6.859062314033508301e-01,6.858820915222167969e-01,6.858578920364379883e-01,6.858337521553039551e-01,6.858095526695251465e-01,6.857854127883911133e-01,6.857612729072570801e-01,6.857370734214782715e-01,6.857129335403442383e-01,6.856887936592102051e-01,6.856645941734313965e-01,6.856404542922973633e-01,6.856163144111633301e-01,6.855921745300292969e-01,6.855679750442504883e-01,6.855437755584716797e-01,6.855196356773376465e-01,6.854954957962036133e-01,6.854713559150695801e-01,6.854472160339355469e-01,6.854230761528015137e-01,6.853989362716674805e-01,6.853747963905334473e-01,6.853507161140441895e-01,6.853265762329101562e-01,6.853024363517761230e-01,6.852782964706420898e-01,6.852541565895080566e-01,6.852300167083740234e-01,6.852059364318847656e-01,6.851817965507507324e-01,6.851576566696166992e-01,6.851335167884826660e-01,6.851093769073486328e-01,6.850852966308593750e-01,6.850611567497253418e-01,6.850370168685913086e-01,6.850129365921020508e-01,6.849887967109680176e-01
6.599046587944030762e-01,6.598822474479675293e-01,6.598598361015319824e-01,6.598374843597412109e-01,6.598151326179504395e-01,6.597927212715148926e-01,6.597703695297241211e-01,6.597480177879333496e-01,6.597256660461425781e-01,6.597032546997070312e-01,6.596809029579162598e-01,6.596585512161254883e-01,6.596361994743347168e-01,6.596138477325439453e-01,6.595914959907531738e-01,6.595691442489624023e-01,6.595467925071716309e-01,6.595244407653808594e-01,6.595020890235900879e-01,6.594797372817993164e-01,6.594573855400085449e-01,6.594350337982177734e-01,6.594126820564270020e-01,6.593903303146362305e-01,6.593679785728454590e-01,6.593456864356994629e-01,6.593233346939086914e-01,6.593009829521179199e-01,6.592786312103271484e-01,6.592563390731811523e-01,6.592339873313903809e-01,6.592116951942443848e-01,6.591893434524536133e-01,6.591669917106628418e-01,6.591446995735168457e-01,6.591223478317260742e-01,6.591000556945800781e-01,6.590777039527893066e-01,6.590554118156433105e-01,6.590330600738525391e-01,6.590107083320617676e-01,6.589884161949157715e-01,6.589661240577697754e-01,6.589437723159790039e-01,6.589214801788330078e-01,6.588991880416870117e-01,6.588768959045410156e-01,6.588546037673950195e-01,6.588322520256042480e-01,6.588099598884582520e-01,6.587876677513122559e-01,6.587653756141662598e-01,6.587430834770202637e-01,6.587207913398742676e-01,6.586984992027282715e-01,6.586762070655822754e-01,6.586539149284362793e-01,6.586316227912902832e-01,6.586092710494995117e-01,6.585869789123535156e-01,6.585646867752075195e-01,6.585424542427062988e-01,6.585201621055603027e-01,6.584978699684143066e-01,6.584755778312683105e-01,6.584532856941223145e-01,6.584310531616210938e-01,6.584087610244750977e-01,6.583864688873291016e-01,6.583642363548278809e-01,6.583419442176818848e-01,6.583196520805358887e-01,6.582974195480346680e-01,6.582751274108886719e-01,6.582528948783874512e-01,6.582306027412414551e-01,6.582083702087402344e-01,6.581860780715942383e-01,6.581637859344482422e-01,6.581415534019470215e-01
6.349518299102783203e-01,6.349310874938964844e-01,6.349104046821594238e-01,6.348896622657775879e-01,6.348689794540405273e-01,6.348481774330139160e-01,6.348274946212768555e-01,6.348068118095397949e-01,6.347860693931579590e-01,6.347653865814208984e-01,6.347447037696838379e-01,6.347239613533020020e-01,6.347032785415649414e-01,6.346825957298278809e-01,6.346619129180908203e-01,6.346411705017089844e-01,6.346204876899719238e-01,6.345998048782348633e-01,6.345791220664978027e-01,6.345584392547607422e-01,6.345377564430236816e-01,6.345170736312866211e-01,6.344963908195495605e-01,6.344757080078125000e-01,6.344549655914306641e-01,6.344342827796936035e-01,6.344135999679565430e-01,6.343929171562194824e-01,6.343722343444824219e-01,6.343515515327453613e-01,6.343308687210083008e-01,6.343101859092712402e-01,6.342895627021789551e-01,6.342688798904418945e-01,6.342481970787048340e-01,6.342275142669677734e-01,6.342068910598754883e-01,6.341862082481384277e-01,6.341655254364013672e-01,6.341449022293090820e-01,6.341242194175720215e-01,6.341035366058349609e-01,6.340829133987426758e-01,6.340621709823608398e-01,6.340415477752685547e-01,6.340208649635314941e-01,6.340002417564392090e-01,6.339795589447021484e-01,6.339589357376098633e-01,6.339383125305175781e-01,6.339176297187805176e-01,6.338970065116882324e-01,6.338763236999511719e-01,6.338557004928588867e-01,6.338350772857666016e-01,6.338143944740295410e-01,6.337937712669372559e-01,6.337731480598449707e-01,6.337525248527526855e-01,6.337319016456604004e-01,6.337112188339233398e-01,6.336905956268310547e-01,6.336699128150939941e-01,6.336492896080017090e-01,6.336286664009094238e-01,6.336080431938171387e-01,6.335874199867248535e-01,6.335667967796325684e-01,6.335461735725402832e-01,6.335255503654479980e-01,6.335049271583557129e-01,6.334843039512634277e-01,6.334636807441711426e-01,6.334430575370788574e-01,6.334224343299865723e-01,6.334018111228942871e-01,6.333812475204467773e-01,6.333606243133544922e-01,6.333400011062622070e-01,6.333193778991699219e-01
6.118173003196716309e-01,6.117981076240539551e-01,6.117788553237915039e-01,6.117596030235290527e-01,6.117404103279113770e-01,6.117211580276489258e-01,6.117019653320312500e-01,6.116827130317687988e-01,6.116635203361511230e-01,6.116442084312438965e-01,6.116250157356262207e-01,6.116057634353637695e-01,6.115865707397460938e-01,6.115673780441284180e-01,6.115481257438659668e-01,6.115289330482482910e-01,6.115096807479858398e-01,6.114904880523681641e-01,6.114712953567504883e-01,6.114520430564880371e-01,6.114328503608703613e-01,6.114136576652526855e-01,6.113944649696350098e-01,6.113752722740173340e-01,6.113560199737548828e-01,6.113368272781372070e-01,6.113176345825195312e-01,6.112984418869018555e-01,6.112791895866394043e-01,6.112599968910217285e-01,6.112408041954040527e-01,6.112216114997863770e-01,6.112024188041687012e-01,6.111832261085510254e-01,6.111640334129333496e-01,6.111448407173156738e-01,6.111256480216979980e-01,6.111064553260803223e-01,6.110872626304626465e-01,6.110680699348449707e-01,6.110488772392272949e-01,6.110296845436096191e-01,6.110105514526367188e-01,6.109913587570190430e-01,6.109721660614013672e-01,6.109529733657836914e-01,6.109337806701660156e-01,6.109145879745483398e-01,6.108953952789306641e-01,6.108762621879577637e-01,6.108570694923400879e-01,6.108378767967224121e-01,6.108187437057495117e-01,6.107995510101318359e-01,6.107804179191589355e-01,6.107612252235412598e-01,6.107420325279235840e-01,6.107228994369506836e-01,6.107037067413330078e-01,6.106845736503601074e-01,6.106653809547424316e-01,6.106462478637695312e-01,6.106271147727966309e-01,6.106079220771789551e-01,6.105887889862060547e-01,6.105695962905883789e-01,6.105504035949707031e-01,6.105312705039978027e-01,6.105121374130249023e-01,6.104929447174072266e-01,6.104738116264343262e-01,6.104546785354614258e-01,6.104355454444885254e-01,6.104163527488708496e-01,6.103972196578979492e-01,6.103780865669250488e-01,6.103589534759521484e-01,6.103398203849792480e-01,6.103206872940063477e-01,6.103015542030334473e-01
5.903093218803405762e-01,5.902914404869079590e-01,5.902735590934753418e-01,5.902556180953979492e-01,5.902377367019653320e-01,5.902198553085327148e-01,5.902019143104553223e-01,5.901840329170227051e-01,5.901661515235900879e-01,5.901482701301574707e-01,5.901303291320800781e-01,5.901124477386474609e-01,5.900945067405700684e-01,5.900766253471374512e-01,5.900587439537048340e-01,5.900408625602722168e-01,5.900229811668395996e-01,5.900050997734069824e-01,5.899872183799743652e-01,5.899693369865417480e-01,5.899514555931091309e-01,5.899335741996765137e-01,5.899156928062438965e-01,5.898978114128112793e-01,5.898799300193786621e-01,5.898620486259460449e-01,5.898441672325134277e-01,5.898262858390808105e-01,5.898084640502929688e-01,5.897905826568603516e-01,5.897727012634277344e-01,5.897547602653503418e-01,5.897368788719177246e-01,5.897190570831298828e-01,5.897011756896972656e-01,5.896832942962646484e-01,5.896654129028320312e-01,5.896475911140441895e-01,5.896297097206115723e-01,5.896118283271789551e-01,5.895940065383911133e-01,5.895761251449584961e-01,5.895582437515258789e-01,5.895404219627380371e-01,5.895225405693054199e-01,5.895047187805175781e-01,5.894868373870849609e-01,5.894690155982971191e-01,5.894511342048645020e-01,5.894333124160766602e-01,5.894153714179992676e-01,5.893975496292114258e-01,5.893797278404235840e-01,5.893618464469909668e-01,5.893440246582031250e-01,5.893261432647705078e-01,5.893083214759826660e-01,5.892904996871948242e-01,5.892726182937622070e-01,5.892547965049743652e-01,5.892369747161865234e-01,5.892190933227539062e-01,5.892012715339660645e-01,5.891834497451782227e-01,5.891656279563903809e-01,5.891478061676025391e-01,5.891299247741699219e-01,5.891121029853820801e-01,5.890942811965942383e-01,5.890763998031616211e-01,5.890585780143737793e-01,5.890407562255859375e-01,5.890229344367980957e-01,5.890051126480102539e-01,5.889872908592224121e-01,5.889694690704345703e-01,5.889516472816467285e-01,5.889338254928588867e-01,5.889160037040710449e-01,5.888981819152832031e-01
