4.884125232696533203e+00,5.000000000000000000e+00,5.000000000000000000e+00,5.000000000000000000e+00,5.000000000000000000e+00,5.000000000000000000e+00,5.000000000000000000e+00,5.000000000000000000e+00,5.000000000000000000e+00,5.000000000000000000e+00,5.000000000000000000e+00,5.000000000000000000e+00,5.000000000000000000e+00,5.000000000000000000e+00,5.000000000000000000e+00,5.000000000000000000e+00,5.000000000000000000e+00,5.000000000000000000e+00,5.000000000000000000e+00,5.000000000000000000e+00,5.000000000000000000e+00,5.000000000000000000e+00,5.000000000000000000e+00,5.000000000000000000e+00,5.000000000000000000e+00,5.000000000000000000e+00,5.000000000000000000e+00,5.000000000000000000e+00,5.000000000000000000e+00,5.000000000000000000e+00,5.000000000000000000e+00,5.000000000000000000e+00,5.000000000000000000e+00,5.000000000000000000e+00,5.000000000000000000e+00,5.000000000000000000e+00,5.000000000000000000e+00,5.000000000000000000e+00,5.000000000000000000e+00,5.000000000000000000e+00,5.000000000000000000e+00,5.000000000000000000e+00,5.000000000000000000e+00,5.000000000000000000e+00,5.000000000000000000e+00,5.000000000000000000e+00,5.000000000000000000e+00,5.000000000000000000e+00,5.000000000000000000e+00,5.000000000000000000e+00,5.000000000000000000e+00,5.000000000000000000e+00,5.000000000000000000e+00,5.000000000000000000e+00,5.000000000000000000e+00,5.000000000000000000e+00,4.795787811279296875e+00,4.610194683074951172e+00,4.438431262969970703e+00,4.279006958007812500e+00,4.130638599395751953e+00,3.992214202880859375e+00,3.862766265869140625e+00,3.741449594497680664e+00,3.627521038055419922e+00,3.520326137542724609e+00,3.419284582138061523e+00,3.323907613754272461e+00,3.233724355697631836e+00,3.148304939270019531e+00,3.067282199859619141e+00,2.990320444107055664e+00,2.917096614837646484e+00,2.847373485565185547e+00,2.780905723571777344e+00,2.717470169067382812e+00,2.656864166259765625e+00,2.598902225494384766e+00,2.543415546417236328e+00,2.490248680114746094e+00
4.884000301361083984e+00,5.000000000000000000e+00,5.000000000000000000e+00,5.000000000000000000e+00,5.000000000000000000e+00,5.000000000000000000e+00,5.000000000000000000e+00,5.000000000000000000e+00,5.000000000000000000e+00,5.000000000000000000e+00,5.000000000000000000e+00,5.000000000000000000e+00,5.000000000000000000e+00,5.000000000000000000e+00,5.000000000000000000e+00,5.000000000000000000e+00,5.000000000000000000e+00,5.000000000000000000e+00,5.000000000000000000e+00,5.000000000000000000e+00,5.000000000000000000e+00,5.000000000000000000e+00,5.000000000000000000e+00,5.000000000000000000e+00,5.000000000000000000e+00,5.000000000000000000e+00,5.000000000000000000e+00,5.000000000000000000e+00,5.000000000000000000e+00,5.000000000000000000e+00,5.000000000000000000e+00,5.000000000000000000e+00,5.000000000000000000e+00,5.000000000000000000e+00,5.000000000000000000e+00,5.000000000000000000e+00,5.000000000000000000e+00,5.000000000000000000e+00,5.000000000000000000e+00,5.000000000000000000e+00,5.000000000000000000e+00,5.000000000000000000e+00,5.000000000000000000e+00,5.000000000000000000e+00,5.000000000000000000e+00,5.000000000000000000e+00,5.000000000000000000e+00,5.000000000000000000e+00,5.000000000000000000e+00,5.000000000000000000e+00,5.000000000000000000e+00,5.000000000000000000e+00,5.000000000000000000e+00,5.000000000000000000e+00,5.000000000000000000e+00,4.997117519378662109e+00,4.795941829681396484e+00,4.610337257385253906e+00,4.438563346862792969e+00,4.279129505157470703e+00,4.130752563476562500e+00,3.992320537567138672e+00,3.862866163253784180e+00,3.741543054580688477e+00,3.627609491348266602e+00,3.520442962646484375e+00,3.419441223144531250e+00,3.324073553085327148e+00,3.233880996704101562e+00,3.148444890975952148e+00,3.067377805709838867e+00,2.990380525588989258e+00,2.917154073715209961e+00,2.847428083419799805e+00,2.780957698822021484e+00,2.717519760131835938e+00,2.656911611557006836e+00,2.598947763442993164e+00,2.543459177017211914e+00,2.490290403366088867e+00
4.883875370025634766e+00,5.000000000000000000e+00,5.000000000000000000e+00,5.000000000000000000e+00,5.000000000000000000e+00,5.000000000000000000e+00,5.000000000000000000e+00,5.000000000000000000e+00,5.000000000000000000e+00,5.000000000000000000e+00,5.000000000000000000e+00,5.000000000000000000e+00,5.000000000000000000e+00,5.000000000000000000e+00,5.000000000000000000e+00,5.000000000000000000e+00,5.000000000000000000e+00,5.000000000000000000e+00,5.000000000000000000e+00,5.000000000000000000e+00,5.000000000000000000e+00,5.000000000000000000e+00,5.000000000000000000e+00,5.000000000000000000e+00,5.000000000000000000e+00,5.000000000000000000e+00,5.000000000000000000e+00,5.000000000000000000e+00,5.000000000000000000e+00,5.000000000000000000e+00,5.000000000000000000e+00,5.000000000000000000e+00,5.000000000000000000e+00,5.000000000000000000e+00,5.000000000000000000e+00,5.000000000000000000e+00,5.000000000000000000e+00,5.000000000000000000e+00,5.000000000000000000e+00,5.000000000000000000e+00,5.000000000000000000e+00,5.000000000000000000e+00,5.000000000000000000e+00,5.000000000000000000e+00,5.000000000000000000e+00,3.254929065704345703e+00,3.260330438613891602e+00,5.000000000000000000e+00,5.000000000000000000e+00,5.000000000000000000e+00,5.000000000000000000e+00,5.000000000000000000e+00,5.000000000000000000e+00,5.000000000000000000e+00,5.000000000000000000e+00,4.997284412384033203e+00,4.796095371246337891e+00,4.610479354858398438e+00,4.438694953918457031e+00,4.279252529144287109e+00,4.130867004394531250e+00,3.992427349090576172e+00,3.862965822219848633e+00,3.741679430007934570e+00,3.627790212631225586e+00,3.520628690719604492e+00,3.419616460800170898e+00,3.324226140975952148e+00,3.233983755111694336e+00,3.148511648178100586e+00,3.067441225051879883e+00,2.990440845489501953e+00,2.917211294174194336e+00,2.847482681274414062e+00,2.781009912490844727e+00,2.717569589614868164e+00,2.656959056854248047e+00,2.598993301391601562e+00,2.543502807617187500e+00,2.490332126617431641e+00
4.883750438690185547e+00,5.000000000000000000e+00,5.000000000000000000e+00,5.000000000000000000e+00,5.000000000000000000e+00,5.000000000000000000e+00,5.000000000000000000e+00,5.000000000000000000e+00,5.000000000000000000e+00,5.000000000000000000e+00,5.000000000000000000e+00,5.000000000000000000e+00,5.000000000000000000e+00,5.000000000000000000e+00,5.000000000000000000e+00,5.000000000000000000e+00,5.000000000000000000e+00,5.000000000000000000e+00,5.000000000000000000e+00,5.000000000000000000e+00,5.000000000000000000e+00,5.000000000000000000e+00,5.000000000000000000e+00,5.000000000000000000e+00,5.000000000000000000e+00,5.000000000000000000e+00,5.000000000000000000e+00,5.000000000000000000e+00,5.000000000000000000e+00,5.000000000000000000e+00,5.000000000000000000e+00,5.000000000000000000e+00,5.000000000000000000e+00,5.000000000000000000e+00,5.000000000000000000e+00,5.000000000000000000e+00,5.000000000000000000e+00,5.000000000000000000e+00,5.000000000000000000e+00,5.000000000000000000e+00,5.000000000000000000e+00,5.000000000000000000e+00,5.000000000000000000e+00,5.000000000000000000e+00,5.000000000000000000e+00,3.243071079254150391e+00,3.261908769607543945e+00,5.000000000000000000e+00,5.000000000000000000e+00,5.000000000000000000e+00,5.000000000000000000e+00,5.000000000000000000e+00,5.000000000000000000e+00,5.000000000000000000e+00,5.000000000000000000e+00,4.997451305389404297e+00,4.796249389648437500e+00,4.610621452331542969e+00,4.438827037811279297e+00,4.279375076293945312e+00,4.130980968475341797e+00,3.992588043212890625e+00,3.863175868988037109e+00,3.741889953613281250e+00,3.627987384796142578e+00,3.520796298980712891e+00,3.419728279113769531e+00,3.324300527572631836e+00,3.234054327011108398e+00,3.148578405380249023e+00,3.067504405975341797e+00,2.990500926971435547e+00,2.917268753051757812e+00,2.847537279129028320e+00,2.781061887741088867e+00,2.717619419097900391e+00,2.657006740570068359e+00,2.599038839340209961e+00,2.543546199798583984e+00,2.490373849868774414e+00
4.883625507354736328e+00,5.000000000000000000e+00,5.000000000000000000e+00,5.000000000000000000e+00,5.000000000000000000e+00,5.000000000000000000e+00,5.000000000000000000e+00,5.000000000000000000e+00,5.000000000000000000e+00,5.000000000000000000e+00,5.000000000000000000e+00,5.000000000000000000e+00,5.000000000000000000e+00,5.000000000000000000e+00,5.000000000000000000e+00,5.000000000000000000e+00,5.000000000000000000e+00,5.000000000000000000e+00,5.000000000000000000e+00,5.000000000000000000e+00,5.000000000000000000e+00,5.000000000000000000e+00,5.000000000000000000e+00,5.000000000000000000e+00,5.000000000000000000e+00,5.000000000000000000e+00,5.000000000000000000e+00,5.000000000000000000e+00,5.000000000000000000e+00,5.000000000000000000e+00,5.000000000000000000e+00,5.000000000000000000e+00,5.000000000000000000e+00,5.000000000000000000e+00,5.000000000000000000e+00,5.000000000000000000e+00,5.000000000000000000e+00,5.000000000000000000e+00,5.000000000000000000e+00,5.000000000000000000e+00,5.000000000000000000e+00,5.000000000000000000e+00,5.000000000000000000e+00,5.000000000000000000e+00,3.343144893646240234e+00,3.240730524063110352e+00,3.272430419921875000e+00,5.000000000000000000e+00,5.000000000000000000e+00,5.000000000000000000e+00,5.000000000000000000e+00,5.000000000000000000e+00,5.000000000000000000e+00,5.000000000000000000e+00,5.000000000000000000e+00,4.997618675231933594e+00,4.796403408050537109e+00,4.610763549804687500e+00,4.438958644866943359e+00,4.279565334320068359e+00,4.131226539611816406e+00,3.992826938629150391e+00,3.863399505615234375e+00,3.742074728012084961e+00,3.628108978271484375e+00,3.520879983901977539e+00,3.419806957244873047e+00,3.324374914169311523e+00,3.234124660491943359e+00,3.148645162582397461e+00,3.067567825317382812e+00,2.990561246871948242e+00,2.917325973510742188e+00,2.847591876983642578e+00,2.781114101409912109e+00,2.717669010162353516e+00,2.657054185867309570e+00,2.599084377288818359e+00,2.543589830398559570e+00,2.490415811538696289e+00
4.883501052856445312e+00,5.000000000000000000e+00,5.000000000000000000e+00,5.000000000000000000e+00,5.000000000000000000e+00,5.000000000000000000e+00,5.000000000000000000e+00,5.000000000000000000e+00,5.000000000000000000e+00,5.000000000000000000e+00,5.000000000000000000e+00,5.000000000000000000e+00,5.000000000000000000e+00,5.000000000000000000e+00,5.000000000000000000e+00,5.000000000000000000e+00,5.000000000000000000e+00,5.000000000000000000e+00,5.000000000000000000e+00,5.000000000000000000e+00,5.000000000000000000e+00,5.000000000000000000e+00,5.000000000000000000e+00,5.000000000000000000e+00,5.000000000000000000e+00,5.000000000000000000e+00,5.000000000000000000e+00,5.000000000000000000e+00,5.000000000000000000e+00,5.000000000000000000e+00,5.000000000000000000e+00,5.000000000000000000e+00,5.000000000000000000e+00,5.000000000000000000e+00,5.000000000000000000e+00,5.000000000000000000e+00,5.000000000000000000e+00,5.000000000000000000e+00,5.000000000000000000e+00,5.000000000000000000e+00,5.000000000000000000e+00,5.000000000000000000e+00,5.000000000000000000e+00,5.000000000000000000e+00,3.259285688400268555e+00,3.231856107711791992e+00,3.225420236587524414e+00,5.000000000000000000e+00,5.000000000000000000e+00,5.000000000000000000e+00,5.000000000000000000e+00,5.000000000000000000e+00,5.000000000000000000e+00,5.000000000000000000e+00,5.000000000000000000e+00,4.997785568237304688e+00,4.796558856964111328e+00,4.610991954803466797e+00,4.439249038696289062e+00,4.279839992523193359e+00,4.131482601165771484e+00,3.993033170700073242e+00,3.863533020019531250e+00,3.742168903350830078e+00,3.628197669982910156e+00,3.520963430404663086e+00,3.419885873794555664e+00,3.324449300765991211e+00,3.234195232391357422e+00,3.148711919784545898e+00,3.067631244659423828e+00,2.990621566772460938e+00,2.917383193969726562e+00,2.847646474838256836e+00,2.781166076660156250e+00,2.717718839645385742e+00,2.657101869583129883e+00,2.599129915237426758e+00,2.543633460998535156e+00,2.490457534790039062e+00
4.883375644683837891e+00,5.000000000000000000e+00,5.000000000000000000e+00,5.000000000000000000e+00,5.000000000000000000e+00,5.000000000000000000e+00,5.000000000000000000e+00,5.000000000000000000e+00,5.000000000000000000e+00,5.000000000000000000e+00,5.000000000000000000e+00,5.000000000000000000e+00,5.000000000000000000e+00,5.000000000000000000e+00,5.000000000000000000e+00,5.000000000000000000e+00,5.000000000000000000e+00,5.000000000000000000e+00,5.000000000000000000e+00,5.000000000000000000e+00,5.000000000000000000e+00,5.000000000000000000e+00,5.000000000000000000e+00,5.000000000000000000e+00,5.000000000000000000e+00,5.000000000000000000e+00,5.000000000000000000e+00,5.000000000000000000e+00,5.000000000000000000e+00,5.000000000000000000e+00,5.000000000000000000e+00,5.000000000000000000e+00,5.000000000000000000e+00,5.000000000000000000e+00,5.000000000000000000e+00,5.000000000000000000e+00,5.000000000000000000e+00,5.000000000000000000e+00,5.000000000000000000e+00,5.000000000000000000e+00,5.000000000000000000e+00,5.000000000000000000e+00,3.332129001617431641e+00,3.265532732009887695e+00,3.235442876815795898e+00,3.216674327850341797e+00,3.192120790481567383e+00,3.183459758758544922e+00,3.172288656234741211e+00,3.179199457168579102e+00,5.000000000000000000e+00,5.000000000000000000e+00,5.000000000000000000e+00,5.000000000000000000e+00,5.000000000000000000e+00,4.998062133789062500e+00,4.796904087066650391e+00,4.611310958862304688e+00,4.439544677734375000e+00,4.280071258544921875e+00,4.131629943847656250e+00,3.993140459060668945e+00,3.863633394241333008e+00,3.742263317108154297e+00,3.628286361694335938e+00,3.521046876907348633e+00,3.419964551925659180e+00,3.324523925781250000e+00,3.234265565872192383e+00,3.148778676986694336e+00,3.067694664001464844e+00,2.990681648254394531e+00,2.917440891265869141e+00,2.847701072692871094e+00,2.781218290328979492e+00,2.717768669128417969e+00,2.657149314880371094e+00,2.599175453186035156e+00,2.543677091598510742e+00,2.490499258041381836e+00
4.883262157440185547e+00,5.000000000000000000e+00,5.000000000000000000e+00,5.000000000000000000e+00,5.000000000000000000e+00,5.000000000000000000e+00,5.000000000000000000e+00,5.000000000000000000e+00,5.000000000000000000e+00,5.000000000000000000e+00,5.000000000000000000e+00,5.000000000000000000e+00,5.000000000000000000e+00,5.000000000000000000e+00,5.000000000000000000e+00,5.000000000000000000e+00,5.000000000000000000e+00,5.000000000000000000e+00,5.000000000000000000e+00,5.000000000000000000e+00,5.000000000000000000e+00,5.000000000000000000e+00,5.000000000000000000e+00,5.000000000000000000e+00,5.000000000000000000e+00,5.000000000000000000e+00,5.000000000000000000e+00,5.000000000000000000e+00,5.000000000000000000e+00,5.000000000000000000e+00,5.000000000000000000e+00,5.000000000000000000e+00,5.000000000000000000e+00,5.000000000000000000e+00,5.000000000000000000e+00,5.000000000000000000e+00,5.000000000000000000e+00,5.000000000000000000e+00,5.000000000000000000e+00,5.000000000000000000e+00,5.000000000000000000e+00,3.321391344070434570e+00,3.274175643920898438e+00,3.238672733306884766e+00,3.210643053054809570e+00,3.193360328674316406e+00,3.174714088439941406e+00,3.159582853317260742e+00,3.151790618896484375e+00,3.166412353515625000e+00,5.000000000000000000e+00,5.000000000000000000e+00,5.000000000000000000e+00,5.000000000000000000e+00,5.000000000000000000e+00,4.998436927795410156e+00,4.797248840332031250e+00,4.611572742462158203e+00,4.439709186553955078e+00,4.280194759368896484e+00,4.131744861602783203e+00,3.993247985839843750e+00,3.863734006881713867e+00,3.742357730865478516e+00,3.628375053405761719e+00,3.521130323410034180e+00,3.420043468475341797e+00,3.324598312377929688e+00,3.234336137771606445e+00,3.148845434188842773e+00,3.067758083343505859e+00,2.990741968154907227e+00,2.917498111724853516e+00,2.847755908966064453e+00,2.781270265579223633e+00,2.717818260192871094e+00,2.657196998596191406e+00,2.599220991134643555e+00,2.543720483779907227e+00,2.490540981292724609e+00
4.883150577545166016e+00,5.000000000000000000e+00,5.000000000000000000e+00,5.000000000000000000e+00,5.000000000000000000e+00,5.000000000000000000e+00,5.000000000000000000e+00,5.000000000000000000e+00,5.000000000000000000e+00,5.000000000000000000e+00,5.000000000000000000e+00,5.000000000000000000e+00,5.000000000000000000e+00,5.000000000000000000e+00,5.000000000000000000e+00,5.000000000000000000e+00,5.000000000000000000e+00,5.000000000000000000e+00,5.000000000000000000e+00,5.000000000000000000e+00,5.000000000000000000e+00,5.000000000000000000e+00,5.000000000000000000e+00,5.000000000000000000e+00,5.000000000000000000e+00,5.000000000000000000e+00,5.000000000000000000e+00,5.000000000000000000e+00,5.000000000000000000e+00,5.000000000000000000e+00,5.000000000000000000e+00,5.000000000000000000e+00,5.000000000000000000e+00,5.000000000000000000e+00,5.000000000000000000e+00,5.000000000000000000e+00,5.000000000000000000e+00,5.000000000000000000e+00,5.000000000000000000e+00,5.000000000000000000e+00,5.000000000000000000e+00,3.322160720825195312e+00,3.281883955001831055e+00,3.238631010055541992e+00,3.214576244354248047e+00,3.198326110839843750e+00,3.179663658142089844e+00,3.171107530593872070e+00,3.166686773300170898e+00,3.174051284790039062e+00,5.000000000000000000e+00,5.000000000000000000e+00,5.000000000000000000e+00,5.000000000000000000e+00,5.000000000000000000e+00,4.998737335205078125e+00,4.797433853149414062e+00,4.611716270446777344e+00,4.439841747283935547e+00,4.280318260192871094e+00,4.131859779357910156e+00,3.993355274200439453e+00,3.863834619522094727e+00,3.742451906204223633e+00,3.628463745117187500e+00,3.521214008331298828e+00,3.420122146606445312e+00,3.324672937393188477e+00,3.234406471252441406e+00,3.148912191390991211e+00,3.067821502685546875e+00,2.990802288055419922e+00,2.917555570602416992e+00,2.847810506820678711e+00,2.781322479248046875e+00,2.717868089675903320e+00,2.657244443893432617e+00,2.599266529083251953e+00,2.543764114379882812e+00,2.490582704544067383e+00
4.883038520812988281e+00,5.000000000000000000e+00,5.000000000000000000e+00,5.000000000000000000e+00,5.000000000000000000e+00,5.000000000000000000e+00,5.000000000000000000e+00,5.000000000000000000e+00,5.000000000000000000e+00,5.000000000000000000e+00,5.000000000000000000e+00,5.000000000000000000e+00,5.000000000000000000e+00,5.000000000000000000e+00,5.000000000000000000e+00,5.000000000000000000e+00,5.000000000000000000e+00,5.000000000000000000e+00,5.000000000000000000e+00,5.000000000000000000e+00,5.000000000000000000e+00,5.000000000000000000e+00,5.000000000000000000e+00,5.000000000000000000e+00,5.000000000000000000e+00,5.000000000000000000e+00,5.000000000000000000e+00,5.000000000000000000e+00,5.000000000000000000e+00,5.000000000000000000e+00,5.000000000000000000e+00,5.000000000000000000e+00,5.000000000000000000e+00,5.000000000000000000e+00,5.000000000000000000e+00,5.000000000000000000e+00,5.000000000000000000e+00,5.000000000000000000e+00,5.000000000000000000e+00,5.000000000000000000e+00,5.000000000000000000e+00,3.322255611419677734e+00,3.325401067733764648e+00,3.247243881225585938e+00,3.220116138458251953e+00,3.203078269958496094e+00,3.189001798629760742e+00,3.190390825271606445e+00,3.165434598922729492e+00,3.203038454055786133e+00,5.000000000000000000e+00,5.000000000000000000e+00,5.000000000000000000e+00,5.000000000000000000e+00,5.000000000000000000e+00,4.998905658721923828e+00,4.797589302062988281e+00,4.611859321594238281e+00,4.439974308013916016e+00,4.280441761016845703e+00,4.131975173950195312e+00,3.993462800979614258e+00,3.863935232162475586e+00,3.742546319961547852e+00,3.628552436828613281e+00,3.521297454833984375e+00,3.420200824737548828e+00,3.324747562408447266e+00,3.234477043151855469e+00,3.148979187011718750e+00,3.067884922027587891e+00,2.990862607955932617e+00,2.917612791061401367e+00,2.847865104675292969e+00,2.781374454498291016e+00,2.717917919158935547e+00,2.657292127609252930e+00,2.599311828613281250e+00,2.543807744979858398e+00,2.490624666213989258e+00
4.882926464080810547e+00,5.000000000000000000e+00,5.000000000000000000e+00,5.000000000000000000e+00,5.000000000000000000e+00,5.000000000000000000e+00,5.000000000000000000e+00,5.000000000000000000e+00,5.000000000000000000e+00,5.000000000000000000e+00,5.000000000000000000e+00,5.000000000000000000e+00,5.000000000000000000e+00,5.000000000000000000e+00,5.000000000000000000e+00,5.000000000000000000e+00,5.000000000000000000e+00,5.000000000000000000e+00,5.000000000000000000e+00,5.000000000000000000e+00,5.000000000000000000e+00,5.000000000000000000e+00,5.000000000000000000e+00,5.000000000000000000e+00,5.000000000000000000e+00,5.000000000000000000e+00,5.000000000000000000e+00,5.000000000000000000e+00,5.000000000000000000e+00,5.000000000000000000e+00,5.000000000000000000e+00,5.000000000000000000e+00,5.000000000000000000e+00,5.000000000000000000e+00,5.000000000000000000e+00,5.000000000000000000e+00,5.000000000000000000e+00,5.000000000000000000e+00,5.000000000000000000e+00,5.000000000000000000e+00,5.000000000000000000e+00,3.323600769042968750e+00,3.328889369964599609e+00,3.268261671066284180e+00,3.242682456970214844e+00,3.228394269943237305e+00,3.210243225097656250e+00,3.206659078598022461e+00,3.166885852813720703e+00,5.000000000000000000e+00,5.000000000000000000e+00,5.000000000000000000e+00,5.000000000000000000e+00,5.000000000000000000e+00,5.000000000000000000e+00,4.999073982238769531e+00,4.797744274139404297e+00,4.612002849578857422e+00,4.440107345581054688e+00,4.280564785003662109e+00,4.132090091705322266e+00,3.993570089340209961e+00,3.864036083221435547e+00,3.742640733718872070e+00,3.628641128540039062e+00,3.521380901336669922e+00,3.420279741287231445e+00,3.324821949005126953e+00,3.234547615051269531e+00,3.149045944213867188e+00,3.067948102951049805e+00,2.990922689437866211e+00,2.917670249938964844e+00,2.847919702529907227e+00,2.781426668167114258e+00,2.717967510223388672e+00,2.657339572906494141e+00,2.599357366561889648e+00,2.543851613998413086e+00,2.490666389465332031e+00
4.882815361022949219e+00,5.000000000000000000e+00,5.000000000000000000e+00,5.000000000000000000e+00,5.000000000000000000e+00,5.000000000000000000e+00,5.000000000000000000e+00,5.000000000000000000e+00,5.000000000000000000e+00,5.000000000000000000e+00,5.000000000000000000e+00,5.000000000000000000e+00,5.000000000000000000e+00,5.000000000000000000e+00,5.000000000000000000e+00,5.000000000000000000e+00,5.000000000000000000e+00,5.000000000000000000e+00,5.000000000000000000e+00,5.000000000000000000e+00,5.000000000000000000e+00,5.000000000000000000e+00,5.000000000000000000e+00,5.000000000000000000e+00,5.000000000000000000e+00,5.000000000000000000e+00,5.000000000000000000e+00,5.000000000000000000e+00,5.000000000000000000e+00,5.000000000000000000e+00,5.000000000000000000e+00,5.000000000000000000e+00,5.000000000000000000e+00,5.000000000000000000e+00,5.000000000000000000e+00,5.000000000000000000e+00,5.000000000000000000e+00,5.000000000000000000e+00,5.000000000000000000e+00,5.000000000000000000e+00,5.000000000000000000e+00,3.323752403259277344e+00,3.332044124603271484e+00,3.290590524673461914e+00,3.261299610137939453e+00,3.251518487930297852e+00,3.228515625000000000e+00,3.207861423492431641e+00,3.167011976242065430e+00,5.000000000000000000e+00,5.000000000000000000e+00,5.000000000000000000e+00,5.000000000000000000e+00,5.000000000000000000e+00,5.000000000000000000e+00,4.999242305755615234e+00,4.797899246215820312e+00,4.612146377563476562e+00,4.440239906311035156e+00,4.280688285827636719e+00,4.132205009460449219e+00,3.993677616119384766e+00,3.864136695861816406e+00,3.742734909057617188e+00,3.628729820251464844e+00,3.521464586257934570e+00,3.420358419418334961e+00,3.324896335601806641e+00,3.234617948532104492e+00,3.149112701416015625e+00,3.068011522293090820e+00,2.990983009338378906e+00,2.917727470397949219e+00,2.847974538803100586e+00,2.781478643417358398e+00,2.718017339706420898e+00,2.657387256622314453e+00,2.599402904510498047e+00,2.543895244598388672e+00,2.490708112716674805e+00
4.882703304290771484e+00,5.000000000000000000e+00,5.000000000000000000e+00,5.000000000000000000e+00,5.000000000000000000e+00,5.000000000000000000e+00,5.000000000000000000e+00,5.000000000000000000e+00,5.000000000000000000e+00,5.000000000000000000e+00,5.000000000000000000e+00,5.000000000000000000e+00,5.000000000000000000e+00,5.000000000000000000e+00,5.000000000000000000e+00,5.000000000000000000e+00,5.000000000000000000e+00,5.000000000000000000e+00,5.000000000000000000e+00,5.000000000000000000e+00,5.000000000000000000e+00,5.000000000000000000e+00,5.000000000000000000e+00,5.000000000000000000e+00,5.000000000000000000e+00,5.000000000000000000e+00,5.000000000000000000e+00,5.000000000000000000e+00,5.000000000000000000e+00,5.000000000000000000e+00,5.000000000000000000e+00,5.000000000000000000e+00,5.000000000000000000e+00,5.000000000000000000e+00,5.000000000000000000e+00,5.000000000000000000e+00,5.000000000000000000e+00,5.000000000000000000e+00,5.000000000000000000e+00,5.000000000000000000e+00,5.000000000000000000e+00,3.321805953979492188e+00,3.341146945953369141e+00,3.298129558563232422e+00,3.256628990173339844e+00,3.236463069915771484e+00,3.219483852386474609e+00,3.193718194961547852e+00,3.166779518127441406e+00,5.000000000000000000e+00,5.000000000000000000e+00,5.000000000000000000e+00,5.000000000000000000e+00,5.000000000000000000e+00,5.000000000000000000e+00,4.999410629272460938e+00,4.798054218292236328e+00,4.612289428710937500e+00,4.440372943878173828e+00,4.280811786651611328e+00,4.132319927215576172e+00,3.993784904479980469e+00,3.864237308502197266e+00,3.742829322814941406e+00,3.628818511962890625e+00,3.521548032760620117e+00,3.420437335968017578e+00,3.324970722198486328e+00,3.234688520431518555e+00,3.149179458618164062e+00,3.068074941635131836e+00,2.991043329238891602e+00,2.917784929275512695e+00,2.848029136657714844e+00,2.781530857086181641e+00,2.718067169189453125e+00,2.657434701919555664e+00,2.599448442459106445e+00,2.543938636779785156e+00,2.490749835968017578e+00
4.882591247558593750e+00,5.000000000000000000e+00,5.000000000000000000e+00,5.000000000000000000e+00,5.000000000000000000e+00,5.000000000000000000e+00,5.000000000000000000e+00,5.000000000000000000e+00,5.000000000000000000e+00,5.000000000000000000e+00,5.000000000000000000e+00,5.000000000000000000e+00,5.000000000000000000e+00,5.000000000000000000e+00,5.000000000000000000e+00,5.000000000000000000e+00,5.000000000000000000e+00,5.000000000000000000e+00,5.000000000000000000e+00,5.000000000000000000e+00,5.000000000000000000e+00,5.000000000000000000e+00,5.000000000000000000e+00,5.000000000000000000e+00,5.000000000000000000e+00,5.000000000000000000e+00,5.000000000000000000e+00,5.000000000000000000e+00,5.000000000000000000e+00,5.000000000000000000e+00,5.000000000000000000e+00,5.000000000000000000e+00,5.000000000000000000e+00,5.000000000000000000e+00,5.000000000000000000e+00,5.000000000000000000e+00,5.000000000000000000e+00,5.000000000000000000e+00,5.000000000000000000e+00,5.000000000000000000e+00,5.000000000000000000e+00,3.334897041320800781e+00,3.347348213195800781e+00,3.284524679183959961e+00,3.241132020950317383e+00,3.220366477966308594e+00,3.202872991561889648e+00,3.195882320404052734e+00,3.173935413360595703e+00,5.000000000000000000e+00,5.000000000000000000e+00,5.000000000000000000e+00,5.000000000000000000e+00,5.000000000000000000e+00,5.000000000000000000e+00,4.999578952789306641e+00,4.798209190368652344e+00,4.612432956695556641e+00,4.440505504608154297e+00,4.280935287475585938e+00,4.132435321807861328e+00,3.993892431259155273e+00,3.864337921142578125e+00,3.742923736572265625e+00,3.628907203674316406e+00,3.521631479263305664e+00,3.420516014099121094e+00,3.325045347213745117e+00,3.234759330749511719e+00,3.149246215820312500e+00,3.068138360977172852e+00,2.991103410720825195e+00,2.917842149734497070e+00,2.848083734512329102e+00,2.781582832336425781e+00,2.718116760253906250e+00,2.657482385635375977e+00,2.599493980407714844e+00,2.543982267379760742e+00,2.490791797637939453e+00
4.882479667663574219e+00,5.000000000000000000e+00,5.000000000000000000e+00,5.000000000000000000e+00,5.000000000000000000e+00,5.000000000000000000e+00,5.000000000000000000e+00,5.000000000000000000e+00,5.000000000000000000e+00,5.000000000000000000e+00,5.000000000000000000e+00,5.000000000000000000e+00,5.000000000000000000e+00,5.000000000000000000e+00,5.000000000000000000e+00,5.000000000000000000e+00,5.000000000000000000e+00,5.000000000000000000e+00,5.000000000000000000e+00,5.000000000000000000e+00,5.000000000000000000e+00,5.000000000000000000e+00,5.000000000000000000e+00,5.000000000000000000e+00,5.000000000000000000e+00,5.000000000000000000e+00,5.000000000000000000e+00,5.000000000000000000e+00,5.000000000000000000e+00,5.000000000000000000e+00,5.000000000000000000e+00,5.000000000000000000e+00,5.000000000000000000e+00,5.000000000000000000e+00,5.000000000000000000e+00,5.000000000000000000e+00,5.000000000000000000e+00,5.000000000000000000e+00,5.000000000000000000e+00,5.000000000000000000e+00,5.000000000000000000e+00,3.365829467773437500e+00,3.379693269729614258e+00,3.273599386215209961e+00,3.219649076461791992e+00,3.215476751327514648e+00,3.182432174682617188e+00,3.199134111404418945e+00,3.185753107070922852e+00,5.000000000000000000e+00,5.000000000000000000e+00,5.000000000000000000e+00,5.000000000000000000e+00,5.000000000000000000e+00,5.000000000000000000e+00,4.999739646911621094e+00,4.798358917236328125e+00,4.612572193145751953e+00,4.440636634826660156e+00,4.281058311462402344e+00,4.132550239562988281e+00,3.993999958038330078e+00,3.864438533782958984e+00,3.743018150329589844e+00,3.628995895385742188e+00,3.521715164184570312e+00,3.420594930648803711e+00,3.325119733810424805e+00,3.234829664230346680e+00,3.149312973022460938e+00,3.068201780319213867e+00,2.991163730621337891e+00,2.917899608612060547e+00,2.848138332366943359e+00,2.781635046005249023e+00,2.718166589736938477e+00,2.657529830932617188e+00,2.599539518356323242e+00,2.544025897979736328e+00,2.490833520889282227e+00
4.882368087768554688e+00,5.000000000000000000e+00,5.000000000000000000e+00,5.000000000000000000e+00,5.000000000000000000e+00,5.000000000000000000e+00,5.000000000000000000e+00,5.000000000000000000e+00,5.000000000000000000e+00,5.000000000000000000e+00,5.000000000000000000e+00,5.000000000000000000e+00,5.000000000000000000e+00,5.000000000000000000e+00,5.000000000000000000e+00,5.000000000000000000e+00,5.000000000000000000e+00,5.000000000000000000e+00,5.000000000000000000e+00,5.000000000000000000e+00,5.000000000000000000e+00,5.000000000000000000e+00,5.000000000000000000e+00,5.000000000000000000e+00,5.000000000000000000e+00,5.000000000000000000e+00,5.000000000000000000e+00,5.000000000000000000e+00,5.000000000000000000e+00,5.000000000000000000e+00,5.000000000000000000e+00,5.000000000000000000e+00,5.000000000000000000e+00,5.000000000000000000e+00,5.000000000000000000e+00,5.000000000000000000e+00,5.000000000000000000e+00,5.000000000000000000e+00,5.000000000000000000e+00,5.000000000000000000e+00,5.000000000000000000e+00,3.401201963424682617e+00,3.418606281280517578e+00,3.267393589019775391e+00,3.225713014602661133e+00,3.221875667572021484e+00,3.194382429122924805e+00,3.201511144638061523e+00,3.202198505401611328e+00,5.000000000000000000e+00,5.000000000000000000e+00,5.000000000000000000e+00,5.000000000000000000e+00,5.000000000000000000e+00,5.000000000000000000e+00,4.999896526336669922e+00,4.798503398895263672e+00,4.612706184387207031e+00,4.440760612487792969e+00,4.281173229217529297e+00,4.132658004760742188e+00,3.994101524353027344e+00,3.864534616470336914e+00,3.743109941482543945e+00,3.629082918167114258e+00,3.521797895431518555e+00,3.420673847198486328e+00,3.325194120407104492e+00,3.234900236129760742e+00,3.149379968643188477e+00,3.068265199661254883e+00,2.991224050521850586e+00,2.917956829071044922e+00,2.848193168640136719e+00,2.781687259674072266e+00,2.718216419219970703e+00,2.657577514648437500e+00,2.599585056304931641e+00,2.544069528579711914e+00,2.490875482559204102e+00
4.882256031036376953e+00,5.000000000000000000e+00,5.000000000000000000e+00,5.000000000000000000e+00,5.000000000000000000e+00,5.000000000000000000e+00,5.000000000000000000e+00,5.000000000000000000e+00,5.000000000000000000e+00,5.000000000000000000e+00,5.000000000000000000e+00,5.000000000000000000e+00,5.000000000000000000e+00,5.000000000000000000e+00,5.000000000000000000e+00,5.000000000000000000e+00,5.000000000000000000e+00,5.000000000000000000e+00,5.000000000000000000e+00,5.000000000000000000e+00,5.000000000000000000e+00,5.000000000000000000e+00,5.000000000000000000e+00,5.000000000000000000e+00,5.000000000000000000e+00,5.000000000000000000e+00,5.000000000000000000e+00,5.000000000000000000e+00,5.000000000000000000e+00,5.000000000000000000e+00,5.000000000000000000e+00,5.000000000000000000e+00,5.000000000000000000e+00,5.000000000000000000e+00,5.000000000000000000e+00,5.000000000000000000e+00,5.000000000000000000e+00,5.000000000000000000e+00,5.000000000000000000e+00,5.000000000000000000e+00,5.000000000000000000e+00,3.426954030990600586e+00,5.000000000000000000e+00,3.290806770324707031e+00,3.242615222930908203e+00,3.263808012008666992e+00,3.221871614456176758e+00,3.227022171020507812e+00,3.219320774078369141e+00,3.234992742538452148e+00,5.000000000000000000e+00,5.000000000000000000e+00,5.000000000000000000e+00,5.000000000000000000e+00,5.000000000000000000e+00,5.000000000000000000e+00,4.798647880554199219e+00,4.612839698791503906e+00,4.440884113311767578e+00,4.281288623809814453e+00,4.132765293121337891e+00,3.994201898574829102e+00,3.864628553390502930e+00,3.743197679519653320e+00,3.629165410995483398e+00,3.521875858306884766e+00,3.420747280120849609e+00,3.325264453887939453e+00,3.234967231750488281e+00,3.149444341659545898e+00,3.068327188491821289e+00,2.991283416748046875e+00,2.918014049530029297e+00,2.848247766494750977e+00,2.781739234924316406e+00,2.718266248703002930e+00,2.657624959945678711e+00,2.599630594253540039e+00,2.544113159179687500e+00,2.490917205810546875e+00
4.882143974304199219e+00,5.000000000000000000e+00,5.000000000000000000e+00,5.000000000000000000e+00,5.000000000000000000e+00,5.000000000000000000e+00,5.000000000000000000e+00,5.000000000000000000e+00,5.000000000000000000e+00,5.000000000000000000e+00,5.000000000000000000e+00,5.000000000000000000e+00,5.000000000000000000e+00,5.000000000000000000e+00,5.000000000000000000e+00,5.000000000000000000e+00,5.000000000000000000e+00,5.000000000000000000e+00,5.000000000000000000e+00,5.000000000000000000e+00,5.000000000000000000e+00,5.000000000000000000e+00,5.000000000000000000e+00,5.000000000000000000e+00,5.000000000000000000e+00,5.000000000000000000e+00,5.000000000000000000e+00,5.000000000000000000e+00,5.000000000000000000e+00,5.000000000000000000e+00,5.000000000000000000e+00,5.000000000000000000e+00,5.000000000000000000e+00,5.000000000000000000e+00,5.000000000000000000e+00,5.000000000000000000e+00,5.000000000000000000e+00,5.000000000000000000e+00,5.000000000000000000e+00,5.000000000000000000e+00,5.000000000000000000e+00,3.453656435012817383e+00,3.468831062316894531e+00,3.326494216918945312e+00,3.290884256362915039e+00,3.298622369766235352e+00,3.269333124160766602e+00,3.258670568466186523e+00,3.291754245758056641e+00,3.240170240402221680e+00,5.000000000000000000e+00,5.000000000000000000e+00,5.000000000000000000e+00,5.000000000000000000e+00,5.000000000000000000e+00,5.000000000000000000e+00,4.798792362213134766e+00,4.612973213195800781e+00,4.441008090972900391e+00,4.281403541564941406e+00,4.132872581481933594e+00,3.994302272796630859e+00,3.864722490310668945e+00,3.743285655975341797e+00,3.629248142242431641e+00,3.521953582763671875e+00,3.420820474624633789e+00,3.325334072113037109e+00,3.235033035278320312e+00,3.149506568908691406e+00,3.068386077880859375e+00,2.991339445114135742e+00,2.918067455291748047e+00,2.848299026489257812e+00,2.781788825988769531e+00,2.718313932418823242e+00,2.657670974731445312e+00,2.599675178527832031e+00,2.544156312942504883e+00,2.490959167480468750e+00
4.882032394409179688e+00,5.000000000000000000e+00,5.000000000000000000e+00,5.000000000000000000e+00,5.000000000000000000e+00,5.000000000000000000e+00,5.000000000000000000e+00,5.000000000000000000e+00,5.000000000000000000e+00,5.000000000000000000e+00,5.000000000000000000e+00,5.000000000000000000e+00,5.000000000000000000e+00,5.000000000000000000e+00,5.000000000000000000e+00,5.000000000000000000e+00,5.000000000000000000e+00,5.000000000000000000e+00,5.000000000000000000e+00,5.000000000000000000e+00,5.000000000000000000e+00,5.000000000000000000e+00,5.000000000000000000e+00,5.000000000000000000e+00,5.000000000000000000e+00,5.000000000000000000e+00,5.000000000000000000e+00,5.000000000000000000e+00,5.000000000000000000e+00,5.000000000000000000e+00,5.000000000000000000e+00,5.000000000000000000e+00,5.000000000000000000e+00,5.000000000000000000e+00,5.000000000000000000e+00,5.000000000000000000e+00,5.000000000000000000e+00,5.000000000000000000e+00,5.000000000000000000e+00,5.000000000000000000e+00,5.000000000000000000e+00,3.502200603485107422e+00,5.000000000000000000e+00,3.349378347396850586e+00,3.322174310684204102e+00,3.327154159545898438e+00,3.293779373168945312e+00,3.276762723922729492e+00,3.394927501678466797e+00,3.223782300949096680e+00,5.000000000000000000e+00,5.000000000000000000e+00,5.000000000000000000e+00,5.000000000000000000e+00,5.000000000000000000e+00,5.000000000000000000e+00,4.798936843872070312e+00,4.613106727600097656e+00,4.441132068634033203e+00,4.281518459320068359e+00,4.132979393005371094e+00,3.994402170181274414e+00,3.864815950393676758e+00,3.743373870849609375e+00,3.629331111907958984e+00,3.522031545639038086e+00,3.420894145965576172e+00,3.325403213500976562e+00,3.235098600387573242e+00,3.149569034576416016e+00,3.068445444107055664e+00,2.991395711898803711e+00,2.918120861053466797e+00,2.848349809646606445e+00,2.781837463378906250e+00,2.718360424041748047e+00,2.657715559005737305e+00,2.599717617034912109e+00,2.544196844100952148e+00,2.490998029708862305e+00
4.881920814514160156e+00,5.000000000000000000e+00,5.000000000000000000e+00,5.000000000000000000e+00,5.000000000000000000e+00,5.000000000000000000e+00,5.000000000000000000e+00,5.000000000000000000e+00,5.000000000000000000e+00,5.000000000000000000e+00,5.000000000000000000e+00,5.000000000000000000e+00,5.000000000000000000e+00,5.000000000000000000e+00,5.000000000000000000e+00,5.000000000000000000e+00,5.000000000000000000e+00,5.000000000000000000e+00,5.000000000000000000e+00,5.000000000000000000e+00,5.000000000000000000e+00,5.000000000000000000e+00,5.000000000000000000e+00,5.000000000000000000e+00,5.000000000000000000e+00,5.000000000000000000e+00,5.000000000000000000e+00,5.000000000000000000e+00,5.000000000000000000e+00,5.000000000000000000e+00,5.000000000000000000e+00,5.000000000000000000e+00,5.000000000000000000e+00,5.000000000000000000e+00,5.000000000000000000e+00,5.000000000000000000e+00,5.000000000000000000e+00,5.000000000000000000e+00,5.000000000000000000e+00,5.000000000000000000e+00,5.000000000000000000e+00,3.532721519470214844e+00,5.000000000000000000e+00,3.368915557861328125e+00,3.334668159484863281e+00,3.342549085617065430e+00,3.305016756057739258e+00,3.293707132339477539e+00,5.000000000000000000e+00,3.226026058197021484e+00,5.000000000000000000e+00,5.000000000000000000e+00,5.000000000000000000e+00,5.000000000000000000e+00,5.000000000000000000e+00,5.000000000000000000e+00,4.799081325531005859e+00,4.613240242004394531e+00,4.441255569458007812e+00,4.281633377075195312e+00,4.133087158203125000e+00,3.994502544403076172e+00,3.864909887313842773e+00,3.743461608886718750e+00,3.629413604736328125e+00,3.522109508514404297e+00,3.420967817306518555e+00,3.325472593307495117e+00,3.235164403915405273e+00,3.149631023406982422e+00,3.068504333496093750e+00,2.991451978683471680e+00,2.918174266815185547e+00,2.848400831222534180e+00,2.781885862350463867e+00,2.718406677246093750e+00,2.657759904861450195e+00,2.599760055541992188e+00,2.544237613677978516e+00,2.491036891937255859e+00
4.881808757781982422e+00,5.000000000000000000e+00,5.000000000000000000e+00,5.000000000000000000e+00,5.000000000000000000e+00,5.000000000000000000e+00,5.000000000000000000e+00,5.000000000000000000e+00,5.000000000000000000e+00,5.000000000000000000e+00,5.000000000000000000e+00,5.000000000000000000e+00,5.000000000000000000e+00,5.000000000000000000e+00,5.000000000000000000e+00,5.000000000000000000e+00,5.000000000000000000e+00,5.000000000000000000e+00,5.000000000000000000e+00,5.000000000000000000e+00,5.000000000000000000e+00,5.000000000000000000e+00,5.000000000000000000e+00,5.000000000000000000e+00,5.000000000000000000e+00,5.000000000000000000e+00,5.000000000000000000e+00,5.000000000000000000e+00,5.000000000000000000e+00,5.000000000000000000e+00,5.000000000000000000e+00,5.000000000000000000e+00,5.000000000000000000e+00,5.000000000000000000e+00,5.000000000000000000e+00,5.000000000000000000e+00,5.000000000000000000e+00,5.000000000000000000e+00,5.000000000000000000e+00,5.000000000000000000e+00,5.000000000000000000e+00,5.000000000000000000e+00,5.000000000000000000e+00,3.392295122146606445e+00,3.348925113677978516e+00,3.364941835403442383e+00,3.317298650741577148e+00,3.309634923934936523e+00,5.000000000000000000e+00,5.000000000000000000e+00,5.000000000000000000e+00,5.000000000000000000e+00,5.000000000000000000e+00,5.000000000000000000e+00,5.000000000000000000e+00,5.000000000000000000e+00,4.799225807189941406e+00,4.613373756408691406e+00,4.441379547119140625e+00,4.281748771667480469e+00,4.133193969726562500e+00,3.994602441787719727e+00,3.865003824234008789e+00,3.743549585342407227e+00,3.629496335983276367e+00,3.522187232971191406e+00,3.421041011810302734e+00,3.325542211532592773e+00,3.235230207443237305e+00,3.149693489074707031e+00,3.068563461303710938e+00,2.991508007049560547e+00,2.918227672576904297e+00,2.848451852798461914e+00,2.781934499740600586e+00,2.718453168869018555e+00,2.657804012298583984e+00,2.599802255630493164e+00,2.544278144836425781e+00,2.491075992584228516e+00
4.881697177886962891e+00,5.000000000000000000e+00,5.000000000000000000e+00,5.000000000000000000e+00,5.000000000000000000e+00,5.000000000000000000e+00,5.000000000000000000e+00,5.000000000000000000e+00,5.000000000000000000e+00,5.000000000000000000e+00,5.000000000000000000e+00,5.000000000000000000e+00,5.000000000000000000e+00,5.000000000000000000e+00,5.000000000000000000e+00,5.000000000000000000e+00,5.000000000000000000e+00,5.000000000000000000e+00,5.000000000000000000e+00,5.000000000000000000e+00,5.000000000000000000e+00,5.000000000000000000e+00,5.000000000000000000e+00,5.000000000000000000e+00,5.000000000000000000e+00,5.000000000000000000e+00,5.000000000000000000e+00,5.000000000000000000e+00,5.000000000000000000e+00,5.000000000000000000e+00,5.000000000000000000e+00,5.000000000000000000e+00,5.000000000000000000e+00,5.000000000000000000e+00,5.000000000000000000e+00,5.000000000000000000e+00,5.000000000000000000e+00,5.000000000000000000e+00,5.000000000000000000e+00,5.000000000000000000e+00,5.000000000000000000e+00,5.000000000000000000e+00,5.000000000000000000e+00,5.000000000000000000e+00,3.373385429382324219e+00,3.395180940628051758e+00,3.333093881607055664e+00,3.327328681945800781e+00,5.000000000000000000e+00,5.000000000000000000e+00,5.000000000000000000e+00,5.000000000000000000e+00,5.000000000000000000e+00,5.000000000000000000e+00,5.000000000000000000e+00,5.000000000000000000e+00,4.799370765686035156e+00,4.613507270812988281e+00,4.441503524780273438e+00,4.281863689422607422e+00,4.133301258087158203e+00,3.994702577590942383e+00,3.865097284317016602e+00,3.743637323379516602e+00,3.629579305648803711e+00,3.522265195846557617e+00,3.421114683151245117e+00,3.325611352920532227e+00,3.235295772552490234e+00,3.149755954742431641e+00,3.068622589111328125e+00,2.991564273834228516e+00,2.918281316757202148e+00,2.848502635955810547e+00,2.781983375549316406e+00,2.718499660491943359e+00,2.657848596572875977e+00,2.599844932556152344e+00,2.544318675994873047e+00,2.491114854812622070e+00
4.881585121154785156e+00,5.000000000000000000e+00,5.000000000000000000e+00,5.000000000000000000e+00,5.000000000000000000e+00,5.000000000000000000e+00,5.000000000000000000e+00,5.000000000000000000e+00,5.000000000000000000e+00,5.000000000000000000e+00,5.000000000000000000e+00,5.000000000000000000e+00,5.000000000000000000e+00,5.000000000000000000e+00,5.000000000000000000e+00,5.000000000000000000e+00,5.000000000000000000e+00,5.000000000000000000e+00,5.000000000000000000e+00,5.000000000000000000e+00,5.000000000000000000e+00,5.000000000000000000e+00,5.000000000000000000e+00,5.000000000000000000e+00,5.000000000000000000e+00,5.000000000000000000e+00,5.000000000000000000e+00,5.000000000000000000e+00,5.000000000000000000e+00,5.000000000000000000e+00,5.000000000000000000e+00,5.000000000000000000e+00,5.000000000000000000e+00,5.000000000000000000e+00,5.000000000000000000e+00,5.000000000000000000e+00,5.000000000000000000e+00,5.000000000000000000e+00,5.000000000000000000e+00,5.000000000000000000e+00,5.000000000000000000e+00,5.000000000000000000e+00,5.000000000000000000e+00,5.000000000000000000e+00,3.310676813125610352e+00,3.412667751312255859e+00,3.332298755645751953e+00,3.334036350250244141e+00,5.000000000000000000e+00,5.000000000000000000e+00,5.000000000000000000e+00,5.000000000000000000e+00,5.000000000000000000e+00,5.000000000000000000e+00,5.000000000000000000e+00,5.000000000000000000e+00,4.799515247344970703e+00,4.613640785217285156e+00,4.441627025604248047e+00,4.281978607177734375e+00,4.133408546447753906e+00,3.994802951812744141e+00,3.865191221237182617e+00,3.743725538253784180e+00,3.629661560058593750e+00,3.522342681884765625e+00,3.421188116073608398e+00,3.325680971145629883e+00,3.235361576080322266e+00,3.149817943572998047e+00,3.068681716918945312e+00,2.991620540618896484e+00,2.918334722518920898e+00,2.848553657531738281e+00,2.782031774520874023e+00,2.718545913696289062e+00,2.657892942428588867e+00,2.599887371063232422e+00,2.544359445571899414e+00,2.491153717041015625e+00
4.881462574005126953e+00,5.000000000000000000e+00,5.000000000000000000e+00,5.000000000000000000e+00,5.000000000000000000e+00,5.000000000000000000e+00,5.000000000000000000e+00,5.000000000000000000e+00,5.000000000000000000e+00,5.000000000000000000e+00,5.000000000000000000e+00,5.000000000000000000e+00,5.000000000000000000e+00,5.000000000000000000e+00,5.000000000000000000e+00,5.000000000000000000e+00,5.000000000000000000e+00,5.000000000000000000e+00,5.000000000000000000e+00,5.000000000000000000e+00,5.000000000000000000e+00,5.000000000000000000e+00,5.000000000000000000e+00,5.000000000000000000e+00,5.000000000000000000e+00,5.000000000000000000e+00,5.000000000000000000e+00,5.000000000000000000e+00,5.000000000000000000e+00,5.000000000000000000e+00,5.000000000000000000e+00,5.000000000000000000e+00,5.000000000000000000e+00,5.000000000000000000e+00,5.000000000000000000e+00,5.000000000000000000e+00,5.000000000000000000e+00,5.000000000000000000e+00,5.000000000000000000e+00,5.000000000000000000e+00,5.000000000000000000e+00,5.000000000000000000e+00,5.000000000000000000e+00,3.242687463760375977e+00,3.244982004165649414e+00,5.000000000000000000e+00,3.305018901824951172e+00,3.317898511886596680e+00,5.000000000000000000e+00,5.000000000000000000e+00,5.000000000000000000e+00,5.000000000000000000e+00,5.000000000000000000e+00,5.000000000000000000e+00,5.000000000000000000e+00,5.000000000000000000e+00,4.799659729003906250e+00,4.613774776458740234e+00,4.441751003265380859e+00,4.282093524932861328e+00,4.133515834808349609e+00,3.994902849197387695e+00,3.865285158157348633e+00,3.743813753128051758e+00,3.629744529724121094e+00,3.522420883178710938e+00,3.421261548995971680e+00,3.325750112533569336e+00,3.235427379608154297e+00,3.149880409240722656e+00,3.068740844726562500e+00,2.991676568984985352e+00,2.918388128280639648e+00,2.848604679107666016e+00,2.782080411911010742e+00,2.718592405319213867e+00,2.657937288284301758e+00,2.599929571151733398e+00,2.544400215148925781e+00,2.491192817687988281e+00
4.881337165832519531e+00,5.000000000000000000e+00,5.000000000000000000e+00,5.000000000000000000e+00,5.000000000000000000e+00,5.000000000000000000e+00,5.000000000000000000e+00,5.000000000000000000e+00,5.000000000000000000e+00,5.000000000000000000e+00,5.000000000000000000e+00,5.000000000000000000e+00,5.000000000000000000e+00,5.000000000000000000e+00,5.000000000000000000e+00,5.000000000000000000e+00,5.000000000000000000e+00,5.000000000000000000e+00,5.000000000000000000e+00,5.000000000000000000e+00,5.000000000000000000e+00,5.000000000000000000e+00,5.000000000000000000e+00,5.000000000000000000e+00,5.000000000000000000e+00,5.000000000000000000e+00,5.000000000000000000e+00,5.000000000000000000e+00,5.000000000000000000e+00,5.000000000000000000e+00,5.000000000000000000e+00,5.000000000000000000e+00,5.000000000000000000e+00,5.000000000000000000e+00,5.000000000000000000e+00,5.000000000000000000e+00,5.000000000000000000e+00,5.000000000000000000e+00,5.000000000000000000e+00,5.000000000000000000e+00,5.000000000000000000e+00,5.000000000000000000e+00,5.000000000000000000e+00,3.167463302612304688e+00,3.212837219238281250e+00,5.000000000000000000e+00,3.288794040679931641e+00,3.316177129745483398e+00,5.000000000000000000e+00,5.000000000000000000e+00,5.000000000000000000e+00,5.000000000000000000e+00,5.000000000000000000e+00,5.000000000000000000e+00,5.000000000000000000e+00,5.000000000000000000e+00,4.799804687500000000e+00,4.613908290863037109e+00,4.441874980926513672e+00,4.282208919525146484e+00,4.133623123168945312e+00,3.995003223419189453e+00,3.865378618240356445e+00,3.743901491165161133e+00,3.629827260971069336e+00,3.522498846054077148e+00,3.421334981918334961e+00,3.325819730758666992e+00,3.235492944717407227e+00,3.149942398071289062e+00,3.068799972534179688e+00,2.991732835769653320e+00,2.918441534042358398e+00,2.848655462265014648e+00,2.782128810882568359e+00,2.718638896942138672e+00,2.657981634140014648e+00,2.599972248077392578e+00,2.544440746307373047e+00,2.491231679916381836e+00
4.881210803985595703e+00,5.000000000000000000e+00,5.000000000000000000e+00,5.000000000000000000e+00,5.000000000000000000e+00,5.000000000000000000e+00,5.000000000000000000e+00,5.000000000000000000e+00,5.000000000000000000e+00,5.000000000000000000e+00,5.000000000000000000e+00,5.000000000000000000e+00,5.000000000000000000e+00,5.000000000000000000e+00,5.000000000000000000e+00,5.000000000000000000e+00,5.000000000000000000e+00,5.000000000000000000e+00,5.000000000000000000e+00,5.000000000000000000e+00,5.000000000000000000e+00,5.000000000000000000e+00,5.000000000000000000e+00,5.000000000000000000e+00,5.000000000000000000e+00,5.000000000000000000e+00,5.000000000000000000e+00,5.000000000000000000e+00,5.000000000000000000e+00,5.000000000000000000e+00,5.000000000000000000e+00,5.000000000000000000e+00,5.000000000000000000e+00,5.000000000000000000e+00,5.000000000000000000e+00,5.000000000000000000e+00,5.000000000000000000e+00,5.000000000000000000e+00,5.000000000000000000e+00,5.000000000000000000e+00,5.000000000000000000e+00,5.000000000000000000e+00,5.000000000000000000e+00,3.114971637725830078e+00,3.188920974731445312e+00,5.000000000000000000e+00,3.283783912658691406e+00,3.329075336456298828e+00,5.000000000000000000e+00,5.000000000000000000e+00,5.000000000000000000e+00,5.000000000000000000e+00,5.000000000000000000e+00,5.000000000000000000e+00,5.000000000000000000e+00,5.000000000000000000e+00,4.799949169158935547e+00,4.614041805267333984e+00,4.441998958587646484e+00,4.282323837280273438e+00,4.133730411529541016e+00,3.995103597640991211e+00,3.865472555160522461e+00,3.743989467620849609e+00,3.629909753799438477e+00,3.522576570510864258e+00,3.421408653259277344e+00,3.325889348983764648e+00,3.235558748245239258e+00,3.150004863739013672e+00,3.068859100341796875e+00,2.991788864135742188e+00,2.918495178222656250e+00,2.848706483840942383e+00,2.782177448272705078e+00,2.718685150146484375e+00,2.658025741577148438e+00,2.600014686584472656e+00,2.544481277465820312e+00,2.491270780563354492e+00
4.881085395812988281e+00,5.000000000000000000e+00,5.000000000000000000e+00,5.000000000000000000e+00,5.000000000000000000e+00,5.000000000000000000e+00,5.000000000000000000e+00,5.000000000000000000e+00,5.000000000000000000e+00,5.000000000000000000e+00,5.000000000000000000e+00,5.000000000000000000e+00,5.000000000000000000e+00,5.000000000000000000e+00,5.000000000000000000e+00,5.000000000000000000e+00,5.000000000000000000e+00,5.000000000000000000e+00,5.000000000000000000e+00,5.000000000000000000e+00,5.000000000000000000e+00,5.000000000000000000e+00,5.000000000000000000e+00,5.000000000000000000e+00,5.000000000000000000e+00,5.000000000000000000e+00,5.000000000000000000e+00,5.000000000000000000e+00,5.000000000000000000e+00,5.000000000000000000e+00,5.000000000000000000e+00,5.000000000000000000e+00,5.000000000000000000e+00,5.000000000000000000e+00,5.000000000000000000e+00,5.000000000000000000e+00,5.000000000000000000e+00,5.000000000000000000e+00,5.000000000000000000e+00,5.000000000000000000e+00,5.000000000000000000e+00,5.000000000000000000e+00,5.000000000000000000e+00,3.082388877868652344e+00,5.000000000000000000e+00,3.358272552490234375e+00,3.281331539154052734e+00,5.000000000000000000e+00,5.000000000000000000e+00,5.000000000000000000e+00,5.000000000000000000e+00,5.000000000000000000e+00,5.000000000000000000e+00,5.000000000000000000e+00,5.000000000000000000e+00,5.000000000000000000e+00,4.800093650817871094e+00,4.614175319671630859e+00,4.442122459411621094e+00,4.282439231872558594e+00,4.133837699890136719e+00,3.995203495025634766e+00,3.865566015243530273e+00,3.744077682495117188e+00,3.629992723464965820e+00,3.522654533386230469e+00,3.421481847763061523e+00,3.325958490371704102e+00,3.235624551773071289e+00,3.150067329406738281e+00,3.068918228149414062e+00,2.991845130920410156e+00,2.918548583984375000e+00,2.848757266998291016e+00,2.782226085662841797e+00,2.718731641769409180e+00,2.658070325851440430e+00,2.600056886672973633e+00,2.544521808624267578e+00,2.491309642791748047e+00
4.880959510803222656e+00,5.000000000000000000e+00,5.000000000000000000e+00,5.000000000000000000e+00,5.000000000000000000e+00,5.000000000000000000e+00,5.000000000000000000e+00,5.000000000000000000e+00,5.000000000000000000e+00,5.000000000000000000e+00,5.000000000000000000e+00,5.000000000000000000e+00,5.000000000000000000e+00,5.000000000000000000e+00,5.000000000000000000e+00,5.000000000000000000e+00,5.000000000000000000e+00,5.000000000000000000e+00,5.000000000000000000e+00,5.000000000000000000e+00,5.000000000000000000e+00,5.000000000000000000e+00,5.000000000000000000e+00,5.000000000000000000e+00,5.000000000000000000e+00,5.000000000000000000e+00,5.000000000000000000e+00,5.000000000000000000e+00,5.000000000000000000e+00,5.000000000000000000e+00,5.000000000000000000e+00,5.000000000000000000e+00,5.000000000000000000e+00,5.000000000000000000e+00,5.000000000000000000e+00,5.000000000000000000e+00,5.000000000000000000e+00,5.000000000000000000e+00,5.000000000000000000e+00,5.000000000000000000e+00,5.000000000000000000e+00,5.000000000000000000e+00,3.064243316650390625e+00,3.043509244918823242e+00,5.000000000000000000e+00,3.333909511566162109e+00,3.278761863708496094e+00,5.000000000000000000e+00,5.000000000000000000e+00,5.000000000000000000e+00,5.000000000000000000e+00,5.000000000000000000e+00,5.000000000000000000e+00,5.000000000000000000e+00,5.000000000000000000e+00,5.000000000000000000e+00,4.800238132476806641e+00,4.614309310913085938e+00,4.442246437072753906e+00,4.282554149627685547e+00,4.133944988250732422e+00,3.995303869247436523e+00,3.865660190582275391e+00,3.744165420532226562e+00,3.630075216293334961e+00,3.522732496261596680e+00,3.421555519104003906e+00,3.326028108596801758e+00,3.235690116882324219e+00,3.150129318237304688e+00,3.068977355957031250e+00,2.991901397705078125e+00,2.918601989746093750e+00,2.848808288574218750e+00,2.782274723052978516e+00,2.718777894973754883e+00,2.658114671707153320e+00,2.600099563598632812e+00,2.544562578201293945e+00,2.491348505020141602e+00
4.880679607391357422e+00,5.000000000000000000e+00,5.000000000000000000e+00,5.000000000000000000e+00,5.000000000000000000e+00,5.000000000000000000e+00,5.000000000000000000e+00,5.000000000000000000e+00,5.000000000000000000e+00,5.000000000000000000e+00,5.000000000000000000e+00,5.000000000000000000e+00,5.000000000000000000e+00,5.000000000000000000e+00,5.000000000000000000e+00,5.000000000000000000e+00,5.000000000000000000e+00,5.000000000000000000e+00,5.000000000000000000e+00,5.000000000000000000e+00,5.000000000000000000e+00,5.000000000000000000e+00,5.000000000000000000e+00,5.000000000000000000e+00,5.000000000000000000e+00,5.000000000000000000e+00,5.000000000000000000e+00,5.000000000000000000e+00,5.000000000000000000e+00,5.000000000000000000e+00,5.000000000000000000e+00,5.000000000000000000e+00,5.000000000000000000e+00,5.000000000000000000e+00,5.000000000000000000e+00,5.000000000000000000e+00,5.000000000000000000e+00,5.000000000000000000e+00,5.000000000000000000e+00,5.000000000000000000e+00,5.000000000000000000e+00,5.000000000000000000e+00,3.099424600601196289e+00,3.086698055267333984e+00,5.000000000000000000e+00,3.325671434402465820e+00,3.280612230300903320e+00,5.000000000000000000e+00,5.000000000000000000e+00,5.000000000000000000e+00,5.000000000000000000e+00,5.000000000000000000e+00,5.000000000000000000e+00,5.000000000000000000e+00,5.000000000000000000e+00,5.000000000000000000e+00,4.800383090972900391e+00,4.614442825317382812e+00,4.442370414733886719e+00,4.282669544219970703e+00,4.134052276611328125e+00,3.995404243469238281e+00,3.865754127502441406e+00,3.744253635406494141e+00,3.630157947540283203e+00,3.522810220718383789e+00,3.421628713607788086e+00,3.326097726821899414e+00,3.235755920410156250e+00,3.150191783905029297e+00,3.069036483764648438e+00,2.991957426071166992e+00,2.918655633926391602e+00,2.848859310150146484e+00,2.782323360443115234e+00,2.718824386596679688e+00,2.658159017562866211e+00,2.600142002105712891e+00,2.544603347778320312e+00,2.491387605667114258e+00
4.873503684997558594e+00,4.872295379638671875e+00,4.871088027954101562e+00,4.869880676269531250e+00,4.868673801422119141e+00,4.867467880249023438e+00,4.866262435913085938e+00,4.865057468414306641e+00,4.863852977752685547e+00,4.862649440765380859e+00,4.861446857452392578e+00,4.860243797302246094e+00,4.859042167663574219e+00,4.857841014862060547e+00,4.856640338897705078e+00,4.855440139770507812e+00,4.854240894317626953e+00,4.853042125701904297e+00,4.851843833923339844e+00,4.850646018981933594e+00,4.849449157714843750e+00,4.848252296447753906e+00,4.847056388854980469e+00,4.845860958099365234e+00,4.844666481018066406e+00,4.843472480773925781e+00,4.842278480529785156e+00,4.841085433959960938e+00,4.839893341064453125e+00,4.838701725006103516e+00,4.837510108947753906e+00,4.836319446563720703e+00,4.835129261016845703e+00,4.833939552307128906e+00,4.832750797271728516e+00,4.831562519073486328e+00,4.830375194549560547e+00,4.829187870025634766e+00,4.828001022338867188e+00,4.826815128326416016e+00,4.825630187988281250e+00,4.824445247650146484e+00,4.823260784149169922e+00,3.105585575103759766e+00,4.820894241333007812e+00,3.312497854232788086e+00,3.319495677947998047e+00,4.817348480224609375e+00,4.816167831420898438e+00,4.814987659454345703e+00,4.813807964324951172e+00,4.812629222869873047e+00,4.811450481414794922e+00,4.810272693634033203e+00,4.809095382690429688e+00,4.807919025421142578e+00,4.800527572631835938e+00,4.614576339721679688e+00,4.442494392395019531e+00,4.282784461975097656e+00,4.134159564971923828e+00,3.995504140853881836e+00,3.865847587585449219e+00,3.744341611862182617e+00,3.630240917205810547e+00,3.522888183593750000e+00,3.421702384948730469e+00,3.326166868209838867e+00,3.235821485519409180e+00,3.150254249572753906e+00,3.069095611572265625e+00,2.992013692855834961e+00,2.918709039688110352e+00,2.848910093307495117e+00,2.782371997833251953e+00,2.718870878219604492e+00,2.658203363418579102e+00,2.600184202194213867e+00,2.544643878936767578e+00,2.491426706314086914e+00
3.777237892150878906e+00,3.776512145996093750e+00,3.775786399841308594e+00,3.775061130523681641e+00,3.774335861206054688e+00,3.773610830307006836e+00,3.772886753082275391e+00,3.772162199020385742e+00,3.771438121795654297e+00,3.770714521408081055e+00,3.769990921020507812e+00,3.769267559051513672e+00,3.768545150756835938e+00,3.767822265625000000e+00,3.767100095748901367e+00,3.766377925872802734e+00,3.765655994415283203e+00,3.764934778213500977e+00,3.764213323593139648e+00,3.763492345809936523e+00,3.762771844863891602e+00,3.762051343917846680e+00,3.761331081390380859e+00,3.760611534118652344e+00,3.759891748428344727e+00,3.759172677993774414e+00,3.758453607559204102e+00,3.757734537124633789e+00,3.757016420364379883e+00,3.756298065185546875e+00,3.755579948425292969e+00,3.754862546920776367e+00,3.754144906997680664e+00,3.753427743911743164e+00,3.752711296081542969e+00,3.751994371414184570e+00,3.751278400421142578e+00,3.750562191009521484e+00,3.749846458435058594e+00,3.749131202697753906e+00,3.748415708541870117e+00,3.747700691223144531e+00,3.746986389160156250e+00,3.746271848678588867e+00,3.745557546615600586e+00,3.276441097259521484e+00,3.330902099609375000e+00,3.743417263031005859e+00,3.742704153060913086e+00,3.741991281509399414e+00,3.741279125213623047e+00,3.740566730499267578e+00,3.739854574203491211e+00,3.739143371582031250e+00,3.738431692123413086e+00,3.737720966339111328e+00,3.737009763717651367e+00,3.736299037933349609e+00,3.735589027404785156e+00,3.734879016876220703e+00,3.734169006347656250e+00,3.733459711074829102e+00,3.732750415802001953e+00,3.732041358947753906e+00,3.630323410034179688e+00,3.522966384887695312e+00,3.421776056289672852e+00,3.326236486434936523e+00,3.235887289047241211e+00,3.150316238403320312e+00,3.069154500961303711e+00,2.992070198059082031e+00,2.918762445449829102e+00,2.848961114883422852e+00,2.782420396804809570e+00,2.718917131423950195e+00,2.658247709274291992e+00,2.600226879119873047e+00,2.544684648513793945e+00,2.491465568542480469e+00
3.083600521087646484e+00,3.083116531372070312e+00,3.082633018493652344e+00,3.082149267196655273e+00,3.081665992736816406e+00,3.081182956695556641e+00,3.080699682235717773e+00,3.080216646194458008e+00,3.079734086990356445e+00,3.079251289367675781e+00,3.078768968582153320e+00,3.078286647796630859e+00,3.077804327011108398e+00,3.077322483062744141e+00,3.076840639114379883e+00,3.076358795166015625e+00,3.075877428054809570e+00,3.075395822525024414e+00,3.074914693832397461e+00,3.074433565139770508e+00,3.073952436447143555e+00,3.073471784591674805e+00,3.072991132736206055e+00,3.072510480880737305e+00,3.072030305862426758e+00,3.071549892425537109e+00,3.071069717407226562e+00,3.070590019226074219e+00,3.070110321044921875e+00,3.069630861282348633e+00,3.069151163101196289e+00,3.068671703338623047e+00,3.068192720413208008e+00,3.067713737487792969e+00,3.067234754562377930e+00,3.066756248474121094e+00,3.066277503967285156e+00,3.065799236297607422e+00,3.065320968627929688e+00,3.064842939376831055e+00,3.064365148544311523e+00,3.063887119293212891e+00,3.063409328460693359e+00,3.062932014465332031e+00,3.062454700469970703e+00,3.061977148056030273e+00,3.061500310897827148e+00,3.061023235321044922e+00,3.060546398162841797e+00,3.060070037841796875e+00,3.059593439102172852e+00,3.059117317199707031e+00,3.058640956878662109e+00,3.058164834976196289e+00,3.057689189910888672e+00,3.057213306427001953e+00,3.056737661361694336e+00,3.056262254714965820e+00,3.055786848068237305e+00,3.055311679840087891e+00,3.054836988449096680e+00,3.054361820220947266e+00,3.053887367248535156e+00,3.053412675857543945e+00,3.052938222885131836e+00,3.052464246749877930e+00,3.051990032196044922e+00,3.051515817642211914e+00,3.051042318344116211e+00,3.050568342208862305e+00,3.050094842910766602e+00,2.992126226425170898e+00,2.918815851211547852e+00,2.849012136459350586e+00,2.782469034194946289e+00,2.718963623046875000e+00,2.658292055130004883e+00,2.600269079208374023e+00,2.544725179672241211e+00,2.491504430770874023e+00
2.605192661285400391e+00,2.604847431182861328e+00,2.604501962661743164e+00,2.604156970977783203e+00,2.603811740875244141e+00,2.603466749191284180e+00,2.603121995925903320e+00,2.602777004241943359e+00,2.602432250976562500e+00,2.602087736129760742e+00,2.601743221282958984e+00,2.601398706436157227e+00,2.601054430007934570e+00,2.600710153579711914e+00,2.600366115570068359e+00,2.600021839141845703e+00,2.599677801132202148e+00,2.599334001541137695e+00,2.598990201950073242e+00,2.598646402359008789e+00,2.598302841186523438e+00,2.597959280014038086e+00,2.597615718841552734e+00,2.597272634506225586e+00,2.596929311752319336e+00,2.596586227416992188e+00,2.596243143081665039e+00,2.595900058746337891e+00,2.595557212829589844e+00,2.595214366912841797e+00,2.594871520996093750e+00,2.594529151916503906e+00,2.594186305999755859e+00,2.593843936920166016e+00,2.593501567840576172e+00,2.593159437179565430e+00,2.592817306518554688e+00,2.592475175857543945e+00,2.592133045196533203e+00,2.591791391372680664e+00,2.591449499130249023e+00,2.591107606887817383e+00,2.590766191482543945e+00,2.590424537658691406e+00,2.590082883834838867e+00,2.589741706848144531e+00,2.589400291442871094e+00,2.589059352874755859e+00,2.588718175888061523e+00,2.588376998901367188e+00,2.588036298751831055e+00,2.587695360183715820e+00,2.587354660034179688e+00,2.587014198303222656e+00,2.586673498153686523e+00,2.586333036422729492e+00,2.585992813110351562e+00,2.585652351379394531e+00,2.585312366485595703e+00,2.584972143173217773e+00,2.584632158279418945e+00,2.584292173385620117e+00,2.583952426910400391e+00,2.583612442016601562e+00,2.583272933959960938e+00,2.582933425903320312e+00,2.582593917846679688e+00,2.582254648208618164e+00,2.581915140151977539e+00,2.581576108932495117e+00,2.581236839294433594e+00,2.580897808074951172e+00,2.580559015274047852e+00,2.580219984054565430e+00,2.579881191253662109e+00,2.579542636871337891e+00,2.579203844070434570e+00,2.578865528106689453e+00,2.544765710830688477e+00,2.491543292999267578e+00
2.255293369293212891e+00,2.255034446716308594e+00,2.254775762557983398e+00,2.254517078399658203e+00,2.254258394241333008e+00,2.253999948501586914e+00,2.253741264343261719e+00,2.253482818603515625e+00,2.253224372863769531e+00,2.252965927124023438e+00,2.252707958221435547e+00,2.252449512481689453e+00,2.252191305160522461e+00,2.251933336257934570e+00,2.251675128936767578e+00,2.251417160034179688e+00,2.251159429550170898e+00,2.250901460647583008e+00,2.250643730163574219e+00,2.250385999679565430e+00,2.250128030776977539e+00,2.249870538711547852e+00,2.249613046646118164e+00,2.249355316162109375e+00,2.249098062515258789e+00,2.248840570449829102e+00,2.248583078384399414e+00,2.248326063156127930e+00,2.248068809509277344e+00,2.247811555862426758e+00,2.247554540634155273e+00,2.247297286987304688e+00,2.247040510177612305e+00,2.246783494949340820e+00,2.246526479721069336e+00,2.246269941329956055e+00,2.246013164520263672e+00,2.245756387710571289e+00,2.245499610900878906e+00,2.245243072509765625e+00,2.244986534118652344e+00,2.244730234146118164e+00,2.244473695755004883e+00,2.244217395782470703e+00,2.243961095809936523e+00,2.243704795837402344e+00,2.243448734283447266e+00,2.243192672729492188e+00,2.242936372756958008e+00,2.242680549621582031e+00,2.242424488067626953e+00,2.242168903350830078e+00,2.241912841796875000e+00,2.241657018661499023e+00,2.241401433944702148e+00,2.241145849227905273e+00,2.240890264511108398e+00,2.240634679794311523e+00,2.240379095077514648e+00,2.240123748779296875e+00,2.239868402481079102e+00,2.239613056182861328e+00,2.239357948303222656e+00,2.239102840423583984e+00,2.238847494125366211e+00,2.238592624664306641e+00,2.238337516784667969e+00,2.238082647323608398e+00,2.237827777862548828e+00,2.237572908401489258e+00,2.237318038940429688e+00,2.237063407897949219e+00,2.236808776855468750e+00,2.236554145812988281e+00,2.236299753189086914e+00,2.236045122146606445e+00,2.235790729522705078e+00,2.235536336898803711e+00,2.235281944274902344e+00,2.235027790069580078e+00
1.988254070281982422e+00,1.988052845001220703e+00,1.987851738929748535e+00,1.987650752067565918e+00,1.987449765205383301e+00,1.987248659133911133e+00,1.987047672271728516e+00,1.986846685409545898e+00,1.986645817756652832e+00,1.986445188522338867e+00,1.986244320869445801e+00,1.986043572425842285e+00,1.985842823982238770e+00,1.985642075538635254e+00,1.985441684722900391e+00,1.985241055488586426e+00,1.985040426254272461e+00,1.984839916229248047e+00,1.984639406204223633e+00,1.984438896179199219e+00,1.984238624572753906e+00,1.984038233757019043e+00,1.983837962150573730e+00,1.983637571334838867e+00,1.983437299728393555e+00,1.983237385749816895e+00,1.983037114143371582e+00,1.982836961746215820e+00,1.982636928558349609e+00,1.982436895370483398e+00,1.982236862182617188e+00,1.982037067413330078e+00,1.981837153434753418e+00,1.981637239456176758e+00,1.981437325477600098e+00,1.981237530708312988e+00,1.981037974357604980e+00,1.980838179588317871e+00,1.980638504028320312e+00,1.980438828468322754e+00,1.980239152908325195e+00,1.980039596557617188e+00,1.979840278625488281e+00,1.979640841484069824e+00,1.979441285133361816e+00,1.979241847991943359e+00,1.979042530059814453e+00,1.978843450546264648e+00,1.978644132614135742e+00,1.978444814682006836e+00,1.978245615959167480e+00,1.978046417236328125e+00,1.977847218513488770e+00,1.977648377418518066e+00,1.977449297904968262e+00,1.977250337600708008e+00,1.977051258087158203e+00,1.976852416992187500e+00,1.976653695106506348e+00,1.976454854011535645e+00,1.976256012916564941e+00,1.976057171821594238e+00,1.975858449935913086e+00,1.975659728050231934e+00,1.975461363792419434e+00,1.975262641906738281e+00,1.975064158439636230e+00,1.974865555763244629e+00,1.974667072296142578e+00,1.974468827247619629e+00,1.974270462989807129e+00,1.974071979522705078e+00,1.973873615264892578e+00,1.973675370216369629e+00,1.973477125167846680e+00,1.973279118537902832e+00,1.973080873489379883e+00,1.972882747650146484e+00,1.972684621810913086e+00,1.972486615180969238e+00
1.777757644653320312e+00,1.777596712112426758e+00,1.777436137199401855e+00,1.777275323867797852e+00,1.777114510536193848e+00,1.776953816413879395e+00,1.776793122291564941e+00,1.776632428169250488e+00,1.776471972465515137e+00,1.776311278343200684e+00,1.776150703430175781e+00,1.775990128517150879e+00,1.775829672813415527e+00,1.775669336318969727e+00,1.775508880615234375e+00,1.775348424911499023e+00,1.775187969207763672e+00,1.775027513504028320e+00,1.774867415428161621e+00,1.774707078933715820e+00,1.774546742439270020e+00,1.774386525154113770e+00,1.774226188659667969e+00,1.774065971374511719e+00,1.773905992507934570e+00,1.773745775222778320e+00,1.773585677146911621e+00,1.773425579071044922e+00,1.773265480995178223e+00,1.773105621337890625e+00,1.772945642471313477e+00,1.772785663604736328e+00,1.772625684738159180e+00,1.772465705871582031e+00,1.772305846214294434e+00,1.772146105766296387e+00,1.771986365318298340e+00,1.771826505661010742e+00,1.771666646003723145e+00,1.771506905555725098e+00,1.771347403526306152e+00,1.771187663078308105e+00,1.771028041839599609e+00,1.770868420600891113e+00,1.770708799362182617e+00,1.770549178123474121e+00,1.770389795303344727e+00,1.770230293273925781e+00,1.770070791244506836e+00,1.769911289215087891e+00,1.769751906394958496e+00,1.769592642784118652e+00,1.769433259963989258e+00,1.769273877143859863e+00,1.769114613533020020e+00,1.768955230712890625e+00,1.768795967102050781e+00,1.768636941909790039e+00,1.768477678298950195e+00,1.768318533897399902e+00,1.768159389495849609e+00,1.768000245094299316e+00,1.767841339111328125e+00,1.767682313919067383e+00,1.767523169517517090e+00,1.767364263534545898e+00,1.767205238342285156e+00,1.767046213150024414e+00,1.766887545585632324e+00,1.766728639602661133e+00,1.766569733619689941e+00,1.766410946846008301e+00,1.766252160072326660e+00,1.766093492507934570e+00,1.765934824943542480e+00,1.765776038169860840e+00,1.765617370605468750e+00,1.765458703041076660e+00,1.765300035476684570e+00,1.765141606330871582e+00
1.607564806938171387e+00,1.607433438301086426e+00,1.607301831245422363e+00,1.607170343399047852e+00,1.607038855552673340e+00,1.606907486915588379e+00,1.606776237487792969e+00,1.606644749641418457e+00,1.606513381004333496e+00,1.606382012367248535e+00,1.606250643730163574e+00,1.606119394302368164e+00,1.605988264083862305e+00,1.605857014656066895e+00,1.605725646018981934e+00,1.605594515800476074e+00,1.605463266372680664e+00,1.605332255363464355e+00,1.605201005935668945e+00,1.605069875717163086e+00,1.604938745498657227e+00,1.604807615280151367e+00,1.604676604270935059e+00,1.604545712471008301e+00,1.604414582252502441e+00,1.604283571243286133e+00,1.604152560234069824e+00,1.604021668434143066e+00,1.603890895843505859e+00,1.603759884834289551e+00,1.603628993034362793e+00,1.603498101234436035e+00,1.603367209434509277e+00,1.603236436843872070e+00,1.603105664253234863e+00,1.602974891662597656e+00,1.602844119071960449e+00,1.602713346481323242e+00,1.602582573890686035e+00,1.602452039718627930e+00,1.602321386337280273e+00,1.602190613746643066e+00,1.602059960365295410e+00,1.601929426193237305e+00,1.601798772811889648e+00,1.601668357849121094e+00,1.601537704467773438e+00,1.601407170295715332e+00,1.601276636123657227e+00,1.601146221160888672e+00,1.601015806198120117e+00,1.600885391235351562e+00,1.600754976272583008e+00,1.600624561309814453e+00,1.600494146347045898e+00,1.600363850593566895e+00,1.600233554840087891e+00,1.600103259086608887e+00,1.599972844123840332e+00,1.599842548370361328e+00,1.599712252616882324e+00,1.599582195281982422e+00,1.599451899528503418e+00,1.599321722984313965e+00,1.599191546440124512e+00,1.599061369895935059e+00,1.598931431770324707e+00,1.598801255226135254e+00,1.598671197891235352e+00,1.598541140556335449e+00,1.598411083221435547e+00,1.598281025886535645e+00,1.598151087760925293e+00,1.598021149635314941e+00,1.597891092300415039e+00,1.597761154174804688e+00,1.597631216049194336e+00,1.597501516342163086e+00,1.597371578216552734e+00,1.597241759300231934e+00
1.467111587524414062e+00,1.467002034187316895e+00,1.466892480850219727e+00,1.466782927513122559e+00,1.466673493385314941e+00,1.466564059257507324e+00,1.466454625129699707e+00,1.466345191001892090e+00,1.466235756874084473e+00,1.466126322746276855e+00,1.466017007827758789e+00,1.465907692909240723e+00,1.465798258781433105e+00,1.465688943862915039e+00,1.465579509735107422e+00,1.465470194816589355e+00,1.465360999107360840e+00,1.465251803398132324e+00,1.465142488479614258e+00,1.465033173561096191e+00,1.464923977851867676e+00,1.464814901351928711e+00,1.464705705642700195e+00,1.464596509933471680e+00,1.464487314224243164e+00,1.464378118515014648e+00,1.464268922805786133e+00,1.464159965515136719e+00,1.464050889015197754e+00,1.463941693305969238e+00,1.463832616806030273e+00,1.463723540306091309e+00,1.463614702224731445e+00,1.463505625724792480e+00,1.463396668434143066e+00,1.463287591934204102e+00,1.463178634643554688e+00,1.463069677352905273e+00,1.462960839271545410e+00,1.462851881980895996e+00,1.462743043899536133e+00,1.462634086608886719e+00,1.462525248527526855e+00,1.462416410446166992e+00,1.462307572364807129e+00,1.462198734283447266e+00,1.462089896202087402e+00,1.461981177330017090e+00,1.461872339248657227e+00,1.461763739585876465e+00,1.461654901504516602e+00,1.461546182632446289e+00,1.461437463760375977e+00,1.461328744888305664e+00,1.461220264434814453e+00,1.461111545562744141e+00,1.461002826690673828e+00,1.460894227027893066e+00,1.460785627365112305e+00,1.460677027702331543e+00,1.460568547248840332e+00,1.460459947586059570e+00,1.460351347923278809e+00,1.460242867469787598e+00,1.460134267807006836e+00,1.460025906562805176e+00,1.459917426109313965e+00,1.459808945655822754e+00,1.459700465202331543e+00,1.459591984748840332e+00,1.459483623504638672e+00,1.459375262260437012e+00,1.459266901016235352e+00,1.459158539772033691e+00,1.459050178527832031e+00,1.458941817283630371e+00,1.458833575248718262e+00,1.458725214004516602e+00,1.458616971969604492e+00,1.458508610725402832e+00
1.349229097366333008e+00,1.349136471748352051e+00,1.349043846130371094e+00,1.348951220512390137e+00,1.348858594894409180e+00,1.348766088485717773e+00,1.348673462867736816e+00,1.348580837249755859e+00,1.348488330841064453e+00,1.348395824432373047e+00,1.348303318023681641e+00,1.348210811614990234e+00,1.348118305206298828e+00,1.348025798797607422e+00,1.347933411598205566e+00,1.347840905189514160e+00,1.347748398780822754e+00,1.347656011581420898e+00,1.347563505172729492e+00,1.347471117973327637e+00,1.347378849983215332e+00,1.347286462783813477e+00,1.347194075584411621e+00,1.347101688385009766e+00,1.347009301185607910e+00,1.346917033195495605e+00,1.346824765205383301e+00,1.346732378005981445e+00,1.346640110015869141e+00,1.346547842025756836e+00,1.346455454826354980e+00,1.346363306045532227e+00,1.346271038055419922e+00,1.346178770065307617e+00,1.346086621284484863e+00,1.345994353294372559e+00,1.345902204513549805e+00,1.345810055732727051e+00,1.345717906951904297e+00,1.345625638961791992e+00,1.345533490180969238e+00,1.345441341400146484e+00,1.345349311828613281e+00,1.345257163047790527e+00,1.345165133476257324e+00,1.345072984695434570e+00,1.344980955123901367e+00,1.344888925552368164e+00,1.344796895980834961e+00,1.344704866409301758e+00,1.344612836837768555e+00,1.344520807266235352e+00,1.344428777694702148e+00,1.344336867332458496e+00,1.344244837760925293e+00,1.344152927398681641e+00,1.344060897827148438e+00,1.343968987464904785e+00,1.343877196311950684e+00,1.343785285949707031e+00,1.343693375587463379e+00,1.343601465225219727e+00,1.343509554862976074e+00,1.343417644500732422e+00,1.343325853347778320e+00,1.343234062194824219e+00,1.343142271041870117e+00,1.343050360679626465e+00,1.342958569526672363e+00,1.342866897583007812e+00,1.342775106430053711e+00,1.342683315277099609e+00,1.342591524124145508e+00,1.342499852180480957e+00,1.342408061027526855e+00,1.342316508293151855e+00,1.342224717140197754e+00,1.342133045196533203e+00,1.342041373252868652e+00,1.341949701309204102e+00
1.248881459236145020e+00,1.248802065849304199e+00,1.248722791671752930e+00,1.248643398284912109e+00,1.248564004898071289e+00,1.248484730720520020e+00,1.248405337333679199e+00,1.248326063156127930e+00,1.248246788978576660e+00,1.248167514801025391e+00,1.248088240623474121e+00,1.248008966445922852e+00,1.247929692268371582e+00,1.247850418090820312e+00,1.247771263122558594e+00,1.247691988945007324e+00,1.247612714767456055e+00,1.247533559799194336e+00,1.247454404830932617e+00,1.247375130653381348e+00,1.247295975685119629e+00,1.247216820716857910e+00,1.247137665748596191e+00,1.247058391571044922e+00,1.246979355812072754e+00,1.246900200843811035e+00,1.246821045875549316e+00,1.246742010116577148e+00,1.246662855148315430e+00,1.246583819389343262e+00,1.246504783630371094e+00,1.246425628662109375e+00,1.246346592903137207e+00,1.246267557144165039e+00,1.246188521385192871e+00,1.246109485626220703e+00,1.246030449867248535e+00,1.245951414108276367e+00,1.245872378349304199e+00,1.245793461799621582e+00,1.245714545249938965e+00,1.245635509490966797e+00,1.245556592941284180e+00,1.245477557182312012e+00,1.245398640632629395e+00,1.245319724082946777e+00,1.245240807533264160e+00,1.245161890983581543e+00,1.245082974433898926e+00,1.245004057884216309e+00,1.244925260543823242e+00,1.244846463203430176e+00,1.244767546653747559e+00,1.244688630104064941e+00,1.244609832763671875e+00,1.244530916213989258e+00,1.244452118873596191e+00,1.244373440742492676e+00,1.244294643402099609e+00,1.244215846061706543e+00,1.244137048721313477e+00,1.244058251380920410e+00,1.243979573249816895e+00,1.243900775909423828e+00,1.243821978569030762e+00,1.243743300437927246e+00,1.243664503097534180e+00,1.243585824966430664e+00,1.243507146835327148e+00,1.243428468704223633e+00,1.243349790573120117e+00,1.243271112442016602e+00,1.243192434310913086e+00,1.243113875389099121e+00,1.243035197257995605e+00,1.242956519126892090e+00,1.242877960205078125e+00,1.242799282073974609e+00,1.242720723152160645e+00,1.242642164230346680e+00
1.162427067756652832e+00,1.162358283996582031e+00,1.162289619445800781e+00,1.162220835685729980e+00,1.162152051925659180e+00,1.162083268165588379e+00,1.162014603614807129e+00,1.161945939064025879e+00,1.161877155303955078e+00,1.161808490753173828e+00,1.161739826202392578e+00,1.161671042442321777e+00,1.161602497100830078e+00,1.161533832550048828e+00,1.161465167999267578e+00,1.161396503448486328e+00,1.161327838897705078e+00,1.161259293556213379e+00,1.161190629005432129e+00,1.161121964454650879e+00,1.161053299903869629e+00,1.160984754562377930e+00,1.160916090011596680e+00,1.160847663879394531e+00,1.160778999328613281e+00,1.160710453987121582e+00,1.160641908645629883e+00,1.160573244094848633e+00,1.160504817962646484e+00,1.160436272621154785e+00,1.160367727279663086e+00,1.160299181938171387e+00,1.160230636596679688e+00,1.160162091255187988e+00,1.160093665122985840e+00,1.160025238990783691e+00,1.159956693649291992e+00,1.159888267517089844e+00,1.159819722175598145e+00,1.159751415252685547e+00,1.159682869911193848e+00,1.159614443778991699e+00,1.159546017646789551e+00,1.159477591514587402e+00,1.159409165382385254e+00,1.159340739250183105e+00,1.159272432327270508e+00,1.159204006195068359e+00,1.159135580062866211e+00,1.159067153930664062e+00,1.158998847007751465e+00,1.158930540084838867e+00,1.158862113952636719e+00,1.158793807029724121e+00,1.158725380897521973e+00,1.158657193183898926e+00,1.158588886260986328e+00,1.158520460128784180e+00,1.158452153205871582e+00,1.158383846282958984e+00,1.158315658569335938e+00,1.158247351646423340e+00,1.158179163932800293e+00,1.158110857009887695e+00,1.158042550086975098e+00,1.157974362373352051e+00,1.157906174659729004e+00,1.157837867736816406e+00,1.157769680023193359e+00,1.157701492309570312e+00,1.157633185386657715e+00,1.157564997673034668e+00,1.157496929168701172e+00,1.157428741455078125e+00,1.157360553741455078e+00,1.157292366027832031e+00,1.157224178314208984e+00,1.157156109809875488e+00,1.157087922096252441e+00,1.157019734382629395e+00
1.087167382240295410e+00,1.087107181549072266e+00,1.087047100067138672e+00,1.086986899375915527e+00,1.086926817893981934e+00,1.086866736412048340e+00,1.086806654930114746e+00,1.086746454238891602e+00,1.086686372756958008e+00,1.086626291275024414e+00,1.086566209793090820e+00,1.086506128311157227e+00,1.086446046829223633e+00,1.086385965347290039e+00,1.086325883865356445e+00,1.086265802383422852e+00,1.086205840110778809e+00,1.086145758628845215e+00,1.086085796356201172e+00,1.086025714874267578e+00,1.085965633392333984e+00,1.085905671119689941e+00,1.085845708847045898e+00,1.085785627365112305e+00,1.085725665092468262e+00,1.085665702819824219e+00,1.085605740547180176e+00,1.085545778274536133e+00,1.085485816001892090e+00,1.085425853729248047e+00,1.085365891456604004e+00,1.085305929183959961e+00,1.085245966911315918e+00,1.085186004638671875e+00,1.085126161575317383e+00,1.085066199302673340e+00,1.085006237030029297e+00,1.084946393966674805e+00,1.084886550903320312e+00,1.084826588630676270e+00,1.084766745567321777e+00,1.084706783294677734e+00,1.084646940231323242e+00,1.084587097167968750e+00,1.084527254104614258e+00,1.084467291831970215e+00,1.084407448768615723e+00,1.084347605705261230e+00,1.084287762641906738e+00,1.084228038787841797e+00,1.084168195724487305e+00,1.084108352661132812e+00,1.084048509597778320e+00,1.083988666534423828e+00,1.083928942680358887e+00,1.083869218826293945e+00,1.083809375762939453e+00,1.083749651908874512e+00,1.083689808845520020e+00,1.083630084991455078e+00,1.083570361137390137e+00,1.083510518074035645e+00,1.083450794219970703e+00,1.083391070365905762e+00,1.083331346511840820e+00,1.083271622657775879e+00,1.083211898803710938e+00,1.083152174949645996e+00,1.083092451095581055e+00,1.083032727241516113e+00,1.082973122596740723e+00,1.082913398742675781e+00,1.082853794097900391e+00,1.082794070243835449e+00,1.082734346389770508e+00,1.082674741744995117e+00,1.082615137100219727e+00,1.082555532455444336e+00,1.082495808601379395e+00,1.082436203956604004e+00
1.021060228347778320e+00,1.021007180213928223e+00,1.020954132080078125e+00,1.020901203155517578e+00,1.020848155021667480e+00,1.020795106887817383e+00,1.020742058753967285e+00,1.020689010620117188e+00,1.020635962486267090e+00,1.020583033561706543e+00,1.020529985427856445e+00,1.020476937294006348e+00,1.020424008369445801e+00,1.020370960235595703e+00,1.020318031311035156e+00,1.020265102386474609e+00,1.020212054252624512e+00,1.020159125328063965e+00,1.020106077194213867e+00,1.020053148269653320e+00,1.020000219345092773e+00,1.019947290420532227e+00,1.019894361495971680e+00,1.019841432571411133e+00,1.019788503646850586e+00,1.019735574722290039e+00,1.019682645797729492e+00,1.019629716873168945e+00,1.019576787948608398e+00,1.019523859024047852e+00,1.019471049308776855e+00,1.019418120384216309e+00,1.019365310668945312e+00,1.019312381744384766e+00,1.019259452819824219e+00,1.019206643104553223e+00,1.019153833389282227e+00,1.019100904464721680e+00,1.019048094749450684e+00,1.018995165824890137e+00,1.018942356109619141e+00,1.018889546394348145e+00,1.018836736679077148e+00,1.018783926963806152e+00,1.018731117248535156e+00,1.018678307533264160e+00,1.018625497817993164e+00,1.018572688102722168e+00,1.018519878387451172e+00,1.018467068672180176e+00,1.018414258956909180e+00,1.018361449241638184e+00,1.018308758735656738e+00,1.018255949020385742e+00,1.018203258514404297e+00,1.018150448799133301e+00,1.018097639083862305e+00,1.018044948577880859e+00,1.017992258071899414e+00,1.017939448356628418e+00,1.017886757850646973e+00,1.017833948135375977e+00,1.017781257629394531e+00,1.017728567123413086e+00,1.017675876617431641e+00,1.017623186111450195e+00,1.017570495605468750e+00,1.017517805099487305e+00,1.017465114593505859e+00,1.017412424087524414e+00,1.017359733581542969e+00,1.017307043075561523e+00,1.017254352569580078e+00,1.017201662063598633e+00,1.017149090766906738e+00,1.017096400260925293e+00,1.017043828964233398e+00,1.016991138458251953e+00,1.016938447952270508e+00,1.016885876655578613e+00
9.625319242477416992e-01,9.624847769737243652e-01,9.624376296997070312e-01,9.623904228210449219e-01,9.623432755470275879e-01,9.622961878776550293e-01,9.622490406036376953e-01,9.622018933296203613e-01,9.621548652648925781e-01,9.621077775955200195e-01,9.620606303215026855e-01,9.620135426521301270e-01,9.619664549827575684e-01,9.619193673133850098e-01,9.618722200393676758e-01,9.618251323699951172e-01,9.617780447006225586e-01,9.617309570312500000e-01,9.616839885711669922e-01,9.616369605064392090e-01,9.615898728370666504e-01,9.615427851676940918e-01,9.614957571029663086e-01,9.614486694335937500e-01,9.614016413688659668e-01,9.613546133041381836e-01,9.613075852394104004e-01,9.612604975700378418e-01,9.612134695053100586e-01,9.611665606498718262e-01,9.611195325851440430e-01,9.610725045204162598e-01,9.610255360603332520e-01,9.609785079956054688e-01,9.609314799308776855e-01,9.608845114707946777e-01,9.608374834060668945e-01,9.607905149459838867e-01,9.607435464859008789e-01,9.606965780258178711e-01,9.606496691703796387e-01,9.606027007102966309e-01,9.605557322502136230e-01,9.605087637901306152e-01,9.604617953300476074e-01,9.604148864746093750e-01,9.603679180145263672e-01,9.603209495544433594e-01,9.602740406990051270e-01,9.602270722389221191e-01,9.601801633834838867e-01,9.601333737373352051e-01,9.600864052772521973e-01,9.600394964218139648e-01,9.599925875663757324e-01,9.599456787109375000e-01,9.598987698554992676e-01,9.598518610000610352e-01,9.598049521446228027e-01,9.597581028938293457e-01,9.597111940383911133e-01,9.596643447875976562e-01,9.596175551414489746e-01,9.595707058906555176e-01,9.595237970352172852e-01,9.594769477844238281e-01,9.594300985336303711e-01,9.593832492828369141e-01,9.593364000320434570e-01,9.592895507812500000e-01,9.592427015304565430e-01,9.591958522796630859e-01,9.591490626335144043e-01,9.591023325920104980e-01,9.590554833412170410e-01,9.590086936950683594e-01,9.589618444442749023e-01,9.589150547981262207e-01,9.588682651519775391e-01,9.588214755058288574e-01
9.103495478630065918e-01,9.103073477745056152e-01,9.102652072906494141e-01,9.102230072021484375e-01,9.101808667182922363e-01,9.101386666297912598e-01,9.100965857505798340e-01,9.100544452667236328e-01,9.100123047828674316e-01,9.099701642990112305e-01,9.099280238151550293e-01,9.098858237266540527e-01,9.098436832427978516e-01,9.098016023635864258e-01,9.097594618797302246e-01,9.097173213958740234e-01,9.096751809120178223e-01,9.096331596374511719e-01,9.095910787582397461e-01,9.095489382743835449e-01,9.095068573951721191e-01,9.094647169113159180e-01,9.094226360321044922e-01,9.093805551528930664e-01,9.093384146690368652e-01,9.092963337898254395e-01,9.092542529106140137e-01,9.092121720314025879e-01,9.091702103614807129e-01,9.091281294822692871e-01,9.090860486030578613e-01,9.090439677238464355e-01,9.090019464492797852e-01,9.089598655700683594e-01,9.089178442955017090e-01,9.088757634162902832e-01,9.088337421417236328e-01,9.087916612625122070e-01,9.087496399879455566e-01,9.087077379226684570e-01,9.086656570434570312e-01,9.086236357688903809e-01,9.085816144943237305e-01,9.085395932197570801e-01,9.084975719451904297e-01,9.084556102752685547e-01,9.084135890007019043e-01,9.083715677261352539e-01,9.083296060562133789e-01,9.082875847816467285e-01,9.082456827163696289e-01,9.082037210464477539e-01,9.081616997718811035e-01,9.081197381019592285e-01,9.080777764320373535e-01,9.080358147621154785e-01,9.079938530921936035e-01,9.079518914222717285e-01,9.079099297523498535e-01,9.078679680824279785e-01,9.078260064125061035e-01,9.077841043472290039e-01,9.077422022819519043e-01,9.077002406120300293e-01,9.076583385467529297e-01,9.076163768768310547e-01,9.075744748115539551e-01,9.075325131416320801e-01,9.074906110763549805e-01,9.074487090110778809e-01,9.074067473411560059e-01,9.073648452758789062e-01,9.073230624198913574e-01,9.072811603546142578e-01,9.072392582893371582e-01,9.071973562240600586e-01,9.071554541587829590e-01,9.071135520935058594e-01,9.070717096328735352e-01,9.070298075675964355e-01
8.635342121124267578e-01,8.634962439537048340e-01,8.634582757949829102e-01,8.634203672409057617e-01,8.633823990821838379e-01,8.633445501327514648e-01,8.633066415786743164e-01,8.632686734199523926e-01,8.632307648658752441e-01,8.631927967071533203e-01,8.631548881530761719e-01,8.631169795989990234e-01,8.630790710449218750e-01,8.630411624908447266e-01,8.630032539367675781e-01,8.629653453826904297e-01,8.629274964332580566e-01,8.628895878791809082e-01,8.628516793251037598e-01,8.628138303756713867e-01,8.627759218215942383e-01,8.627380132675170898e-01,8.627001643180847168e-01,8.626622557640075684e-01,8.626243472099304199e-01,8.625864982604980469e-01,8.625486493110656738e-01,8.625108599662780762e-01,8.624729514122009277e-01,8.624351024627685547e-01,8.623972535133361816e-01,8.623594045639038086e-01,8.623215556144714355e-01,8.622837066650390625e-01,8.622458577156066895e-01,8.622080087661743164e-01,8.621701598167419434e-01,8.621323108673095703e-01,8.620945811271667480e-01,8.620567321777343750e-01,8.620189428329467773e-01,8.619810938835144043e-01,8.619433045387268066e-01,8.619054555892944336e-01,8.618676662445068359e-01,8.618298768997192383e-01,8.617920279502868652e-01,8.617542386054992676e-01,8.617164492607116699e-01,8.616787195205688477e-01,8.616409301757812500e-01,8.616031408309936523e-01,8.615653514862060547e-01,8.615275621414184570e-01,8.614898324012756348e-01,8.614520430564880371e-01,8.614142537117004395e-01,8.613764643669128418e-01,8.613387346267700195e-01,8.613009452819824219e-01,8.612632751464843750e-01,8.612255454063415527e-01,8.611877560615539551e-01,8.611500263214111328e-01,8.611122965812683105e-01,8.610745072364807129e-01,8.610367774963378906e-01,8.609990477561950684e-01,8.609613180160522461e-01,8.609235882759094238e-01,8.608858585357666016e-01,8.608482480049133301e-01,8.608105182647705078e-01,8.607727885246276855e-01,8.607350587844848633e-01,8.606973886489868164e-01,8.606596589088439941e-01,8.606219887733459473e-01,8.605842590332031250e-01,8.605465888977050781e-01
8.212984204292297363e-01,8.212640881538391113e-01,8.212297558784484863e-01,8.211954832077026367e-01,8.211611509323120117e-01,8.211268186569213867e-01,8.210925459861755371e-01,8.210582137107849121e-01,8.210238814353942871e-01,8.209895491600036621e-01,8.209552764892578125e-01,8.209209442138671875e-01,8.208866715431213379e-01,8.208523392677307129e-01,8.208181262016296387e-01,8.207838535308837891e-01,8.207495808601379395e-01,8.207153081893920898e-01,8.206809759140014648e-01,8.206467032432556152e-01,8.206124305725097656e-01,8.205781579017639160e-01,8.205438852310180664e-01,8.205096125602722168e-01,8.204753398895263672e-01,8.204411864280700684e-01,8.204069137573242188e-01,8.203726410865783691e-01,8.203383684158325195e-01,8.203041553497314453e-01,8.202698826789855957e-01,8.202356696128845215e-01,8.202013969421386719e-01,8.201671838760375977e-01,8.201329112052917480e-01,8.200986981391906738e-01,8.200645446777343750e-01,8.200302720069885254e-01,8.199960589408874512e-01,8.199618458747863770e-01,8.199276328086853027e-01,8.198934197425842285e-01,8.198592066764831543e-01,8.198249936103820801e-01,8.197907805442810059e-01,8.197565674781799316e-01,8.197223544120788574e-01,8.196882009506225586e-01,8.196540474891662598e-01,8.196198344230651855e-01,8.195856213569641113e-01,8.195514678955078125e-01,8.195172548294067383e-01,8.194831013679504395e-01,8.194488883018493652e-01,8.194147348403930664e-01,8.193805217742919922e-01,8.193463683128356934e-01,8.193122744560241699e-01,8.192781209945678711e-01,8.192439079284667969e-01,8.192097544670104980e-01,8.191756010055541992e-01,8.191414475440979004e-01,8.191072940826416016e-01,8.190731406211853027e-01,8.190389871597290039e-01,8.190048336982727051e-01,8.189707398414611816e-01,8.189366459846496582e-01,8.189024925231933594e-01,8.188683986663818359e-01,8.188342452049255371e-01,8.188001513481140137e-01,8.187659978866577148e-01,8.187319040298461914e-01,8.186977505683898926e-01,8.186636567115783691e-01,8.186295032501220703e-01,8.185954093933105469e-01
