2.029453754425048828e+00,2.029453992843627930e+00,2.029454231262207031e+00,2.029454469680786133e+00,2.029454469680786133e+00,2.029454469680786133e+00,2.029454708099365234e+00,2.029454946517944336e+00,2.029455184936523438e+00,2.029455423355102539e+00,2.029455423355102539e+00,2.029455661773681641e+00,2.029455900192260742e+00,2.029456138610839844e+00,2.029456377029418945e+00,2.029456615447998047e+00,2.029456615447998047e+00,2.029456853866577148e+00,2.029457330703735352e+00,2.029457330703735352e+00,2.029457569122314453e+00,2.029457807540893555e+00,2.029458045959472656e+00,2.029458284378051758e+00,8.711941242218017578e-01,8.628870844841003418e-01,8.601434826850891113e-01,8.569044470787048340e-01,8.553241491317749023e-01,8.561671972274780273e-01,8.570118546485900879e-01,8.577166795730590820e-01,8.600288629531860352e-01,8.784078955650329590e-01,8.989388346672058105e-01,9.144461750984191895e-01,9.749855399131774902e-01,1.034291386604309082e+00,1.051374554634094238e+00,1.072426199913024902e+00,2.029461622238159180e+00,2.029461860656738281e+00,2.029462099075317383e+00,2.029462337493896484e+00,2.029462575912475586e+00,2.029462814331054688e+00,2.029462814331054688e+00,2.029463052749633789e+00,2.029463291168212891e+00,2.029463529586791992e+00,2.029463768005371094e+00,2.029464006423950195e+00,2.029464006423950195e+00,2.029464244842529297e+00,2.029464483261108398e+00,2.029464721679687500e+00,2.029464960098266602e+00,2.029465198516845703e+00,2.029465198516845703e+00,2.029465675354003906e+00,2.029465913772583008e+00,2.029465913772583008e+00,2.029466152191162109e+00,2.029466390609741211e+00,2.029466629028320312e+00,2.029466867446899414e+00,2.029467105865478516e+00,2.029467344284057617e+00,2.029467344284057617e+00,2.029467582702636719e+00,2.029467821121215820e+00,2.029468059539794922e+00,2.029468297958374023e+00,2.029468536376953125e+00,2.029468536376953125e+00,2.029468774795532227e+00,2.029469013214111328e+00,2.029469251632690430e+00,2.029469490051269531e+00,2.029469728469848633e+00
2.029441118240356445e+00,2.029441356658935547e+00,2.029441356658935547e+00,2.029441595077514648e+00,2.029441833496093750e+00,2.029442071914672852e+00,2.029442310333251953e+00,2.029442548751831055e+00,2.029442548751831055e+00,2.029442787170410156e+00,2.029443025588989258e+00,2.029443264007568359e+00,2.029443502426147461e+00,2.029443740844726562e+00,2.029443740844726562e+00,2.029443740844726562e+00,2.029443979263305664e+00,2.029444217681884766e+00,2.029444456100463867e+00,2.029444694519042969e+00,2.029444932937622070e+00,2.029445171356201172e+00,2.029445409774780273e+00,2.029445648193359375e+00,8.718725442886352539e-01,8.644152283668518066e-01,8.619571924209594727e-01,8.587043881416320801e-01,8.571969866752624512e-01,8.580437302589416504e-01,8.588920235633850098e-01,8.593726158142089844e-01,8.638581037521362305e-01,8.820975422859191895e-01,9.028032422065734863e-01,9.392063617706298828e-01,1.034261226654052734e+00,1.051120996475219727e+00,1.068641424179077148e+00,2.029448747634887695e+00,2.029448986053466797e+00,2.029449224472045898e+00,2.029449462890625000e+00,2.029449701309204102e+00,2.029449701309204102e+00,2.029449939727783203e+00,2.029450178146362305e+00,2.029450416564941406e+00,2.029450654983520508e+00,2.029450893402099609e+00,2.029451131820678711e+00,2.029451131820678711e+00,2.029451370239257812e+00,2.029451608657836914e+00,2.029451847076416016e+00,2.029452085494995117e+00,2.029452323913574219e+00,2.029452323913574219e+00,2.029452562332153320e+00,2.029452800750732422e+00,2.029453039169311523e+00,2.029453277587890625e+00,2.029453516006469727e+00,2.029453754425048828e+00,2.029453992843627930e+00,2.029454231262207031e+00,2.029454231262207031e+00,2.029454469680786133e+00,2.029454708099365234e+00,2.029454946517944336e+00,2.029455184936523438e+00,2.029455423355102539e+00,2.029455423355102539e+00,2.029455661773681641e+00,2.029455900192260742e+00,2.029456138610839844e+00,2.029456377029418945e+00,2.029456615447998047e+00,2.029456615447998047e+00,2.029456853866577148e+00
2.029428243637084961e+00,2.029428482055664062e+00,2.029428720474243164e+00,2.029428958892822266e+00,2.029429197311401367e+00,2.029429435729980469e+00,2.029429674148559570e+00,2.029429674148559570e+00,2.029429912567138672e+00,2.029430150985717773e+00,2.029430389404296875e+00,2.029430627822875977e+00,2.029430866241455078e+00,2.029430866241455078e+00,2.029431104660034180e+00,2.029431343078613281e+00,2.029431581497192383e+00,2.029431819915771484e+00,2.029432058334350586e+00,2.029432058334350586e+00,2.029432296752929688e+00,2.029432773590087891e+00,2.029432773590087891e+00,2.029432773590087891e+00,8.725519776344299316e-01,8.659487962722778320e-01,8.634840250015258789e-01,8.605120182037353516e-01,8.590780496597290039e-01,8.599284887313842773e-01,8.605571985244750977e-01,8.610349297523498535e-01,8.677215576171875000e-01,8.858182430267333984e-01,9.067010879516601562e-01,1.035210847854614258e+00,1.052586436271667480e+00,1.070555210113525391e+00,1.168817639350891113e+00,2.029436111450195312e+00,2.029436349868774414e+00,2.029436349868774414e+00,2.029436826705932617e+00,2.029437065124511719e+00,2.029437065124511719e+00,2.029437303543090820e+00,2.029437541961669922e+00,2.029437780380249023e+00,2.029438018798828125e+00,2.029438257217407227e+00,2.029438257217407227e+00,2.029438495635986328e+00,2.029438734054565430e+00,2.029438972473144531e+00,2.029439210891723633e+00,2.029439210891723633e+00,2.029439449310302734e+00,2.029439687728881836e+00,2.029439926147460938e+00,2.029440164566040039e+00,2.029440402984619141e+00,2.029440402984619141e+00,2.029440879821777344e+00,2.029441118240356445e+00,2.029441356658935547e+00,2.029441356658935547e+00,2.029441595077514648e+00,2.029441833496093750e+00,2.029442071914672852e+00,2.029442310333251953e+00,2.029442548751831055e+00,2.029442548751831055e+00,2.029442787170410156e+00,2.029443025588989258e+00,2.029443264007568359e+00,2.029443502426147461e+00,2.029443740844726562e+00,2.029443740844726562e+00,2.029443979263305664e+00,2.029444217681884766e+00
2.029415607452392578e+00,2.029415845870971680e+00,2.029415845870971680e+00,2.029416322708129883e+00,2.029416561126708984e+00,2.029416561126708984e+00,2.029416799545288086e+00,2.029417037963867188e+00,2.029417276382446289e+00,2.029417514801025391e+00,2.029417753219604492e+00,2.029417991638183594e+00,2.029417991638183594e+00,2.029418230056762695e+00,2.029418468475341797e+00,2.029418706893920898e+00,2.029418945312500000e+00,2.029419183731079102e+00,2.029419183731079102e+00,2.029419422149658203e+00,2.029419660568237305e+00,2.029419898986816406e+00,2.029420137405395508e+00,2.029420375823974609e+00,8.732324838638305664e-01,8.674876689910888672e-01,8.650142550468444824e-01,8.623271584510803223e-01,8.609673976898193359e-01,8.617451786994934082e-01,8.622242212295532227e-01,8.627036809921264648e-01,8.716197609901428223e-01,8.896523118019104004e-01,9.106327295303344727e-01,1.052323579788208008e+00,1.072006583213806152e+00,1.091135978698730469e+00,1.173011660575866699e+00,2.029423236846923828e+00,2.029423475265502930e+00,2.029423713684082031e+00,2.029423952102661133e+00,2.029424190521240234e+00,2.029424428939819336e+00,2.029424667358398438e+00,2.029424905776977539e+00,2.029425144195556641e+00,2.029425382614135742e+00,2.029425382614135742e+00,2.029425621032714844e+00,2.029425859451293945e+00,2.029426097869873047e+00,2.029426336288452148e+00,2.029426574707031250e+00,2.029426574707031250e+00,2.029426813125610352e+00,2.029427051544189453e+00,2.029427289962768555e+00,2.029427528381347656e+00,2.029427528381347656e+00,2.029427766799926758e+00,2.029428005218505859e+00,2.029428243637084961e+00,2.029428482055664062e+00,2.029428720474243164e+00,2.029428958892822266e+00,2.029429197311401367e+00,2.029429435729980469e+00,2.029429435729980469e+00,2.029429674148559570e+00,2.029429912567138672e+00,2.029430150985717773e+00,2.029430389404296875e+00,2.029430627822875977e+00,2.029430627822875977e+00,2.029430866241455078e+00,2.029431104660034180e+00,2.029431343078613281e+00,2.029431581497192383e+00
2.029402971267700195e+00,2.029402971267700195e+00,2.029403209686279297e+00,2.029403448104858398e+00,2.029403686523437500e+00,2.029403924942016602e+00,2.029404163360595703e+00,2.029404401779174805e+00,2.029404640197753906e+00,2.029404878616333008e+00,2.029404878616333008e+00,2.029405117034912109e+00,2.029405355453491211e+00,2.029405593872070312e+00,2.029405832290649414e+00,2.029406070709228516e+00,2.029406070709228516e+00,2.029406309127807617e+00,2.029406547546386719e+00,2.029406785964965820e+00,2.029407024383544922e+00,2.029407262802124023e+00,2.029407262802124023e+00,2.029407501220703125e+00,8.739141225814819336e-01,8.690322637557983398e-01,8.665499091148376465e-01,8.640817403793334961e-01,8.628650903701782227e-01,8.634167909622192383e-01,8.638975620269775391e-01,8.643789291381835938e-01,8.755531311035156250e-01,8.937504887580871582e-01,9.145986437797546387e-01,1.068923115730285645e+00,1.089096903800964355e+00,1.164232134819030762e+00,1.181620240211486816e+00,2.029410839080810547e+00,2.029411077499389648e+00,2.029411077499389648e+00,2.029411315917968750e+00,2.029411554336547852e+00,2.029411792755126953e+00,2.029412031173706055e+00,2.029412269592285156e+00,2.029412269592285156e+00,2.029412508010864258e+00,2.029412746429443359e+00,2.029412984848022461e+00,2.029413223266601562e+00,2.029413461685180664e+00,2.029413461685180664e+00,2.029413700103759766e+00,2.029413938522338867e+00,2.029414176940917969e+00,2.029414415359497070e+00,2.029414653778076172e+00,2.029414653778076172e+00,2.029414892196655273e+00,2.029415130615234375e+00,2.029415369033813477e+00,2.029415607452392578e+00,2.029415845870971680e+00,2.029416084289550781e+00,2.029416322708129883e+00,2.029416561126708984e+00,2.029416561126708984e+00,2.029416799545288086e+00,2.029417037963867188e+00,2.029417276382446289e+00,2.029417514801025391e+00,2.029417753219604492e+00,2.029417753219604492e+00,2.029417991638183594e+00,2.029418230056762695e+00,2.029418468475341797e+00,2.029418706893920898e+00,2.029418945312500000e+00
2.029390096664428711e+00,2.029390335083007812e+00,2.029390573501586914e+00,2.029390811920166016e+00,2.029391050338745117e+00,2.029391050338745117e+00,2.029391527175903320e+00,2.029391765594482422e+00,2.029391765594482422e+00,2.029392004013061523e+00,2.029392242431640625e+00,2.029392480850219727e+00,2.029392719268798828e+00,2.029392957687377930e+00,2.029393196105957031e+00,2.029393196105957031e+00,2.029393434524536133e+00,2.029393672943115234e+00,2.029393911361694336e+00,2.029394149780273438e+00,2.029394388198852539e+00,2.029394388198852539e+00,2.029394626617431641e+00,2.029394865036010742e+00,8.745967745780944824e-01,8.705821037292480469e-01,8.680910468101501465e-01,8.656141161918640137e-01,8.646125197410583496e-01,8.650947809219360352e-01,8.655774593353271484e-01,8.660607933998107910e-01,8.795222043991088867e-01,8.978866338729858398e-01,9.185991883277893066e-01,1.085024356842041016e+00,1.169303417205810547e+00,1.170438885688781738e+00,2.029397964477539062e+00,2.029398202896118164e+00,2.029398441314697266e+00,2.029398679733276367e+00,2.029398679733276367e+00,2.029398918151855469e+00,2.029399156570434570e+00,2.029399394989013672e+00,2.029399633407592773e+00,2.029399871826171875e+00,2.029400110244750977e+00,2.029400348663330078e+00,2.029400348663330078e+00,2.029400587081909180e+00,2.029400587081909180e+00,2.029400825500488281e+00,2.029401063919067383e+00,2.029401302337646484e+00,2.029401540756225586e+00,2.029401779174804688e+00,2.029401779174804688e+00,2.029402017593383789e+00,2.029402256011962891e+00,2.029402494430541992e+00,2.029402732849121094e+00,2.029402971267700195e+00,2.029402971267700195e+00,2.029403209686279297e+00,2.029403686523437500e+00,2.029403686523437500e+00,2.029403924942016602e+00,2.029404163360595703e+00,2.029404401779174805e+00,2.029404640197753906e+00,2.029404878616333008e+00,2.029404878616333008e+00,2.029405117034912109e+00,2.029405355453491211e+00,2.029405593872070312e+00,2.029405832290649414e+00,2.029405832290649414e+00,2.029406070709228516e+00
2.029377460479736328e+00,2.029377698898315430e+00,2.029377937316894531e+00,2.029378175735473633e+00,2.029378175735473633e+00,2.029378414154052734e+00,2.029378890991210938e+00,2.029378890991210938e+00,2.029379129409790039e+00,2.029379367828369141e+00,2.029379606246948242e+00,2.029379844665527344e+00,2.029380083084106445e+00,2.029380083084106445e+00,2.029380321502685547e+00,2.029380559921264648e+00,2.029380798339843750e+00,2.029381036758422852e+00,2.029381275177001953e+00,2.029381275177001953e+00,2.029381513595581055e+00,2.029381752014160156e+00,2.029381990432739258e+00,9.352092146873474121e-01,8.746326565742492676e-01,8.724287152290344238e-01,8.699278831481933594e-01,8.674411177635192871e-01,8.667104244232177734e-01,8.671029210090637207e-01,8.674957752227783203e-01,8.678889274597167969e-01,8.835273385047912598e-01,9.020611643791198730e-01,9.226348400115966797e-01,1.177683949470520020e+00,1.181965112686157227e+00,1.190740823745727539e+00,2.029385328292846680e+00,2.029385566711425781e+00,2.029385805130004883e+00,2.029385805130004883e+00,2.029386043548583984e+00,2.029386281967163086e+00,2.029386520385742188e+00,2.029386758804321289e+00,2.029386997222900391e+00,2.029387235641479492e+00,2.029387474060058594e+00,2.029387712478637695e+00,2.029387712478637695e+00,2.029387950897216797e+00,2.029388189315795898e+00,2.029388427734375000e+00,2.029388666152954102e+00,2.029388904571533203e+00,2.029388904571533203e+00,2.029389142990112305e+00,2.029389381408691406e+00,2.029389381408691406e+00,2.029389619827270508e+00,2.029389858245849609e+00,2.029389858245849609e+00,2.029390096664428711e+00,2.029390335083007812e+00,2.029390573501586914e+00,2.029390811920166016e+00,2.029391050338745117e+00,2.029391288757324219e+00,2.029391527175903320e+00,2.029391765594482422e+00,2.029392004013061523e+00,2.029392004013061523e+00,2.029392242431640625e+00,2.029392480850219727e+00,2.029392719268798828e+00,2.029392957687377930e+00,2.029393196105957031e+00,2.029393196105957031e+00,2.029393434524536133e+00
2.029364824295043945e+00,2.029365062713623047e+00,2.029365062713623047e+00,2.029365301132202148e+00,2.029365539550781250e+00,2.029365777969360352e+00,2.029366016387939453e+00,2.029366254806518555e+00,2.029366493225097656e+00,2.029366731643676758e+00,2.029366970062255859e+00,2.029366970062255859e+00,2.029367208480834961e+00,2.029367446899414062e+00,2.029367685317993164e+00,2.029367923736572266e+00,2.029368162155151367e+00,2.029368400573730469e+00,2.029368400573730469e+00,2.029368638992309570e+00,2.029368877410888672e+00,2.029369115829467773e+00,2.029369354248046875e+00,9.325788021087646484e-01,8.760906457901000977e-01,8.743331432342529297e-01,8.718213438987731934e-01,8.693239092826843262e-01,8.689410090446472168e-01,8.693355321884155273e-01,8.697303533554077148e-01,8.710445761680603027e-01,8.879666924476623535e-01,9.062747955322265625e-01,1.078477144241333008e+00,1.169757246971130371e+00,1.178925037384033203e+00,1.186991930007934570e+00,2.029372692108154297e+00,2.029372692108154297e+00,2.029372930526733398e+00,2.029373168945312500e+00,2.029373407363891602e+00,2.029373645782470703e+00,2.029373884201049805e+00,2.029373884201049805e+00,2.029374122619628906e+00,2.029374361038208008e+00,2.029374837875366211e+00,2.029374837875366211e+00,2.029375076293945312e+00,2.029375314712524414e+00,2.029375553131103516e+00,2.029375791549682617e+00,2.029376029968261719e+00,2.029376029968261719e+00,2.029376268386840820e+00,2.029376506805419922e+00,2.029376745223999023e+00,2.029376983642578125e+00,2.029377222061157227e+00,2.029377222061157227e+00,2.029377460479736328e+00,2.029377698898315430e+00,2.029377937316894531e+00,2.029378175735473633e+00,2.029378414154052734e+00,2.029378414154052734e+00,2.029378652572631836e+00,2.029378890991210938e+00,2.029378890991210938e+00,2.029379129409790039e+00,2.029379367828369141e+00,2.029379606246948242e+00,2.029379844665527344e+00,2.029380083084106445e+00,2.029380083084106445e+00,2.029380321502685547e+00,2.029380559921264648e+00,2.029380798339843750e+00
2.029352188110351562e+00,2.029352188110351562e+00,2.029352426528930664e+00,2.029352664947509766e+00,2.029352903366088867e+00,2.029353141784667969e+00,2.029353380203247070e+00,2.029353380203247070e+00,2.029353618621826172e+00,2.029354095458984375e+00,2.029354095458984375e+00,2.029354333877563477e+00,2.029354572296142578e+00,2.029354810714721680e+00,2.029355049133300781e+00,2.029355287551879883e+00,2.029355287551879883e+00,2.029355525970458984e+00,2.029355764389038086e+00,2.029356002807617188e+00,2.029356241226196289e+00,2.029356479644775391e+00,2.029356479644775391e+00,9.279925823211669922e-01,8.776199221611022949e-01,8.762458562850952148e-01,8.737230896949768066e-01,8.712146878242492676e-01,8.711830973625183105e-01,8.715795874595642090e-01,8.719192147254943848e-01,8.759625554084777832e-01,8.930343389511108398e-01,9.109764099121093750e-01,1.084530472755432129e+00,1.179370522499084473e+00,1.188880920410156250e+00,1.186930179595947266e+00,2.029359817504882812e+00,2.029360055923461914e+00,2.029360294342041016e+00,2.029360532760620117e+00,2.029360771179199219e+00,2.029361009597778320e+00,2.029361009597778320e+00,2.029361248016357422e+00,2.029361486434936523e+00,2.029361724853515625e+00,2.029361963272094727e+00,2.029362201690673828e+00,2.029362440109252930e+00,2.029362678527832031e+00,2.029362916946411133e+00,2.029362916946411133e+00,2.029363155364990234e+00,2.029363393783569336e+00,2.029363632202148438e+00,2.029363870620727539e+00,2.029364109039306641e+00,2.029364109039306641e+00,2.029364347457885742e+00,2.029364585876464844e+00,2.029364824295043945e+00,2.029365062713623047e+00,2.029365301132202148e+00,2.029365539550781250e+00,2.029365539550781250e+00,2.029365777969360352e+00,2.029366016387939453e+00,2.029366254806518555e+00,2.029366493225097656e+00,2.029366731643676758e+00,2.029366970062255859e+00,2.029367208480834961e+00,2.029367446899414062e+00,2.029367446899414062e+00,2.029367685317993164e+00,2.029367685317993164e+00,2.029367923736572266e+00,2.029368162155151367e+00
2.029339313507080078e+00,2.029339551925659180e+00,2.029339790344238281e+00,2.029340028762817383e+00,2.029340267181396484e+00,2.029340267181396484e+00,2.029340505599975586e+00,2.029340744018554688e+00,2.029340982437133789e+00,2.029341220855712891e+00,2.029341459274291992e+00,2.029341697692871094e+00,2.029341936111450195e+00,2.029342174530029297e+00,2.029342412948608398e+00,2.029342412948608398e+00,2.029342651367187500e+00,2.029342889785766602e+00,2.029343128204345703e+00,2.029343366622924805e+00,2.029343605041503906e+00,2.029343605041503906e+00,2.029343843460083008e+00,9.224029779434204102e-01,8.791545033454895020e-01,8.781669735908508301e-01,8.756331205368041992e-01,8.731138110160827637e-01,8.734368085861206055e-01,8.738353252410888672e-01,8.727696537971496582e-01,8.809363245964050293e-01,8.981600999832153320e-01,9.163108468055725098e-01,1.183002114295959473e+00,1.199061155319213867e+00,1.198996543884277344e+00,1.194537520408630371e+00,2.029347181320190430e+00,2.029347419738769531e+00,2.029347658157348633e+00,2.029347896575927734e+00,2.029347896575927734e+00,2.029348134994506836e+00,2.029348373413085938e+00,2.029348611831665039e+00,2.029348850250244141e+00,2.029349088668823242e+00,2.029349327087402344e+00,2.029349327087402344e+00,2.029349803924560547e+00,2.029350042343139648e+00,2.029350042343139648e+00,2.029350280761718750e+00,2.029350519180297852e+00,2.029350757598876953e+00,2.029350996017456055e+00,2.029351234436035156e+00,2.029351234436035156e+00,2.029351472854614258e+00,2.029351711273193359e+00,2.029351949691772461e+00,2.029352188110351562e+00,2.029352426528930664e+00,2.029352426528930664e+00,2.029352664947509766e+00,2.029352903366088867e+00,2.029353141784667969e+00,2.029353380203247070e+00,2.029353618621826172e+00,2.029353618621826172e+00,2.029354095458984375e+00,2.029354333877563477e+00,2.029354333877563477e+00,2.029354572296142578e+00,2.029354810714721680e+00,2.029355049133300781e+00,2.029355287551879883e+00,2.029355525970458984e+00,2.029355525970458984e+00
2.029326677322387695e+00,2.029326915740966797e+00,2.029327154159545898e+00,2.029327392578125000e+00,2.029327392578125000e+00,2.029327630996704102e+00,2.029327869415283203e+00,2.029328107833862305e+00,2.029328346252441406e+00,2.029328584671020508e+00,2.029328584671020508e+00,2.029329061508178711e+00,2.029329299926757812e+00,2.029329299926757812e+00,2.029329538345336914e+00,2.029329776763916016e+00,2.029330015182495117e+00,2.029330253601074219e+00,2.029330492019653320e+00,2.029330492019653320e+00,2.029330730438232422e+00,2.029330968856811523e+00,2.029331207275390625e+00,9.168803095817565918e-01,8.806945681571960449e-01,8.798627257347106934e-01,8.775516152381896973e-01,8.753018975257873535e-01,8.757022023200988770e-01,8.759176135063171387e-01,8.736217021942138672e-01,8.859667778015136719e-01,9.033449888229370117e-01,9.217081665992736816e-01,1.200334310531616211e+00,1.203790187835693359e+00,1.202319383621215820e+00,1.200618028640747070e+00,2.029334545135498047e+00,2.029334783554077148e+00,2.029335021972656250e+00,2.029335021972656250e+00,2.029335260391235352e+00,2.029335498809814453e+00,2.029335737228393555e+00,2.029335975646972656e+00,2.029336214065551758e+00,2.029336214065551758e+00,2.029336452484130859e+00,2.029336690902709961e+00,2.029336929321289062e+00,2.029337167739868164e+00,2.029337406158447266e+00,2.029337644577026367e+00,2.029337882995605469e+00,2.029338121414184570e+00,2.029338121414184570e+00,2.029338359832763672e+00,2.029338598251342773e+00,2.029338836669921875e+00,2.029339075088500977e+00,2.029339313507080078e+00,2.029339313507080078e+00,2.029339551925659180e+00,2.029339790344238281e+00,2.029340028762817383e+00,2.029340267181396484e+00,2.029340505599975586e+00,2.029340744018554688e+00,2.029340744018554688e+00,2.029340982437133789e+00,2.029341220855712891e+00,2.029341459274291992e+00,2.029341697692871094e+00,2.029341936111450195e+00,2.029342174530029297e+00,2.029342412948608398e+00,2.029342651367187500e+00,2.029342651367187500e+00,2.029342889785766602e+00
2.029314041137695312e+00,2.029314279556274414e+00,2.029314279556274414e+00,2.029314517974853516e+00,2.029314756393432617e+00,2.029314994812011719e+00,2.029315233230590820e+00,2.029315471649169922e+00,2.029315471649169922e+00,2.029315710067749023e+00,2.029315948486328125e+00,2.029316186904907227e+00,2.029316425323486328e+00,2.029316663742065430e+00,2.029316902160644531e+00,2.029317140579223633e+00,2.029317378997802734e+00,2.029317617416381836e+00,2.029317617416381836e+00,2.029317855834960938e+00,2.029318094253540039e+00,2.029318332672119141e+00,2.029318571090698242e+00,9.114235043525695801e-01,8.822399377822875977e-01,8.814052343368530273e-01,8.794785141944885254e-01,8.775768876075744629e-01,8.779793381690979004e-01,8.767756819725036621e-01,8.744753599166870117e-01,8.910551071166992188e-01,9.085901975631713867e-01,1.076675415039062500e+00,2.029320955276489258e+00,1.212273716926574707e+00,1.211126804351806641e+00,1.208423376083374023e+00,2.029321908950805664e+00,2.029321908950805664e+00,2.029322147369384766e+00,2.029322385787963867e+00,2.029322624206542969e+00,2.029322862625122070e+00,2.029323101043701172e+00,2.029323101043701172e+00,2.029323339462280273e+00,2.029323577880859375e+00,2.029323816299438477e+00,2.029324054718017578e+00,2.029324293136596680e+00,2.029324531555175781e+00,2.029324531555175781e+00,2.029325008392333984e+00,2.029325246810913086e+00,2.029325246810913086e+00,2.029325485229492188e+00,2.029325723648071289e+00,2.029325962066650391e+00,2.029326200485229492e+00,2.029326438903808594e+00,2.029326438903808594e+00,2.029326677322387695e+00,2.029326915740966797e+00,2.029327154159545898e+00,2.029327392578125000e+00,2.029327630996704102e+00,2.029327630996704102e+00,2.029327869415283203e+00,2.029328107833862305e+00,2.029328346252441406e+00,2.029328584671020508e+00,2.029328823089599609e+00,2.029329061508178711e+00,2.029329299926757812e+00,2.029329538345336914e+00,2.029329538345336914e+00,2.029329776763916016e+00,2.029330015182495117e+00,2.029330253601074219e+00
2.029301404953002930e+00,2.029301404953002930e+00,2.029301643371582031e+00,2.029301881790161133e+00,2.029302120208740234e+00,2.029302358627319336e+00,2.029302597045898438e+00,2.029302597045898438e+00,2.029302835464477539e+00,2.029303073883056641e+00,2.029303312301635742e+00,2.029303550720214844e+00,2.029303789138793945e+00,2.029303789138793945e+00,2.029304265975952148e+00,2.029304504394531250e+00,2.029304504394531250e+00,2.029304742813110352e+00,2.029304981231689453e+00,2.029305219650268555e+00,2.029305458068847656e+00,2.029305696487426758e+00,2.029305696487426758e+00,9.060312509536743164e-01,8.837907910346984863e-01,8.829531073570251465e-01,8.814137578010559082e-01,8.798638582229614258e-01,8.799526691436767578e-01,8.776355981826782227e-01,8.793968558311462402e-01,8.962022662162780762e-01,9.138966798782348633e-01,1.212963461875915527e+00,2.029308319091796875e+00,1.225531339645385742e+00,1.220222711563110352e+00,1.211421370506286621e+00,2.029309034347534180e+00,2.029309272766113281e+00,2.029309511184692383e+00,2.029309749603271484e+00,2.029309988021850586e+00,2.029310226440429688e+00,2.029310226440429688e+00,2.029310464859008789e+00,2.029310703277587891e+00,2.029310941696166992e+00,2.029311180114746094e+00,2.029311418533325195e+00,2.029311418533325195e+00,2.029311656951904297e+00,2.029311895370483398e+00,2.029312133789062500e+00,2.029312372207641602e+00,2.029312610626220703e+00,2.029312849044799805e+00,2.029313087463378906e+00,2.029313325881958008e+00,2.029313325881958008e+00,2.029313564300537109e+00,2.029313802719116211e+00,2.029314041137695312e+00,2.029314279556274414e+00,2.029314517974853516e+00,2.029314517974853516e+00,2.029314756393432617e+00,2.029314994812011719e+00,2.029315233230590820e+00,2.029315471649169922e+00,2.029315710067749023e+00,2.029315948486328125e+00,2.029315948486328125e+00,2.029316186904907227e+00,2.029316663742065430e+00,2.029316663742065430e+00,2.029316902160644531e+00,2.029317140579223633e+00,2.029317378997802734e+00,2.029317617416381836e+00
2.029288530349731445e+00,2.029288768768310547e+00,2.029289007186889648e+00,2.029289245605468750e+00,2.029289484024047852e+00,2.029289484024047852e+00,2.029289722442626953e+00,2.029289960861206055e+00,2.029290199279785156e+00,2.029290437698364258e+00,2.029290676116943359e+00,2.029290676116943359e+00,2.029290914535522461e+00,2.029291152954101562e+00,2.029291391372680664e+00,2.029291629791259766e+00,2.029291868209838867e+00,2.029292106628417969e+00,2.029292345046997070e+00,2.029292583465576172e+00,2.029292821884155273e+00,2.029292821884155273e+00,2.029293060302734375e+00,9.051474928855895996e-01,8.853471279144287109e-01,8.845064640045166016e-01,8.833575844764709473e-01,8.821626901626586914e-01,8.808188438415527344e-01,8.784972429275512695e-01,8.844097256660461426e-01,9.014091491699218750e-01,9.192654490470886230e-01,1.219252824783325195e+00,1.222482442855834961e+00,2.029295921325683594e+00,1.227247595787048340e+00,1.216376185417175293e+00,2.029296398162841797e+00,2.029296636581420898e+00,2.029296875000000000e+00,2.029297113418579102e+00,2.029297113418579102e+00,2.029297351837158203e+00,2.029297590255737305e+00,2.029297828674316406e+00,2.029298067092895508e+00,2.029298305511474609e+00,2.029298305511474609e+00,2.029298543930053711e+00,2.029298782348632812e+00,2.029299020767211914e+00,2.029299259185791016e+00,2.029299497604370117e+00,2.029299736022949219e+00,2.029299974441528320e+00,2.029300212860107422e+00,2.029300451278686523e+00,2.029300451278686523e+00,2.029300689697265625e+00,2.029300928115844727e+00,2.029301166534423828e+00,2.029301404953002930e+00,2.029301643371582031e+00,2.029301643371582031e+00,2.029301881790161133e+00,2.029302120208740234e+00,2.029302358627319336e+00,2.029302597045898438e+00,2.029302835464477539e+00,2.029302835464477539e+00,2.029303073883056641e+00,2.029303312301635742e+00,2.029303550720214844e+00,2.029303789138793945e+00,2.029304027557373047e+00,2.029304265975952148e+00,2.029304504394531250e+00,2.029304742813110352e+00,2.029304742813110352e+00
2.029275894165039062e+00,2.029276132583618164e+00,2.029276371002197266e+00,2.029276609420776367e+00,2.029276609420776367e+00,2.029276847839355469e+00,2.029277086257934570e+00,2.029277324676513672e+00,2.029277563095092773e+00,2.029277801513671875e+00,2.029277801513671875e+00,2.029278039932250977e+00,2.029278278350830078e+00,2.029278516769409180e+00,2.029278755187988281e+00,2.029278993606567383e+00,2.029279232025146484e+00,2.029279470443725586e+00,2.029279708862304688e+00,2.029279708862304688e+00,2.029279947280883789e+00,2.029280185699462891e+00,2.029280424118041992e+00,9.060857892036437988e-01,8.869088888168334961e-01,8.860653638839721680e-01,8.852232694625854492e-01,8.840251564979553223e-01,8.816866874694824219e-01,8.793604969978332520e-01,8.894801139831542969e-01,9.066769480705261230e-01,9.412562847137451172e-01,2.029282569885253906e+00,1.227132916450500488e+00,2.029283046722412109e+00,2.029283285140991211e+00,2.029283523559570312e+00,2.029283761978149414e+00,2.029284000396728516e+00,2.029284238815307617e+00,2.029284238815307617e+00,2.029284477233886719e+00,2.029284715652465820e+00,2.029284954071044922e+00,2.029285192489624023e+00,2.029285430908203125e+00,2.029285430908203125e+00,2.029285669326782227e+00,2.029285907745361328e+00,2.029286146163940430e+00,2.029286384582519531e+00,2.029286623001098633e+00,2.029286623001098633e+00,2.029286861419677734e+00,2.029287099838256836e+00,2.029287338256835938e+00,2.029287576675415039e+00,2.029287815093994141e+00,2.029288053512573242e+00,2.029288291931152344e+00,2.029288530349731445e+00,2.029288530349731445e+00,2.029288768768310547e+00,2.029289007186889648e+00,2.029289245605468750e+00,2.029289484024047852e+00,2.029289722442626953e+00,2.029289960861206055e+00,2.029289960861206055e+00,2.029290199279785156e+00,2.029290437698364258e+00,2.029290676116943359e+00,2.029290914535522461e+00,2.029291152954101562e+00,2.029291152954101562e+00,2.029291629791259766e+00,2.029291868209838867e+00,2.029291868209838867e+00,2.029292106628417969e+00
2.029263257980346680e+00,2.029263496398925781e+00,2.029263496398925781e+00,2.029263734817504883e+00,2.029263973236083984e+00,2.029264211654663086e+00,2.029264450073242188e+00,2.029264688491821289e+00,2.029264688491821289e+00,2.029264926910400391e+00,2.029265165328979492e+00,2.029265403747558594e+00,2.029265642166137695e+00,2.029265880584716797e+00,2.029265880584716797e+00,2.029266119003295898e+00,2.029266357421875000e+00,2.029266834259033203e+00,2.029266834259033203e+00,2.029267072677612305e+00,2.029267311096191406e+00,2.029267549514770508e+00,2.029267787933349609e+00,9.070258736610412598e-01,8.886116743087768555e-01,8.877117037773132324e-01,8.867887854576110840e-01,8.851336240768432617e-01,8.832044005393981934e-01,8.832113742828369141e-01,8.939706683158874512e-01,9.117879867553710938e-01,2.029269695281982422e+00,2.029269933700561523e+00,1.233406662940979004e+00,2.029270410537719727e+00,2.029270410537719727e+00,2.029270887374877930e+00,2.029271125793457031e+00,2.029271125793457031e+00,2.029271364212036133e+00,2.029271602630615234e+00,2.029271841049194336e+00,2.029272079467773438e+00,2.029272317886352539e+00,2.029272317886352539e+00,2.029272556304931641e+00,2.029272794723510742e+00,2.029273033142089844e+00,2.029273271560668945e+00,2.029273509979248047e+00,2.029273748397827148e+00,2.029273748397827148e+00,2.029273986816406250e+00,2.029274225234985352e+00,2.029274463653564453e+00,2.029274702072143555e+00,2.029274940490722656e+00,2.029275178909301758e+00,2.029275417327880859e+00,2.029275655746459961e+00,2.029275655746459961e+00,2.029275894165039062e+00,2.029276132583618164e+00,2.029276371002197266e+00,2.029276609420776367e+00,2.029276847839355469e+00,2.029276847839355469e+00,2.029277086257934570e+00,2.029277324676513672e+00,2.029277563095092773e+00,2.029277801513671875e+00,2.029278039932250977e+00,2.029278039932250977e+00,2.029278278350830078e+00,2.029278516769409180e+00,2.029278755187988281e+00,2.029278993606567383e+00,2.029279232025146484e+00,2.029279470443725586e+00
2.029250621795654297e+00,2.029250621795654297e+00,2.029250860214233398e+00,2.029251098632812500e+00,2.029251337051391602e+00,2.029251575469970703e+00,2.029251813888549805e+00,2.029251813888549805e+00,2.029252052307128906e+00,2.029252290725708008e+00,2.029252529144287109e+00,2.029252767562866211e+00,2.029253005981445312e+00,2.029253005981445312e+00,2.029253244400024414e+00,2.029253482818603516e+00,2.029253721237182617e+00,2.029253959655761719e+00,2.029254198074340820e+00,2.029254436492919922e+00,2.029254674911499023e+00,2.029254913330078125e+00,2.029254913330078125e+00,9.105250239372253418e-01,8.923530578613281250e-01,8.896318078041076660e-01,8.887511491775512695e-01,8.873432278633117676e-01,8.871244192123413086e-01,8.850628733634948730e-01,8.834344148635864258e-01,8.809866309165954590e-01,8.838124275207519531e-01,8.965470194816589355e-01,9.075390696525573730e-01,2.029257535934448242e+00,2.029257774353027344e+00,2.029258012771606445e+00,2.029258251190185547e+00,2.029258489608764648e+00,2.029258728027343750e+00,2.029258966445922852e+00,2.029259204864501953e+00,2.029259443283081055e+00,2.029259443283081055e+00,2.029259681701660156e+00,2.029259920120239258e+00,2.029260158538818359e+00,2.029260396957397461e+00,2.029260635375976562e+00,2.029260635375976562e+00,2.029260873794555664e+00,2.029261112213134766e+00,2.029261350631713867e+00,2.029261589050292969e+00,2.029261827468872070e+00,2.029261827468872070e+00,2.029262065887451172e+00,2.029262304306030273e+00,2.029262542724609375e+00,2.029262781143188477e+00,2.029263019561767578e+00,2.029263257980346680e+00,2.029263496398925781e+00,2.029263734817504883e+00,2.029263734817504883e+00,2.029263973236083984e+00,2.029264211654663086e+00,2.029264450073242188e+00,2.029264688491821289e+00,2.029264926910400391e+00,2.029265165328979492e+00,2.029265165328979492e+00,2.029265403747558594e+00,2.029265642166137695e+00,2.029265880584716797e+00,2.029266119003295898e+00,2.029266357421875000e+00,2.029266357421875000e+00,2.029266834259033203e+00
2.029237747192382812e+00,2.029237985610961914e+00,2.029238224029541016e+00,2.029238462448120117e+00,2.029238700866699219e+00,2.029238700866699219e+00,2.029238939285278320e+00,2.029239177703857422e+00,2.029239416122436523e+00,2.029239654541015625e+00,2.029239892959594727e+00,2.029239892959594727e+00,2.029240131378173828e+00,2.029240369796752930e+00,2.029240608215332031e+00,2.029240846633911133e+00,2.029241085052490234e+00,2.029241323471069336e+00,2.029241323471069336e+00,2.029241800308227539e+00,2.029242038726806641e+00,2.029242038726806641e+00,2.029242277145385742e+00,9.148598313331604004e-01,8.976087570190429688e-01,8.915125131607055664e-01,8.906543850898742676e-01,8.883543610572814941e-01,8.850411772727966309e-01,8.825985193252563477e-01,8.797644376754760742e-01,8.769484162330627441e-01,8.746090531349182129e-01,8.750589489936828613e-01,8.755092024803161621e-01,8.765541315078735352e-01,8.899768590927124023e-01,9.038171172142028809e-01,2.029245615005493164e+00,2.029245615005493164e+00,2.029246091842651367e+00,2.029246330261230469e+00,2.029246330261230469e+00,2.029246568679809570e+00,2.029246807098388672e+00,2.029247045516967773e+00,2.029247283935546875e+00,2.029247522354125977e+00,2.029247522354125977e+00,2.029247760772705078e+00,2.029247999191284180e+00,2.029248237609863281e+00,2.029248476028442383e+00,2.029248714447021484e+00,2.029248952865600586e+00,2.029248952865600586e+00,2.029249191284179688e+00,2.029249429702758789e+00,2.029249668121337891e+00,2.029249906539916992e+00,2.029250144958496094e+00,2.029250383377075195e+00,2.029250621795654297e+00,2.029250860214233398e+00,2.029250860214233398e+00,2.029251098632812500e+00,2.029251337051391602e+00,2.029251575469970703e+00,2.029251813888549805e+00,2.029252052307128906e+00,2.029252052307128906e+00,2.029252290725708008e+00,2.029252529144287109e+00,2.029252767562866211e+00,2.029253005981445312e+00,2.029253244400024414e+00,2.029253244400024414e+00,2.029253482818603516e+00,2.029253721237182617e+00,2.029253959655761719e+00
2.029225111007690430e+00,2.029225349426269531e+00,2.029225587844848633e+00,2.029225826263427734e+00,2.029225826263427734e+00,2.029226064682006836e+00,2.029226303100585938e+00,2.029226541519165039e+00,2.029226779937744141e+00,2.029227018356323242e+00,2.029227018356323242e+00,2.029227256774902344e+00,2.029227495193481445e+00,2.029227733612060547e+00,2.029227972030639648e+00,2.029228210449218750e+00,2.029228210449218750e+00,2.029228448867797852e+00,2.029228687286376953e+00,2.029228925704956055e+00,2.029229164123535156e+00,2.029229402542114258e+00,2.029229640960693359e+00,2.029229879379272461e+00,9.029266238212585449e-01,8.927994966506958008e-01,8.894745707511901855e-01,8.861742615699768066e-01,8.823956251144409180e-01,8.789355158805847168e-01,8.761247992515563965e-01,8.733320236206054688e-01,8.705570101737976074e-01,8.683232069015502930e-01,8.687666058540344238e-01,8.692105412483215332e-01,8.703652620315551758e-01,8.746379017829895020e-01,8.964118957519531250e-01,2.029232978820800781e+00,2.029233455657958984e+00,2.029233455657958984e+00,2.029233694076538086e+00,2.029233932495117188e+00,2.029234170913696289e+00,2.029234409332275391e+00,2.029234647750854492e+00,2.029234647750854492e+00,2.029234886169433594e+00,2.029235124588012695e+00,2.029235363006591797e+00,2.029235601425170898e+00,2.029235839843750000e+00,2.029235839843750000e+00,2.029236078262329102e+00,2.029236316680908203e+00,2.029236555099487305e+00,2.029236793518066406e+00,2.029237031936645508e+00,2.029237031936645508e+00,2.029237270355224609e+00,2.029237747192382812e+00,2.029237747192382812e+00,2.029237985610961914e+00,2.029238224029541016e+00,2.029238462448120117e+00,2.029238700866699219e+00,2.029238939285278320e+00,2.029238939285278320e+00,2.029239177703857422e+00,2.029239416122436523e+00,2.029239654541015625e+00,2.029239892959594727e+00,2.029240131378173828e+00,2.029240369796752930e+00,2.029240369796752930e+00,2.029240608215332031e+00,2.029240846633911133e+00,2.029241085052490234e+00,2.029241323471069336e+00
2.029212236404418945e+00,2.029212713241577148e+00,2.029212713241577148e+00,2.029212951660156250e+00,2.029213190078735352e+00,2.029213428497314453e+00,2.029213666915893555e+00,2.029213905334472656e+00,2.029213905334472656e+00,2.029214143753051758e+00,2.029214382171630859e+00,2.029214620590209961e+00,2.029214859008789062e+00,2.029215097427368164e+00,2.029215097427368164e+00,2.029215335845947266e+00,2.029215574264526367e+00,2.029215812683105469e+00,2.029216051101684570e+00,2.029216289520263672e+00,2.029216527938842773e+00,2.029216766357421875e+00,2.029217004776000977e+00,2.029217243194580078e+00,9.112373590469360352e-01,9.005062580108642578e-01,8.923995494842529297e-01,8.881576061248779297e-01,8.838226199150085449e-01,8.795297741889953613e-01,8.752784729003906250e-01,8.710679411888122559e-01,8.669930100440979004e-01,8.642580509185791016e-01,8.621271252632141113e-01,8.625641465187072754e-01,8.659344911575317383e-01,8.695566058158874512e-01,8.720543384552001953e-01,8.905506730079650879e-01,2.029220581054687500e+00,2.029220819473266602e+00,2.029221057891845703e+00,2.029221296310424805e+00,2.029221534729003906e+00,2.029221534729003906e+00,2.029221773147583008e+00,2.029222011566162109e+00,2.029222249984741211e+00,2.029222488403320312e+00,2.029222726821899414e+00,2.029222726821899414e+00,2.029222965240478516e+00,2.029223203659057617e+00,2.029223442077636719e+00,2.029223680496215820e+00,2.029223918914794922e+00,2.029224157333374023e+00,2.029224157333374023e+00,2.029224395751953125e+00,2.029224634170532227e+00,2.029224872589111328e+00,2.029225111007690430e+00,2.029225349426269531e+00,2.029225587844848633e+00,2.029225826263427734e+00,2.029226064682006836e+00,2.029226064682006836e+00,2.029226303100585938e+00,2.029226541519165039e+00,2.029226779937744141e+00,2.029227018356323242e+00,2.029227256774902344e+00,2.029227256774902344e+00,2.029227495193481445e+00,2.029227733612060547e+00,2.029227972030639648e+00,2.029228210449218750e+00,2.029228448867797852e+00,2.029228448867797852e+00
2.029199600219726562e+00,2.029199838638305664e+00,2.029200077056884766e+00,2.029200315475463867e+00,2.029200553894042969e+00,2.029200792312622070e+00,2.029201030731201172e+00,2.029201030731201172e+00,2.029201269149780273e+00,2.029201507568359375e+00,2.029201745986938477e+00,2.029201984405517578e+00,2.029202222824096680e+00,2.029202222824096680e+00,2.029202461242675781e+00,2.029202699661254883e+00,2.029202938079833984e+00,2.029203176498413086e+00,2.029203414916992188e+00,2.029203414916992188e+00,2.029203653335571289e+00,2.029203891754150391e+00,2.029204130172729492e+00,2.029204368591308594e+00,1.046133995056152344e+00,9.085968136787414551e-01,9.024484157562255859e-01,8.978695273399353027e-01,8.884776830673217773e-01,8.838195204734802246e-01,8.792100548744201660e-01,8.746483922004699707e-01,8.701337575912475586e-01,8.656654357910156250e-01,8.612428307533264160e-01,8.579930067062377930e-01,8.615487217903137207e-01,8.651340603828430176e-01,8.686866164207458496e-01,8.707205653190612793e-01,8.848991990089416504e-01,9.071165919303894043e-01,2.029208421707153320e+00,2.029208660125732422e+00,2.029208660125732422e+00,2.029208898544311523e+00,2.029209136962890625e+00,2.029209375381469727e+00,2.029209613800048828e+00,2.029209852218627930e+00,2.029209852218627930e+00,2.029210090637207031e+00,2.029210329055786133e+00,2.029210567474365234e+00,2.029210805892944336e+00,2.029211044311523438e+00,2.029211044311523438e+00,2.029211282730102539e+00,2.029211521148681641e+00,2.029211759567260742e+00,2.029211997985839844e+00,2.029212236404418945e+00,2.029212236404418945e+00,2.029212713241577148e+00,2.029212951660156250e+00,2.029212951660156250e+00,2.029213190078735352e+00,2.029213428497314453e+00,2.029213666915893555e+00,2.029213905334472656e+00,2.029214143753051758e+00,2.029214382171630859e+00,2.029214382171630859e+00,2.029214620590209961e+00,2.029214859008789062e+00,2.029215097427368164e+00,2.029215335845947266e+00,2.029215574264526367e+00,2.029215574264526367e+00,2.029215812683105469e+00
2.029186964035034180e+00,2.029187202453613281e+00,2.029187202453613281e+00,2.029187679290771484e+00,2.029187917709350586e+00,2.029187917709350586e+00,2.029188156127929688e+00,2.029188394546508789e+00,2.029188632965087891e+00,2.029188871383666992e+00,2.029189109802246094e+00,2.029189109802246094e+00,2.029189348220825195e+00,2.029189586639404297e+00,2.029189825057983398e+00,2.029190063476562500e+00,2.029190301895141602e+00,2.029190301895141602e+00,2.029190540313720703e+00,2.029190778732299805e+00,2.029191017150878906e+00,2.029191255569458008e+00,2.029191493988037109e+00,2.029191732406616211e+00,2.029191970825195312e+00,1.030781269073486328e+00,9.137480258941650391e-01,9.090541601181030273e-01,9.044082760810852051e-01,8.956601619720458984e-01,8.849803209304809570e-01,8.803587555885314941e-01,8.757851123809814453e-01,8.712587952613830566e-01,8.667523860931396484e-01,8.622631430625915527e-01,8.578201532363891602e-01,8.607563972473144531e-01,8.643350601196289062e-01,8.673631548881530762e-01,8.693908452987670898e-01,8.794014453887939453e-01,9.011149406433105469e-01,2.029195785522460938e+00,2.029196023941040039e+00,2.029196262359619141e+00,2.029196500778198242e+00,2.029196739196777344e+00,2.029196739196777344e+00,2.029196977615356445e+00,2.029197216033935547e+00,2.029197454452514648e+00,2.029197692871093750e+00,2.029197931289672852e+00,2.029198169708251953e+00,2.029198169708251953e+00,2.029198408126831055e+00,2.029198646545410156e+00,2.029198884963989258e+00,2.029199123382568359e+00,2.029199361801147461e+00,2.029199361801147461e+00,2.029199600219726562e+00,2.029200077056884766e+00,2.029200077056884766e+00,2.029200315475463867e+00,2.029200553894042969e+00,2.029200792312622070e+00,2.029201030731201172e+00,2.029201269149780273e+00,2.029201269149780273e+00,2.029201507568359375e+00,2.029201745986938477e+00,2.029201984405517578e+00,2.029202222824096680e+00,2.029202461242675781e+00,2.029202461242675781e+00,2.029202699661254883e+00,2.029202938079833984e+00,2.029203176498413086e+00
2.029174089431762695e+00,2.029174327850341797e+00,2.029174566268920898e+00,2.029175043106079102e+00,2.029175043106079102e+00,2.029175281524658203e+00,2.029175519943237305e+00,2.029175758361816406e+00,2.029175996780395508e+00,2.029176235198974609e+00,2.029176235198974609e+00,2.029176473617553711e+00,2.029176712036132812e+00,2.029176950454711914e+00,2.029177188873291016e+00,2.029177427291870117e+00,2.029177427291870117e+00,2.029177665710449219e+00,2.029177904129028320e+00,2.029178142547607422e+00,2.029178380966186523e+00,2.029178619384765625e+00,2.029178619384765625e+00,2.029178857803344727e+00,2.029179334640502930e+00,1.050374984741210938e+00,1.025330662727355957e+00,1.018437743186950684e+00,9.157574176788330078e-01,9.110428690910339355e-01,9.038859009742736816e-01,8.929383158683776855e-01,8.822528123855590820e-01,8.769083619117736816e-01,8.723136782646179199e-01,8.677667975425720215e-01,8.632670640945434570e-01,8.588137626647949219e-01,8.599653840065002441e-01,8.635376095771789551e-01,8.660436868667602539e-01,8.680651187896728516e-01,8.739715814590454102e-01,8.954042792320251465e-01,2.029183387756347656e+00,2.029183626174926758e+00,2.029183864593505859e+00,2.029183864593505859e+00,2.029184103012084961e+00,2.029184341430664062e+00,2.029184579849243164e+00,2.029184818267822266e+00,2.029185056686401367e+00,2.029185056686401367e+00,2.029185295104980469e+00,2.029185533523559570e+00,2.029185771942138672e+00,2.029186010360717773e+00,2.029186248779296875e+00,2.029186248779296875e+00,2.029186487197875977e+00,2.029186725616455078e+00,2.029186964035034180e+00,2.029187202453613281e+00,2.029187440872192383e+00,2.029187679290771484e+00,2.029187917709350586e+00,2.029188156127929688e+00,2.029188156127929688e+00,2.029188394546508789e+00,2.029188632965087891e+00,2.029188871383666992e+00,2.029189109802246094e+00,2.029189348220825195e+00,2.029189586639404297e+00,2.029189586639404297e+00,2.029189825057983398e+00,2.029190063476562500e+00,2.029190301895141602e+00,2.029190540313720703e+00
2.029161453247070312e+00,2.029161691665649414e+00,2.029161930084228516e+00,2.029162168502807617e+00,2.029162406921386719e+00,2.029162645339965820e+00,2.029162883758544922e+00,2.029163122177124023e+00,2.029163122177124023e+00,2.029163360595703125e+00,2.029163599014282227e+00,2.029163837432861328e+00,2.029164075851440430e+00,2.029164314270019531e+00,2.029164314270019531e+00,2.029164552688598633e+00,2.029164791107177734e+00,2.029165029525756836e+00,2.029165267944335938e+00,2.029165506362915039e+00,2.029165744781494141e+00,2.029165744781494141e+00,2.029165983200073242e+00,2.029166221618652344e+00,2.029166460037231445e+00,2.029166698455810547e+00,1.034095644950866699e+00,1.019937396049499512e+00,1.013116478919982910e+00,1.007722139358520508e+00,1.013366818428039551e+00,9.122641682624816895e-01,9.011139273643493652e-01,8.861106038093566895e-01,8.780343532562255859e-01,8.733412027359008789e-01,8.687836527824401855e-01,8.642733693122863770e-01,8.598096966743469238e-01,8.591759204864501953e-01,8.627221584320068359e-01,8.647281527519226074e-01,8.667435050010681152e-01,8.687683343887329102e-01,8.896742463111877441e-01,2.029170751571655273e+00,2.029170989990234375e+00,2.029171228408813477e+00,2.029171466827392578e+00,2.029171705245971680e+00,2.029171943664550781e+00,2.029171943664550781e+00,2.029172182083129883e+00,2.029172420501708984e+00,2.029172658920288086e+00,2.029172897338867188e+00,2.029173135757446289e+00,2.029173374176025391e+00,2.029173374176025391e+00,2.029173612594604492e+00,2.029173851013183594e+00,2.029174089431762695e+00,2.029174327850341797e+00,2.029174566268920898e+00,2.029174566268920898e+00,2.029175043106079102e+00,2.029175281524658203e+00,2.029175281524658203e+00,2.029175519943237305e+00,2.029175758361816406e+00,2.029175996780395508e+00,2.029176235198974609e+00,2.029176473617553711e+00,2.029176473617553711e+00,2.029176712036132812e+00,2.029176950454711914e+00,2.029177188873291016e+00,2.029177427291870117e+00,2.029177665710449219e+00,2.029177665710449219e+00
2.029148817062377930e+00,2.029149055480957031e+00,2.029149293899536133e+00,2.029149532318115234e+00,2.029149532318115234e+00,2.029150009155273438e+00,2.029150247573852539e+00,2.029150247573852539e+00,2.029150485992431641e+00,2.029150724411010742e+00,2.029150962829589844e+00,2.029151201248168945e+00,2.029151439666748047e+00,2.029151439666748047e+00,2.029151678085327148e+00,2.029151916503906250e+00,2.029152154922485352e+00,2.029152393341064453e+00,2.029152631759643555e+00,2.029152631759643555e+00,2.029152870178222656e+00,2.029153108596801758e+00,2.029153347015380859e+00,2.029153585433959961e+00,2.029153823852539062e+00,2.029153823852539062e+00,1.045188069343566895e+00,1.018592357635498047e+00,1.011687994003295898e+00,1.006732702255249023e+00,1.012366175651550293e+00,1.018063187599182129e+00,1.032979011535644531e+00,9.029171466827392578e-01,8.866248726844787598e-01,8.792890310287475586e-01,8.745420575141906738e-01,8.698460459709167480e-01,8.652819991111755371e-01,8.608079552650451660e-01,8.583879470825195312e-01,8.614167571067810059e-01,8.634167313575744629e-01,8.657614588737487793e-01,8.686210513114929199e-01,8.838338255882263184e-01,2.029158353805541992e+00,2.029158592224121094e+00,2.029158830642700195e+00,2.029159069061279297e+00,2.029159069061279297e+00,2.029159307479858398e+00,2.029159545898437500e+00,2.029159784317016602e+00,2.029160022735595703e+00,2.029160261154174805e+00,2.029160261154174805e+00,2.029160499572753906e+00,2.029160737991333008e+00,2.029160976409912109e+00,2.029161214828491211e+00,2.029161453247070312e+00,2.029161453247070312e+00,2.029161691665649414e+00,2.029161930084228516e+00,2.029162168502807617e+00,2.029162406921386719e+00,2.029162645339965820e+00,2.029162883758544922e+00,2.029163122177124023e+00,2.029163360595703125e+00,2.029163360595703125e+00,2.029163599014282227e+00,2.029163837432861328e+00,2.029164075851440430e+00,2.029164314270019531e+00,2.029164552688598633e+00,2.029164791107177734e+00,2.029164791107177734e+00,2.029165029525756836e+00
2.029136180877685547e+00,2.029136419296264648e+00,2.029136419296264648e+00,2.029136657714843750e+00,2.029136896133422852e+00,2.029137134552001953e+00,2.029137372970581055e+00,2.029137611389160156e+00,2.029137849807739258e+00,2.029138088226318359e+00,2.029138326644897461e+00,2.029138326644897461e+00,2.029138565063476562e+00,2.029138803482055664e+00,2.029139041900634766e+00,2.029139280319213867e+00,2.029139518737792969e+00,2.029139518737792969e+00,2.029139757156372070e+00,2.029139995574951172e+00,2.029140233993530273e+00,2.029140472412109375e+00,2.029140710830688477e+00,2.029140949249267578e+00,2.029140949249267578e+00,2.029141187667846680e+00,1.047703027725219727e+00,1.017126917839050293e+00,1.010242462158203125e+00,1.005745053291320801e+00,1.011367559432983398e+00,1.016913056373596191e+00,1.031543850898742676e+00,1.064187169075012207e+00,9.034512639045715332e-01,8.881357312202453613e-01,8.805475234985351562e-01,8.757869601249694824e-01,8.710775375366210938e-01,8.664186000823974609e-01,8.618091940879821777e-01,8.576014041900634766e-01,8.601152896881103516e-01,8.629682660102844238e-01,8.659866452217102051e-01,8.686254620552062988e-01,8.780695199966430664e-01,2.029145956039428711e+00,2.029145956039428711e+00,2.029146194458007812e+00,2.029146432876586914e+00,2.029146671295166016e+00,2.029146909713745117e+00,2.029147148132324219e+00,2.029147148132324219e+00,2.029147386550903320e+00,2.029147624969482422e+00,2.029147863388061523e+00,2.029148101806640625e+00,2.029148340225219727e+00,2.029148578643798828e+00,2.029148578643798828e+00,2.029148817062377930e+00,2.029149055480957031e+00,2.029149293899536133e+00,2.029149532318115234e+00,2.029149770736694336e+00,2.029150009155273438e+00,2.029150247573852539e+00,2.029150485992431641e+00,2.029150485992431641e+00,2.029150724411010742e+00,2.029150962829589844e+00,2.029151201248168945e+00,2.029151439666748047e+00,2.029151678085327148e+00,2.029151678085327148e+00,2.029151916503906250e+00,2.029152154922485352e+00,2.029152393341064453e+00
2.029123306274414062e+00,2.029123544692993164e+00,2.029123783111572266e+00,2.029124021530151367e+00,2.029124259948730469e+00,2.029124498367309570e+00,2.029124736785888672e+00,2.029124975204467773e+00,2.029125213623046875e+00,2.029125452041625977e+00,2.029125452041625977e+00,2.029125690460205078e+00,2.029125928878784180e+00,2.029126167297363281e+00,2.029126405715942383e+00,2.029126644134521484e+00,2.029126644134521484e+00,2.029126882553100586e+00,2.029127120971679688e+00,2.029127359390258789e+00,2.029127597808837891e+00,2.029127836227416992e+00,2.029127836227416992e+00,2.029128074645996094e+00,2.029128313064575195e+00,2.029128551483154297e+00,1.050230026245117188e+00,1.016170620918273926e+00,1.008800864219665527e+00,1.004759430885314941e+00,1.010370850563049316e+00,1.015617609024047852e+00,1.030112624168395996e+00,1.059869527816772461e+00,2.029130458831787109e+00,9.039858579635620117e-01,8.898641467094421387e-01,8.818095326423645020e-01,8.770353198051452637e-01,8.723126053810119629e-01,8.676403760910034180e-01,8.630179762840270996e-01,8.585908412933349609e-01,8.601929545402526855e-01,8.631919622421264648e-01,8.662119507789611816e-01,8.686299920082092285e-01,8.752562403678894043e-01,2.029133319854736328e+00,2.029133558273315430e+00,2.029133796691894531e+00,2.029134035110473633e+00,2.029134273529052734e+00,2.029134273529052734e+00,2.029134511947631836e+00,2.029134750366210938e+00,2.029134988784790039e+00,2.029135227203369141e+00,2.029135465621948242e+00,2.029135465621948242e+00,2.029135704040527344e+00,2.029135942459106445e+00,2.029136180877685547e+00,2.029136419296264648e+00,2.029136657714843750e+00,2.029136657714843750e+00,2.029136896133422852e+00,2.029137134552001953e+00,2.029137372970581055e+00,2.029137611389160156e+00,2.029137849807739258e+00,2.029138088226318359e+00,2.029138326644897461e+00,2.029138565063476562e+00,2.029138803482055664e+00,2.029138803482055664e+00,2.029139041900634766e+00,2.029139280319213867e+00,2.029139518737792969e+00,2.029139757156372070e+00
2.029110670089721680e+00,2.029110908508300781e+00,2.029111146926879883e+00,2.029111385345458984e+00,2.029111623764038086e+00,2.029111623764038086e+00,2.029111862182617188e+00,2.029112339019775391e+00,2.029112339019775391e+00,2.029112577438354492e+00,2.029112815856933594e+00,2.029113054275512695e+00,2.029113292694091797e+00,2.029113531112670898e+00,2.029113531112670898e+00,2.029113769531250000e+00,2.029114007949829102e+00,2.029114246368408203e+00,2.029114484786987305e+00,2.029114723205566406e+00,2.029114961624145508e+00,2.029114961624145508e+00,2.029115200042724609e+00,2.029115438461303711e+00,2.029115676879882812e+00,2.029115915298461914e+00,1.052769422531127930e+00,1.015323758125305176e+00,1.007363438606262207e+00,1.003775715827941895e+00,1.009333968162536621e+00,1.014325261116027832e+00,1.028685331344604492e+00,1.055586814880371094e+00,2.029117822647094727e+00,2.029118061065673828e+00,9.045211076736450195e-01,8.915994763374328613e-01,8.830751180648803711e-01,8.782873153686523438e-01,8.735510706901550293e-01,8.690617680549621582e-01,8.646731972694396973e-01,8.603288531303405762e-01,8.604152202606201172e-01,8.634158372879028320e-01,8.662444949150085449e-01,8.686344623565673828e-01,8.746759891510009766e-01,8.877047300338745117e-01,2.029121160507202148e+00,2.029121160507202148e+00,2.029121398925781250e+00,2.029121637344360352e+00,2.029121875762939453e+00,2.029122114181518555e+00,2.029122352600097656e+00,2.029122591018676758e+00,2.029122591018676758e+00,2.029122829437255859e+00,2.029123067855834961e+00,2.029123306274414062e+00,2.029123544692993164e+00,2.029123783111572266e+00,2.029123783111572266e+00,2.029124021530151367e+00,2.029124259948730469e+00,2.029124498367309570e+00,2.029124736785888672e+00,2.029124975204467773e+00,2.029125213623046875e+00,2.029125452041625977e+00,2.029125690460205078e+00,2.029125690460205078e+00,2.029125928878784180e+00,2.029126167297363281e+00,2.029126405715942383e+00,2.029126644134521484e+00,2.029126882553100586e+00,2.029126882553100586e+00
2.029098033905029297e+00,2.029098272323608398e+00,2.029098510742187500e+00,2.029098749160766602e+00,2.029098749160766602e+00,2.029098987579345703e+00,2.029099225997924805e+00,2.029099464416503906e+00,2.029099702835083008e+00,2.029099941253662109e+00,2.029100179672241211e+00,2.029100418090820312e+00,2.029100656509399414e+00,2.029100656509399414e+00,2.029100894927978516e+00,2.029101133346557617e+00,2.029101371765136719e+00,2.029101610183715820e+00,2.029101848602294922e+00,2.029101848602294922e+00,2.029102087020874023e+00,2.029102325439453125e+00,2.029102563858032227e+00,2.029102802276611328e+00,2.029103040695190430e+00,2.029103040695190430e+00,1.055320978164672852e+00,1.014478087425231934e+00,1.005930185317993164e+00,1.002794027328491211e+00,1.008057594299316406e+00,1.013036370277404785e+00,1.027262091636657715e+00,1.051338434219360352e+00,2.029104948043823242e+00,2.029105186462402344e+00,2.029105424880981445e+00,9.050570726394653320e-01,8.933414220809936523e-01,8.843443989753723145e-01,8.797914385795593262e-01,8.752941489219665527e-01,8.708425760269165039e-01,8.664360046386718750e-01,8.620739579200744629e-01,8.606376647949218750e-01,8.636397123336791992e-01,8.662490248680114746e-01,8.686389923095703125e-01,8.740963935852050781e-01,8.827201724052429199e-01,2.029108524322509766e+00,2.029108762741088867e+00,2.029109001159667969e+00,2.029109239578247070e+00,2.029109477996826172e+00,2.029109477996826172e+00,2.029109716415405273e+00,2.029109954833984375e+00,2.029110193252563477e+00,2.029110431671142578e+00,2.029110670089721680e+00,2.029110670089721680e+00,2.029110908508300781e+00,2.029111146926879883e+00,2.029111385345458984e+00,2.029111623764038086e+00,2.029111862182617188e+00,2.029111862182617188e+00,2.029112339019775391e+00,2.029112577438354492e+00,2.029112577438354492e+00,2.029112815856933594e+00,2.029113054275512695e+00,2.029113292694091797e+00,2.029113531112670898e+00,2.029113769531250000e+00,2.029114007949829102e+00,2.029114007949829102e+00,2.029114246368408203e+00
2.029085397720336914e+00,2.029085636138916016e+00,2.029085636138916016e+00,2.029085874557495117e+00,2.029086112976074219e+00,2.029086351394653320e+00,2.029086589813232422e+00,2.029086828231811523e+00,2.029086828231811523e+00,2.029087305068969727e+00,2.029087543487548828e+00,2.029087543487548828e+00,2.029087781906127930e+00,2.029088020324707031e+00,2.029088258743286133e+00,2.029088497161865234e+00,2.029088735580444336e+00,2.029088735580444336e+00,2.029088973999023438e+00,2.029089212417602539e+00,2.029089450836181641e+00,2.029089689254760742e+00,2.029089927673339844e+00,2.029090166091918945e+00,2.029090166091918945e+00,2.029090404510498047e+00,1.057885169982910156e+00,1.013633966445922852e+00,1.005004882812500000e+00,1.001814126968383789e+00,1.006784558296203613e+00,1.011750578880310059e+00,1.025382399559020996e+00,1.047124266624450684e+00,2.029092311859130859e+00,2.029092550277709961e+00,2.029092788696289062e+00,2.029093027114868164e+00,2.029093265533447266e+00,8.969312906265258789e-01,8.903536796569824219e-01,8.817000985145568848e-01,8.771005272865295410e-01,8.726306557655334473e-01,8.682060241699218750e-01,8.638261556625366211e-01,8.608601689338684082e-01,8.638638854026794434e-01,8.662534952163696289e-01,8.686434030532836914e-01,2.029095649719238281e+00,2.029095888137817383e+00,2.029096126556396484e+00,2.029096364974975586e+00,2.029096364974975586e+00,2.029096603393554688e+00,2.029096841812133789e+00,2.029097080230712891e+00,2.029097318649291992e+00,2.029097557067871094e+00,2.029097795486450195e+00,2.029097795486450195e+00,2.029098033905029297e+00,2.029098272323608398e+00,2.029098510742187500e+00,2.029098749160766602e+00,2.029098987579345703e+00,2.029098987579345703e+00,2.029099225997924805e+00,2.029099702835083008e+00,2.029099702835083008e+00,2.029099941253662109e+00,2.029100179672241211e+00,2.029100418090820312e+00,2.029100656509399414e+00,2.029100894927978516e+00,2.029100894927978516e+00,2.029101133346557617e+00,2.029101371765136719e+00,2.029101610183715820e+00
2.029072523117065430e+00,2.029072761535644531e+00,2.029072999954223633e+00,2.029073238372802734e+00,2.029073476791381836e+00,2.029073715209960938e+00,2.029073953628540039e+00,2.029073953628540039e+00,2.029074192047119141e+00,2.029074668884277344e+00,2.029074668884277344e+00,2.029074907302856445e+00,2.029075145721435547e+00,2.029075384140014648e+00,2.029075622558593750e+00,2.029075860977172852e+00,2.029075860977172852e+00,2.029076099395751953e+00,2.029076337814331055e+00,2.029076576232910156e+00,2.029076814651489258e+00,2.029077053070068359e+00,2.029077053070068359e+00,2.029077291488647461e+00,2.029077529907226562e+00,2.029077768325805664e+00,1.060454845428466797e+00,1.012791275978088379e+00,1.004176378250122070e+00,1.000609517097473145e+00,1.005514621734619141e+00,1.010468244552612305e+00,1.021373271942138672e+00,1.042943716049194336e+00,2.029079675674438477e+00,2.029079914093017578e+00,2.029080152511596680e+00,2.029080152511596680e+00,2.029080390930175781e+00,2.029080629348754883e+00,9.034366011619567871e-01,8.967635631561279297e-01,8.837283849716186523e-01,8.790944218635559082e-01,8.745087385177612305e-01,8.699833750724792480e-01,8.655855059623718262e-01,8.612319231033325195e-01,8.638810515403747559e-01,8.662579655647277832e-01,8.929420113563537598e-01,9.003106951713562012e-01,2.029083490371704102e+00,2.029083490371704102e+00,2.029083728790283203e+00,2.029083967208862305e+00,2.029084205627441406e+00,2.029084444046020508e+00,2.029084682464599609e+00,2.029084682464599609e+00,2.029084920883178711e+00,2.029085159301757812e+00,2.029085397720336914e+00,2.029085636138916016e+00,2.029085874557495117e+00,2.029085874557495117e+00,2.029086112976074219e+00,2.029086351394653320e+00,2.029086589813232422e+00,2.029086828231811523e+00,2.029087066650390625e+00,2.029087305068969727e+00,2.029087543487548828e+00,2.029087781906127930e+00,2.029087781906127930e+00,2.029088020324707031e+00,2.029088258743286133e+00,2.029088497161865234e+00,2.029088735580444336e+00,2.029088973999023438e+00
2.029059886932373047e+00,2.029060125350952148e+00,2.029060363769531250e+00,2.029060602188110352e+00,2.029060840606689453e+00,2.029060840606689453e+00,2.029061079025268555e+00,2.029061317443847656e+00,2.029061555862426758e+00,2.029061794281005859e+00,2.029062032699584961e+00,2.029062271118164062e+00,2.029062509536743164e+00,2.029062747955322266e+00,2.029062747955322266e+00,2.029062986373901367e+00,2.029063224792480469e+00,2.029063463211059570e+00,2.029063701629638672e+00,2.029063940048217773e+00,2.029063940048217773e+00,2.029064178466796875e+00,2.029064416885375977e+00,2.029064655303955078e+00,2.029064893722534180e+00,2.029065132141113281e+00,1.062281847000122070e+00,1.012892961502075195e+00,1.004529595375061035e+00,9.996091127395629883e-01,1.004461765289306641e+00,1.009361743927001953e+00,1.018026709556579590e+00,1.039378762245178223e+00,2.029067039489746094e+00,2.029067277908325195e+00,2.029067277908325195e+00,2.029067516326904297e+00,2.029067754745483398e+00,2.029067993164062500e+00,2.029068231582641602e+00,2.029068470001220703e+00,9.032663702964782715e-01,8.857662081718444824e-01,8.811109066009521484e-01,8.765041232109069824e-01,8.719453811645507812e-01,8.674338459968566895e-01,8.629807233810424805e-01,8.760530948638916016e-01,8.813771009445190430e-01,8.847063779830932617e-01,8.840262889862060547e-01,8.833479285240173340e-01,8.878154754638671875e-01,2.029071331024169922e+00,2.029071569442749023e+00,2.029071807861328125e+00,2.029071807861328125e+00,2.029072046279907227e+00,2.029072284698486328e+00,2.029072523117065430e+00,2.029072761535644531e+00,2.029072999954223633e+00,2.029072999954223633e+00,2.029073238372802734e+00,2.029073476791381836e+00,2.029073715209960938e+00,2.029073953628540039e+00,2.029074192047119141e+00,2.029074192047119141e+00,2.029074668884277344e+00,2.029074907302856445e+00,2.029074907302856445e+00,2.029075145721435547e+00,2.029075384140014648e+00,2.029075622558593750e+00,2.029075860977172852e+00,2.029076099395751953e+00,2.029076099395751953e+00
2.029047250747680664e+00,2.029047489166259766e+00,2.029047727584838867e+00,2.029047727584838867e+00,2.029047966003417969e+00,2.029048204421997070e+00,2.029048442840576172e+00,2.029048681259155273e+00,2.029048919677734375e+00,2.029049158096313477e+00,2.029049158096313477e+00,2.029049634933471680e+00,2.029049873352050781e+00,2.029049873352050781e+00,2.029050111770629883e+00,2.029050350189208984e+00,2.029050588607788086e+00,2.029050827026367188e+00,2.029051065444946289e+00,2.029051065444946289e+00,2.029051303863525391e+00,2.029051542282104492e+00,2.029051780700683594e+00,2.029052019119262695e+00,2.029052257537841797e+00,2.029052257537841797e+00,2.029052495956420898e+00,1.013332724571228027e+00,1.005109667778015137e+00,9.986396431922912598e-01,1.003482818603515625e+00,1.008373260498046875e+00,1.015546798706054688e+00,1.036632418632507324e+00,2.029054164886474609e+00,2.029054403305053711e+00,2.029054641723632812e+00,2.029054880142211914e+00,2.029055118560791016e+00,2.029055356979370117e+00,2.029055595397949219e+00,2.029055595397949219e+00,2.029055833816528320e+00,9.098641872406005859e-01,8.878132700920104980e-01,8.831363916397094727e-01,8.785086274147033691e-01,8.739290833473205566e-01,8.778786063194274902e-01,8.754260540008544922e-01,8.761522769927978516e-01,8.761926889419555664e-01,8.762862086296081543e-01,8.753420114517211914e-01,8.756151199340820312e-01,8.848452568054199219e-01,2.029058694839477539e+00,2.029058933258056641e+00,2.029059171676635742e+00,2.029059410095214844e+00,2.029059648513793945e+00,2.029059886932373047e+00,2.029059886932373047e+00,2.029060125350952148e+00,2.029060363769531250e+00,2.029060602188110352e+00,2.029060840606689453e+00,2.029061079025268555e+00,2.029061079025268555e+00,2.029061317443847656e+00,2.029061555862426758e+00,2.029061794281005859e+00,2.029062032699584961e+00,2.029062271118164062e+00,2.029062509536743164e+00,2.029062747955322266e+00,2.029062986373901367e+00,2.029063224792480469e+00,2.029063224792480469e+00,2.029063463211059570e+00
2.029034614562988281e+00,2.029034852981567383e+00,2.029034852981567383e+00,2.029035091400146484e+00,2.029035329818725586e+00,2.029035568237304688e+00,2.029035806655883789e+00,2.029036045074462891e+00,2.029036045074462891e+00,2.029036283493041992e+00,2.029036521911621094e+00,2.029036760330200195e+00,2.029036998748779297e+00,2.029037237167358398e+00,2.029037475585937500e+00,2.029037714004516602e+00,2.029037952423095703e+00,2.029037952423095703e+00,2.029038190841674805e+00,2.029038429260253906e+00,2.029038667678833008e+00,2.029038906097412109e+00,2.029039144515991211e+00,2.029039382934570312e+00,2.029039382934570312e+00,2.029039621353149414e+00,2.029039859771728516e+00,1.013558506965637207e+00,1.005690336227416992e+00,9.976719021797180176e-01,1.002505660057067871e+00,1.007386565208435059e+00,1.015385270118713379e+00,1.033900499343872070e+00,2.029041528701782227e+00,2.029041767120361328e+00,2.029042005538940430e+00,2.029042243957519531e+00,2.029042482376098633e+00,2.029042482376098633e+00,2.029042720794677734e+00,2.029042959213256836e+00,2.029043197631835938e+00,2.029043436050415039e+00,2.029043674468994141e+00,8.972088098526000977e-01,8.851714730262756348e-01,8.948957920074462891e-01,8.851144909858703613e-01,8.778882622718811035e-01,8.736271262168884277e-01,8.728824257850646973e-01,8.722164630889892578e-01,8.716679215431213379e-01,8.697848320007324219e-01,8.761490583419799805e-01,2.029046058654785156e+00,2.029046297073364258e+00,2.029046535491943359e+00,2.029046773910522461e+00,2.029047012329101562e+00,2.029047012329101562e+00,2.029047250747680664e+00,2.029047489166259766e+00,2.029047727584838867e+00,2.029047966003417969e+00,2.029048204421997070e+00,2.029048204421997070e+00,2.029048442840576172e+00,2.029048681259155273e+00,2.029048919677734375e+00,2.029049158096313477e+00,2.029049396514892578e+00,2.029049634933471680e+00,2.029049873352050781e+00,2.029050111770629883e+00,2.029050111770629883e+00,2.029050350189208984e+00,2.029050588607788086e+00,2.029050827026367188e+00
2.029021739959716797e+00,2.029021978378295898e+00,2.029022216796875000e+00,2.029022455215454102e+00,2.029022693634033203e+00,2.029022932052612305e+00,2.029023170471191406e+00,2.029023170471191406e+00,2.029023408889770508e+00,2.029023647308349609e+00,2.029023885726928711e+00,2.029024124145507812e+00,2.029024362564086914e+00,2.029024600982666016e+00,2.029024839401245117e+00,2.029025077819824219e+00,2.029025077819824219e+00,2.029025316238403320e+00,2.029025554656982422e+00,2.029025793075561523e+00,2.029026031494140625e+00,2.029026269912719727e+00,2.029026269912719727e+00,2.029026508331298828e+00,2.029026746749877930e+00,2.029026985168457031e+00,2.029027223587036133e+00,1.013784289360046387e+00,1.006271719932556152e+00,9.980170726776123047e-01,1.001530408859252930e+00,1.006855130195617676e+00,1.015223860740661621e+00,1.031183004379272461e+00,2.029028892517089844e+00,2.029029130935668945e+00,2.029029369354248047e+00,2.029029369354248047e+00,2.029029607772827148e+00,2.029029846191406250e+00,2.029030084609985352e+00,2.029030323028564453e+00,2.029030561447143555e+00,2.029030799865722656e+00,2.029030799865722656e+00,2.029031038284301758e+00,2.029031276702880859e+00,9.106158614158630371e-01,8.936337828636169434e-01,8.810027837753295898e-01,8.758997917175292969e-01,8.715634942054748535e-01,8.709361553192138672e-01,8.689145445823669434e-01,8.677898645401000977e-01,2.029033184051513672e+00,2.029033422470092773e+00,2.029033660888671875e+00,2.029033899307250977e+00,2.029033899307250977e+00,2.029034137725830078e+00,2.029034376144409180e+00,2.029034614562988281e+00,2.029034852981567383e+00,2.029035091400146484e+00,2.029035091400146484e+00,2.029035329818725586e+00,2.029035568237304688e+00,2.029035806655883789e+00,2.029036045074462891e+00,2.029036283493041992e+00,2.029036283493041992e+00,2.029036521911621094e+00,2.029036998748779297e+00,2.029036998748779297e+00,2.029037237167358398e+00,2.029037475585937500e+00,2.029037714004516602e+00,2.029037952423095703e+00,2.029038190841674805e+00
2.029009103775024414e+00,2.029009342193603516e+00,2.029009580612182617e+00,2.029009819030761719e+00,2.029010057449340820e+00,2.029010057449340820e+00,2.029010295867919922e+00,2.029010534286499023e+00,2.029010772705078125e+00,2.029011011123657227e+00,2.029011249542236328e+00,2.029011249542236328e+00,2.029011487960815430e+00,2.029011964797973633e+00,2.029011964797973633e+00,2.029012203216552734e+00,2.029012441635131836e+00,2.029012680053710938e+00,2.029012918472290039e+00,2.029013156890869141e+00,2.029013156890869141e+00,2.029013395309448242e+00,2.029013633728027344e+00,2.029013872146606445e+00,2.029014110565185547e+00,2.029014348983764648e+00,2.029014587402343750e+00,1.014964818954467773e+00,1.006606459617614746e+00,9.985895752906799316e-01,1.000557184219360352e+00,1.006696343421936035e+00,1.015062451362609863e+00,1.028479814529418945e+00,2.029016256332397461e+00,2.029016494750976562e+00,2.029016494750976562e+00,2.029016733169555664e+00,2.029016971588134766e+00,2.029017210006713867e+00,2.029017448425292969e+00,2.029017686843872070e+00,2.029017686843872070e+00,2.029017925262451172e+00,2.029018163681030273e+00,2.029018402099609375e+00,2.029018640518188477e+00,2.029018878936767578e+00,9.036221504211425781e-01,8.874543309211730957e-01,8.777720928192138672e-01,8.719242215156555176e-01,8.694047331809997559e-01,8.671805262565612793e-01,8.723313212394714355e-01,2.029020547866821289e+00,2.029020786285400391e+00,2.029020786285400391e+00,2.029021024703979492e+00,2.029021263122558594e+00,2.029021501541137695e+00,2.029021739959716797e+00,2.029021978378295898e+00,2.029022216796875000e+00,2.029022216796875000e+00,2.029022455215454102e+00,2.029022693634033203e+00,2.029022932052612305e+00,2.029023170471191406e+00,2.029023408889770508e+00,2.029023408889770508e+00,2.029023647308349609e+00,2.029023885726928711e+00,2.029024124145507812e+00,2.029024362564086914e+00,2.029024600982666016e+00,2.029024839401245117e+00,2.029025077819824219e+00,2.029025316238403320e+00,2.029025316238403320e+00
2.028996467590332031e+00,2.028996706008911133e+00,2.028996944427490234e+00,2.028996944427490234e+00,2.028997182846069336e+00,2.028997421264648438e+00,2.028997659683227539e+00,2.028997898101806641e+00,2.028998136520385742e+00,2.028998374938964844e+00,2.028998374938964844e+00,2.028998613357543945e+00,2.028998851776123047e+00,2.028999090194702148e+00,2.028999328613281250e+00,2.028999567031860352e+00,2.028999805450439453e+00,2.029000043869018555e+00,2.029000282287597656e+00,2.029000282287597656e+00,2.029000520706176758e+00,2.029000759124755859e+00,2.029000997543334961e+00,2.029001235961914062e+00,2.029001474380493164e+00,2.029001474380493164e+00,2.029001712799072266e+00,1.017817378044128418e+00,1.006829142570495605e+00,9.991627931594848633e-01,9.995858073234558105e-01,1.006537675857543945e+00,1.014901041984558105e+00,1.025790691375732422e+00,2.029003381729125977e+00,2.029003620147705078e+00,2.029003858566284180e+00,2.029004096984863281e+00,2.029004335403442383e+00,2.029004573822021484e+00,2.029004573822021484e+00,2.029004812240600586e+00,2.029005050659179688e+00,2.029005289077758789e+00,2.029005527496337891e+00,2.029005765914916992e+00,2.029006004333496094e+00,2.029006004333496094e+00,9.107714295387268066e-01,8.895213603973388672e-01,8.788076043128967285e-01,8.718085289001464844e-01,8.675184845924377441e-01,8.679839968681335449e-01,2.029007673263549805e+00,2.029007911682128906e+00,2.029007911682128906e+00,2.029008150100708008e+00,2.029008388519287109e+00,2.029008626937866211e+00,2.029008865356445312e+00,2.029009103775024414e+00,2.029009103775024414e+00,2.029009342193603516e+00,2.029009580612182617e+00,2.029009819030761719e+00,2.029010057449340820e+00,2.029010295867919922e+00,2.029010295867919922e+00,2.029010534286499023e+00,2.029010772705078125e+00,2.029011011123657227e+00,2.029011249542236328e+00,2.029011487960815430e+00,2.029011487960815430e+00,2.029011964797973633e+00,2.029012203216552734e+00,2.029012441635131836e+00,2.029012441635131836e+00,2.029012680053710938e+00
2.028983831405639648e+00,2.028984069824218750e+00,2.028984069824218750e+00,2.028984308242797852e+00,2.028984546661376953e+00,2.028984785079956055e+00,2.028985023498535156e+00,2.028985261917114258e+00,2.028985261917114258e+00,2.028985500335693359e+00,2.028985738754272461e+00,2.028985977172851562e+00,2.028986215591430664e+00,2.028986454010009766e+00,2.028986692428588867e+00,2.028986930847167969e+00,2.028987169265747070e+00,2.028987169265747070e+00,2.028987407684326172e+00,2.028987646102905273e+00,2.028987884521484375e+00,2.028988122940063477e+00,2.028988361358642578e+00,2.028988361358642578e+00,2.028988599777221680e+00,2.028988838195800781e+00,2.028989076614379883e+00,1.020686030387878418e+00,1.007052063941955566e+00,9.997366070747375488e-01,9.986162185668945312e-01,1.006379127502441406e+00,1.014739871025085449e+00,1.023240566253662109e+00,2.028990745544433594e+00,2.028990983963012695e+00,2.028991222381591797e+00,2.028991460800170898e+00,2.028991699218750000e+00,2.028991699218750000e+00,2.028991937637329102e+00,2.028992176055908203e+00,2.028992414474487305e+00,2.028992652893066406e+00,2.028992891311645508e+00,2.028992891311645508e+00,2.028993129730224609e+00,2.028993368148803711e+00,9.197162389755249023e-01,8.907041549682617188e-01,8.789359927177429199e-01,8.690448403358459473e-01,8.666132092475891113e-01,2.028994560241699219e+00,2.028994798660278320e+00,2.028995037078857422e+00,2.028995275497436523e+00,2.028995513916015625e+00,2.028995752334594727e+00,2.028995990753173828e+00,2.028996229171752930e+00,2.028996229171752930e+00,2.028996467590332031e+00,2.028996706008911133e+00,2.028996944427490234e+00,2.028997182846069336e+00,2.028997421264648438e+00,2.028997421264648438e+00,2.028997659683227539e+00,2.028997898101806641e+00,2.028998136520385742e+00,2.028998374938964844e+00,2.028998613357543945e+00,2.028998613357543945e+00,2.028998851776123047e+00,2.028999328613281250e+00,2.028999328613281250e+00,2.028999567031860352e+00,2.028999805450439453e+00,2.029000043869018555e+00
1.988141179084777832e+00,1.987939119338989258e+00,1.987737178802490234e+00,1.987535119056701660e+00,1.987333416938781738e+00,1.987131714820861816e+00,1.986929774284362793e+00,1.986728191375732422e+00,1.986526489257812500e+00,1.986324787139892578e+00,1.986123204231262207e+00,1.985921502113342285e+00,1.985720038414001465e+00,1.985518693923950195e+00,1.985317111015319824e+00,1.985115766525268555e+00,1.984914541244506836e+00,1.984713077545166016e+00,1.984511852264404297e+00,1.984310507774353027e+00,1.984109401702880859e+00,1.983908295631408691e+00,1.983707070350646973e+00,1.983506083488464355e+00,1.983304858207702637e+00,1.983103990554809570e+00,1.982903122901916504e+00,1.023571014404296875e+00,1.007274985313415527e+00,9.999690055847167969e-01,9.979990124702453613e-01,1.006220459938049316e+00,1.014578580856323242e+00,1.023076653480529785e+00,1.981296896934509277e+00,1.981096148490905762e+00,1.980895757675170898e+00,1.980695366859436035e+00,1.980494737625122070e+00,1.980294346809387207e+00,1.980093836784362793e+00,1.979893565177917480e+00,1.979693412780761719e+00,1.979492902755737305e+00,1.979292869567871094e+00,1.979092717170715332e+00,1.978892445564270020e+00,1.978692412376403809e+00,1.978492140769958496e+00,8.925850987434387207e-01,8.772138953208923340e-01,8.671396970748901367e-01,8.671358227729797363e-01,1.977492451667785645e+00,1.977292656898498535e+00,1.977092981338500977e+00,1.976893186569213867e+00,1.976693511009216309e+00,1.976493954658508301e+00,1.976294159889221191e+00,1.976094722747802734e+00,1.975895047187805176e+00,1.975695610046386719e+00,1.975496172904968262e+00,1.975296616554260254e+00,1.975097417831420898e+00,1.974898099899291992e+00,1.974698662757873535e+00,1.974499464035034180e+00,1.974300146102905273e+00,1.974101066589355469e+00,1.973901987075805664e+00,1.973702788352966309e+00,1.973503828048706055e+00,1.973304629325866699e+00,1.973105788230895996e+00,1.972906947135925293e+00,1.972707867622375488e+00,1.972509145736694336e+00,1.972310423851013184e+00
1.777674555778503418e+00,1.777513146400451660e+00,1.777351617813110352e+00,1.777190208435058594e+00,1.777028918266296387e+00,1.776867389678955078e+00,1.776706218719482422e+00,1.776544928550720215e+00,1.776383519172668457e+00,1.776222348213195801e+00,1.776061058044433594e+00,1.775899887084960938e+00,1.775738835334777832e+00,1.775577664375305176e+00,1.775416612625122070e+00,1.775255441665649414e+00,1.775094389915466309e+00,1.774933457374572754e+00,1.774772405624389648e+00,1.774611473083496094e+00,1.774450659751892090e+00,1.774289608001708984e+00,1.774128794670104980e+00,1.773967862129211426e+00,1.773807168006896973e+00,1.773646473884582520e+00,1.773485541343688965e+00,1.773324966430664062e+00,1.026221752166748047e+00,1.010252356529235840e+00,1.005926489830017090e+00,1.012635350227355957e+00,1.021665334701538086e+00,1.772361278533935547e+00,1.772200584411621094e+00,1.772040247917175293e+00,1.771879673004150391e+00,1.771719217300415039e+00,1.771559000015258789e+00,1.771398425102233887e+00,1.771238207817077637e+00,1.771077990531921387e+00,1.770917534828186035e+00,1.770757317543029785e+00,1.770596981048583984e+00,1.770436882972717285e+00,1.770276784896850586e+00,1.770116567611694336e+00,1.769956469535827637e+00,8.931506872177124023e-01,8.744880557060241699e-01,8.658621907234191895e-01,8.702968955039978027e-01,1.769156336784362793e+00,1.768996477127075195e+00,1.768836498260498047e+00,1.768676638603210449e+00,1.768516898155212402e+00,1.768356919288635254e+00,1.768197178840637207e+00,1.768037319183349609e+00,1.767877697944641113e+00,1.767718076705932617e+00,1.767558217048645020e+00,1.767398715019226074e+00,1.767238974571228027e+00,1.767079353332519531e+00,1.766919970512390137e+00,1.766760230064392090e+00,1.766600847244262695e+00,1.766441464424133301e+00,1.766281843185424805e+00,1.766122579574584961e+00,1.765963077545166016e+00,1.765803694725036621e+00,1.765644431114196777e+00,1.765485048294067383e+00,1.765325903892517090e+00,1.765166759490966797e+00,1.765007376670837402e+00
1.607502818107604980e+00,1.607370734214782715e+00,1.607238769531250000e+00,1.607106804847717285e+00,1.606974720954895020e+00,1.606842875480651855e+00,1.606710791587829590e+00,1.606578946113586426e+00,1.606447100639343262e+00,1.606315135955810547e+00,1.606183290481567383e+00,1.606051564216613770e+00,1.605919718742370605e+00,1.605787992477416992e+00,1.605656027793884277e+00,1.605524420738220215e+00,1.605392694473266602e+00,1.605260968208312988e+00,1.605129361152648926e+00,1.604997754096984863e+00,1.604866027832031250e+00,1.604734420776367188e+00,1.604602813720703125e+00,1.604471206665039062e+00,1.604339718818664551e+00,1.604208111763000488e+00,1.604076743125915527e+00,1.603945136070251465e+00,1.017054677009582520e+00,1.006174921989440918e+00,1.002648591995239258e+00,1.006518244743347168e+00,1.016463518142700195e+00,1.603156685829162598e+00,1.603025436401367188e+00,1.602894067764282227e+00,1.602762818336486816e+00,1.602631568908691406e+00,1.602500319480895996e+00,1.602369070053100586e+00,1.602237939834594727e+00,1.602106690406799316e+00,1.601975560188293457e+00,1.601844310760498047e+00,1.601713299751281738e+00,1.601582288742065430e+00,1.601451039314270020e+00,1.601320147514343262e+00,9.345235228538513184e-01,8.912068009376525879e-01,8.700114488601684570e-01,8.629961013793945312e-01,1.600665092468261719e+00,1.600534319877624512e+00,1.600403308868408203e+00,1.600272417068481445e+00,1.600141525268554688e+00,1.600010752677917480e+00,1.599879980087280273e+00,1.599749088287353516e+00,1.599618315696716309e+00,1.599487662315368652e+00,1.599356770515441895e+00,1.599226117134094238e+00,1.599095344543457031e+00,1.598964810371398926e+00,1.598834156990051270e+00,1.598703503608703613e+00,1.598572969436645508e+00,1.598442435264587402e+00,1.598311781883239746e+00,1.598181247711181641e+00,1.598050594329833984e+00,1.597920179367065430e+00,1.597789764404296875e+00,1.597659230232238770e+00,1.597528815269470215e+00,1.597398400306701660e+00,1.597267985343933105e+00,1.597137689590454102e+00
1.467064738273620605e+00,1.466954827308654785e+00,1.466844916343688965e+00,1.466734886169433594e+00,1.466624975204467773e+00,1.466515064239501953e+00,1.466405153274536133e+00,1.466295361518859863e+00,1.466185331344604492e+00,1.466075539588928223e+00,1.465965628623962402e+00,1.465855836868286133e+00,1.465746164321899414e+00,1.465636253356933594e+00,1.465526580810546875e+00,1.465416908264160156e+00,1.465306997299194336e+00,1.465197324752807617e+00,1.465087532997131348e+00,1.464977979660034180e+00,1.464868307113647461e+00,1.464758634567260742e+00,1.464648962020874023e+00,1.464539408683776855e+00,1.464429736137390137e+00,1.464320182800292969e+00,1.464210510253906250e+00,1.464101076126098633e+00,1.009126663208007812e+00,1.000314235687255859e+00,1.001220464706420898e+00,1.004587292671203613e+00,1.009596586227416992e+00,1.021528720855712891e+00,1.463334560394287109e+00,1.463225245475769043e+00,1.463115811347961426e+00,1.463006377220153809e+00,1.462897062301635742e+00,1.462787628173828125e+00,1.462678313255310059e+00,1.462569117546081543e+00,1.462459683418273926e+00,1.462350487709045410e+00,1.462241172790527344e+00,1.462131857872009277e+00,1.462022662162780762e+00,1.461913347244262695e+00,9.419682621955871582e-01,8.874498605728149414e-01,8.664758801460266113e-01,8.657425642013549805e-01,1.461367607116699219e+00,1.461258411407470703e+00,1.461149334907531738e+00,1.461040139198303223e+00,1.460931181907653809e+00,1.460822105407714844e+00,1.460713028907775879e+00,1.460603952407836914e+00,1.460494875907897949e+00,1.460385918617248535e+00,1.460277080535888672e+00,1.460168004035949707e+00,1.460059046745300293e+00,1.459950208663940430e+00,1.459841251373291016e+00,1.459732294082641602e+00,1.459623336791992188e+00,1.459514617919921875e+00,1.459405779838562012e+00,1.459296822547912598e+00,1.459188103675842285e+00,1.459079265594482422e+00,1.458970427513122559e+00,1.458861708641052246e+00,1.458752870559692383e+00,1.458644151687622070e+00,1.458535552024841309e+00,1.458426713943481445e+00
1.349193692207336426e+00,1.349100589752197266e+00,1.349007725715637207e+00,1.348914742469787598e+00,1.348821640014648438e+00,1.348728775978088379e+00,1.348635792732238770e+00,1.348542809486389160e+00,1.348449945449829102e+00,1.348356962203979492e+00,1.348264098167419434e+00,1.348171234130859375e+00,1.348078250885009766e+00,1.347985506057739258e+00,1.347892642021179199e+00,1.347799777984619141e+00,1.347706913948059082e+00,1.347614049911499023e+00,1.347521305084228516e+00,1.347428560256958008e+00,1.347335815429687500e+00,1.347243070602416992e+00,1.347150206565856934e+00,1.347057580947875977e+00,1.346964836120605469e+00,1.346872091293334961e+00,1.014194488525390625e+00,1.004015207290649414e+00,1.001295566558837891e+00,9.971525073051452637e-01,9.993461966514587402e-01,1.002499341964721680e+00,1.005475044250488281e+00,1.011508226394653320e+00,1.346038341522216797e+00,1.345945715904235840e+00,1.345853090286254883e+00,1.345760583877563477e+00,1.345667958259582520e+00,1.345575451850891113e+00,1.345483064651489258e+00,1.345390439033508301e+00,1.345297932624816895e+00,1.345205545425415039e+00,1.345113039016723633e+00,1.345020532608032227e+00,1.344928026199340820e+00,1.344835638999938965e+00,9.245071411132812500e-01,8.803814649581909180e-01,8.691666126251220703e-01,1.344465970993041992e+00,1.344373703002929688e+00,1.344281435012817383e+00,1.344188928604125977e+00,1.344096660614013672e+00,1.344004392623901367e+00,1.343912005424499512e+00,1.343819737434387207e+00,1.343727469444274902e+00,1.343635201454162598e+00,1.343542933464050293e+00,1.343450665473937988e+00,1.343358516693115234e+00,1.343266367912292480e+00,1.343174099922180176e+00,1.343081831932067871e+00,1.342989683151245117e+00,1.342897534370422363e+00,1.342805385589599609e+00,1.342713236808776855e+00,1.342621088027954102e+00,1.342528939247131348e+00,1.342436909675598145e+00,1.342344760894775391e+00,1.342252612113952637e+00,1.342160582542419434e+00,1.342068672180175781e+00,1.341976523399353027e+00,1.341884493827819824e+00
1.248854637145996094e+00,1.248775005340576172e+00,1.248695373535156250e+00,1.248615622520446777e+00,1.248535990715026855e+00,1.248456358909606934e+00,1.248376607894897461e+00,1.248297095298767090e+00,1.248217344284057617e+00,1.248137831687927246e+00,1.248058199882507324e+00,1.247978568077087402e+00,1.247899055480957031e+00,1.247819423675537109e+00,1.247739791870117188e+00,1.247660279273986816e+00,1.247580766677856445e+00,1.247501254081726074e+00,1.247421741485595703e+00,1.247342109680175781e+00,1.247262716293334961e+00,1.247183084487915039e+00,1.247103691101074219e+00,1.247024297714233398e+00,1.246944665908813477e+00,1.002345204353332520e+00,9.977447986602783203e-01,9.978311657905578613e-01,9.958370327949523926e-01,9.969667196273803711e-01,9.977502226829528809e-01,9.988729357719421387e-01,1.000382304191589355e+00,1.003918409347534180e+00,1.246150612831115723e+00,1.246071338653564453e+00,1.245991945266723633e+00,1.245912551879882812e+00,1.245833277702331543e+00,1.245754003524780273e+00,1.245674610137939453e+00,1.245595455169677734e+00,1.245516061782836914e+00,1.245436787605285645e+00,1.245357632637023926e+00,1.245278239250183105e+00,1.245199084281921387e+00,9.305222630500793457e-01,8.985230922698974609e-01,8.775741457939147949e-01,8.768092989921569824e-01,1.244802951812744141e+00,1.244723916053771973e+00,1.244644641876220703e+00,1.244565486907958984e+00,1.244486331939697266e+00,1.244407176971435547e+00,1.244328141212463379e+00,1.244248867034912109e+00,1.244169831275939941e+00,1.244090795516967773e+00,1.244011640548706055e+00,1.243932604789733887e+00,1.243853449821472168e+00,1.243774414062500000e+00,1.243695378303527832e+00,1.243616342544555664e+00,1.243537306785583496e+00,1.243458271026611328e+00,1.243379235267639160e+00,1.243300318717956543e+00,1.243221282958984375e+00,1.243142366409301758e+00,1.243063330650329590e+00,1.242984414100646973e+00,1.242905497550964355e+00,1.242826581001281738e+00,1.242747545242309570e+00,1.242668628692626953e+00,1.242589712142944336e+00
1.162406921386718750e+00,1.162338018417358398e+00,1.162268877029418945e+00,1.162199854850769043e+00,1.162130832672119141e+00,1.162061810493469238e+00,1.161992788314819336e+00,1.161923766136169434e+00,1.161854863166809082e+00,1.161785840988159180e+00,1.161716818809509277e+00,1.161647915840148926e+00,1.161578893661499023e+00,1.161509990692138672e+00,1.161441087722778320e+00,1.161372065544128418e+00,1.161303162574768066e+00,1.161234378814697266e+00,1.161165356636047363e+00,1.161096453666687012e+00,1.161027550697326660e+00,1.160958766937255859e+00,1.160889863967895508e+00,9.967249631881713867e-01,9.930366873741149902e-01,9.913983345031738281e-01,9.947080612182617188e-01,9.984007477760314941e-01,9.991272687911987305e-01,9.991667270660400391e-01,9.972836971282958984e-01,9.966442584991455078e-01,9.982790350914001465e-01,1.004366636276245117e+00,1.160063982009887695e+00,1.159995198249816895e+00,1.159926414489746094e+00,1.159857630729675293e+00,1.159788966178894043e+00,1.159720182418823242e+00,1.159651517868041992e+00,1.159582734107971191e+00,1.159514069557189941e+00,1.159445405006408691e+00,1.159376621246337891e+00,1.159307956695556641e+00,1.159239172935485840e+00,9.268950223922729492e-01,8.972828984260559082e-01,8.796480894088745117e-01,1.158964633941650391e+00,1.158895969390869141e+00,1.158827304840087891e+00,1.158758759498596191e+00,1.158690094947814941e+00,1.158621430397033691e+00,1.158552885055541992e+00,1.158484220504760742e+00,1.158415675163269043e+00,1.158347249031066895e+00,1.158278584480285645e+00,1.158210039138793945e+00,1.158141493797302246e+00,1.158072948455810547e+00,1.158004403114318848e+00,1.157935857772827148e+00,1.157867431640625000e+00,1.157798886299133301e+00,1.157730340957641602e+00,1.157661914825439453e+00,1.157593369483947754e+00,1.157524943351745605e+00,1.157456517219543457e+00,1.157387971878051758e+00,1.157319545745849609e+00,1.157251119613647461e+00,1.157182693481445312e+00,1.157114267349243164e+00,1.157045841217041016e+00,1.156977415084838867e+00
1.087152481079101562e+00,1.087092041969299316e+00,1.087031722068786621e+00,1.086971282958984375e+00,1.086910963058471680e+00,1.086850643157958984e+00,1.086790204048156738e+00,1.086729884147644043e+00,1.086669445037841797e+00,1.086609125137329102e+00,1.086548805236816406e+00,1.086488485336303711e+00,1.086428165435791016e+00,1.086367845535278320e+00,1.086307525634765625e+00,1.086247324943542480e+00,1.086186885833740234e+00,1.086126685142517090e+00,1.086066365242004395e+00,1.086006045341491699e+00,1.085945844650268555e+00,9.907881617546081543e-01,9.889060258865356445e-01,9.856098294258117676e-01,9.854058027267456055e-01,9.895700216293334961e-01,1.008531093597412109e+00,1.020956277847290039e+00,1.031672120094299316e+00,1.085403800010681152e+00,1.018003344535827637e+00,1.002742528915405273e+00,1.085223078727722168e+00,1.085162997245788574e+00,1.085102796554565430e+00,1.085042595863342285e+00,1.084982514381408691e+00,1.084922313690185547e+00,1.084862112998962402e+00,1.084802031517028809e+00,1.084741830825805664e+00,1.084681749343872070e+00,1.084621667861938477e+00,1.084561467170715332e+00,1.084501385688781738e+00,1.084441304206848145e+00,1.084381222724914551e+00,1.084321141242980957e+00,1.084261059761047363e+00,1.084200978279113770e+00,1.084140896797180176e+00,1.084080815315246582e+00,1.084020853042602539e+00,1.083960652351379395e+00,1.083900690078735352e+00,1.083840727806091309e+00,1.083780646324157715e+00,1.083720564842224121e+00,1.083660602569580078e+00,1.083600521087646484e+00,1.083540558815002441e+00,1.083480596542358398e+00,1.083420634269714355e+00,1.083360671997070312e+00,1.083300590515136719e+00,1.083240628242492676e+00,1.083180665969848633e+00,1.083120703697204590e+00,1.083060860633850098e+00,1.083000779151916504e+00,1.082940936088562012e+00,1.082880973815917969e+00,1.082821011543273926e+00,1.082761168479919434e+00,1.082701206207275391e+00,1.082641363143920898e+00,1.082581520080566406e+00,1.082521557807922363e+00,1.082461714744567871e+00,1.082401871681213379e+00
1.021049499511718750e+00,1.020996332168579102e+00,1.020942926406860352e+00,1.020889759063720703e+00,1.020836472511291504e+00,1.020783185958862305e+00,1.020730018615722656e+00,1.020676732063293457e+00,1.020623445510864258e+00,1.020570278167724609e+00,1.020516991615295410e+00,1.020463824272155762e+00,1.020410656929016113e+00,1.020357370376586914e+00,1.020304203033447266e+00,1.020250916481018066e+00,1.020197749137878418e+00,1.020144581794738770e+00,1.020091414451599121e+00,1.020038247108459473e+00,9.881376624107360840e-01,9.862188100814819336e-01,9.935503602027893066e-01,9.846471548080444336e-01,9.893363118171691895e-01,1.019719362258911133e+00,1.019666194915771484e+00,1.019613027572631836e+00,1.019559860229492188e+00,1.019506812095642090e+00,1.019453763961791992e+00,1.019400596618652344e+00,1.019347548484802246e+00,1.019294381141662598e+00,1.019241333007812500e+00,1.019188284873962402e+00,1.019135117530822754e+00,1.019082069396972656e+00,1.019029021263122559e+00,1.018975853919982910e+00,1.018922924995422363e+00,1.018869876861572266e+00,1.018816709518432617e+00,1.018763780593872070e+00,1.018710613250732422e+00,1.018657684326171875e+00,1.018604636192321777e+00,1.018551588058471680e+00,1.018498659133911133e+00,1.018445611000061035e+00,1.018392562866210938e+00,1.018339633941650391e+00,1.018286585807800293e+00,1.018233656883239746e+00,1.018180608749389648e+00,1.018127679824829102e+00,1.018074750900268555e+00,1.018021702766418457e+00,1.017968773841857910e+00,1.017915844917297363e+00,1.017862796783447266e+00,1.017809867858886719e+00,1.017757058143615723e+00,1.017704010009765625e+00,1.017651081085205078e+00,1.017598152160644531e+00,1.017545223236083984e+00,1.017492413520812988e+00,1.017439484596252441e+00,1.017386555671691895e+00,1.017333626747131348e+00,1.017280817031860352e+00,1.017227888107299805e+00,1.017174959182739258e+00,1.017122149467468262e+00,1.017069339752197266e+00,1.017016410827636719e+00,1.016963601112365723e+00,1.016910672187805176e+00,1.016857862472534180e+00
