4.878826141357421875e+00,5.000000000000000000e+00,5.000000000000000000e+00,5.000000000000000000e+00,5.000000000000000000e+00,5.000000000000000000e+00,5.000000000000000000e+00,5.000000000000000000e+00,5.000000000000000000e+00,5.000000000000000000e+00,5.000000000000000000e+00,5.000000000000000000e+00,5.000000000000000000e+00,5.000000000000000000e+00,5.000000000000000000e+00,5.000000000000000000e+00,5.000000000000000000e+00,5.000000000000000000e+00,5.000000000000000000e+00,5.000000000000000000e+00,5.000000000000000000e+00,5.000000000000000000e+00,5.000000000000000000e+00,5.000000000000000000e+00,5.000000000000000000e+00,5.000000000000000000e+00,5.000000000000000000e+00,1.765390992164611816e+00,1.774762392044067383e+00,1.867595314979553223e+00,1.874000310897827148e+00,1.880449295043945312e+00,1.904539227485656738e+00,1.948572874069213867e+00,1.968197822570800781e+00,2.124682903289794922e+00,5.000000000000000000e+00,5.000000000000000000e+00,5.000000000000000000e+00,5.000000000000000000e+00,5.000000000000000000e+00,5.000000000000000000e+00,5.000000000000000000e+00,5.000000000000000000e+00,5.000000000000000000e+00,5.000000000000000000e+00,5.000000000000000000e+00,5.000000000000000000e+00,5.000000000000000000e+00,5.000000000000000000e+00,5.000000000000000000e+00,5.000000000000000000e+00,5.000000000000000000e+00,5.000000000000000000e+00,5.000000000000000000e+00,5.000000000000000000e+00,4.801752090454101562e+00,4.615674495697021484e+00,4.443502426147460938e+00,4.283713340759277344e+00,4.135016918182373047e+00,3.996297836303710938e+00,3.866584062576293945e+00,3.745025873184204102e+00,3.630877494812011719e+00,3.523482322692871094e+00,3.422257661819458008e+00,3.326686620712280273e+00,3.236308574676513672e+00,3.150710821151733398e+00,3.069525003433227539e+00,2.992417812347412109e+00,2.919089555740356445e+00,2.849269151687622070e+00,2.782710552215576172e+00,2.719190597534179688e+00,2.658505916595458984e+00,2.600470781326293945e+00,2.544915437698364258e+00,2.491683959960937500e+00
4.878713607788085938e+00,5.000000000000000000e+00,5.000000000000000000e+00,5.000000000000000000e+00,5.000000000000000000e+00,5.000000000000000000e+00,5.000000000000000000e+00,5.000000000000000000e+00,5.000000000000000000e+00,5.000000000000000000e+00,5.000000000000000000e+00,5.000000000000000000e+00,5.000000000000000000e+00,5.000000000000000000e+00,5.000000000000000000e+00,5.000000000000000000e+00,5.000000000000000000e+00,5.000000000000000000e+00,5.000000000000000000e+00,5.000000000000000000e+00,5.000000000000000000e+00,5.000000000000000000e+00,5.000000000000000000e+00,5.000000000000000000e+00,5.000000000000000000e+00,5.000000000000000000e+00,1.800430178642272949e+00,1.766417264938354492e+00,1.776224374771118164e+00,1.870189428329467773e+00,1.878388524055480957e+00,1.886659860610961914e+00,1.915023207664489746e+00,1.954428315162658691e+00,1.972146868705749512e+00,2.049578905105590820e+00,5.000000000000000000e+00,5.000000000000000000e+00,5.000000000000000000e+00,5.000000000000000000e+00,5.000000000000000000e+00,5.000000000000000000e+00,5.000000000000000000e+00,5.000000000000000000e+00,5.000000000000000000e+00,5.000000000000000000e+00,5.000000000000000000e+00,5.000000000000000000e+00,5.000000000000000000e+00,5.000000000000000000e+00,5.000000000000000000e+00,5.000000000000000000e+00,5.000000000000000000e+00,5.000000000000000000e+00,5.000000000000000000e+00,5.000000000000000000e+00,4.801881313323974609e+00,4.615817546844482422e+00,4.443634986877441406e+00,4.283836364746093750e+00,4.135131835937500000e+00,3.996404886245727539e+00,3.866684198379516602e+00,3.745119810104370117e+00,3.630966424942016602e+00,3.523566007614135742e+00,3.422336101531982422e+00,3.326760768890380859e+00,3.236378908157348633e+00,3.150777816772460938e+00,3.069588422775268555e+00,2.992478132247924805e+00,2.919146776199340820e+00,2.849323511123657227e+00,2.782762765884399414e+00,2.719240427017211914e+00,2.658553600311279297e+00,2.600516319274902344e+00,2.544958829879760742e+00,2.491725683212280273e+00
4.878600597381591797e+00,5.000000000000000000e+00,5.000000000000000000e+00,5.000000000000000000e+00,5.000000000000000000e+00,5.000000000000000000e+00,5.000000000000000000e+00,5.000000000000000000e+00,5.000000000000000000e+00,5.000000000000000000e+00,5.000000000000000000e+00,5.000000000000000000e+00,5.000000000000000000e+00,5.000000000000000000e+00,5.000000000000000000e+00,5.000000000000000000e+00,5.000000000000000000e+00,5.000000000000000000e+00,5.000000000000000000e+00,5.000000000000000000e+00,5.000000000000000000e+00,5.000000000000000000e+00,5.000000000000000000e+00,5.000000000000000000e+00,5.000000000000000000e+00,1.975737810134887695e+00,1.921936750411987305e+00,1.773549795150756836e+00,1.879093766212463379e+00,1.883259057998657227e+00,1.886264562606811523e+00,1.894605636596679688e+00,1.935776948928833008e+00,1.960695624351501465e+00,1.974922895431518555e+00,2.027166843414306641e+00,5.000000000000000000e+00,5.000000000000000000e+00,5.000000000000000000e+00,5.000000000000000000e+00,5.000000000000000000e+00,5.000000000000000000e+00,5.000000000000000000e+00,5.000000000000000000e+00,5.000000000000000000e+00,5.000000000000000000e+00,5.000000000000000000e+00,5.000000000000000000e+00,5.000000000000000000e+00,5.000000000000000000e+00,5.000000000000000000e+00,5.000000000000000000e+00,5.000000000000000000e+00,5.000000000000000000e+00,5.000000000000000000e+00,5.000000000000000000e+00,4.802036285400390625e+00,4.615960597991943359e+00,4.443767547607421875e+00,4.283959865570068359e+00,4.135246753692626953e+00,3.996512651443481445e+00,3.866784811019897461e+00,3.745214462280273438e+00,3.631054878234863281e+00,3.523649215698242188e+00,3.422415018081665039e+00,3.326835393905639648e+00,3.236449480056762695e+00,3.150844335556030273e+00,3.069651603698730469e+00,2.992538213729858398e+00,2.919203996658325195e+00,2.849378108978271484e+00,2.782814502716064453e+00,2.719290018081665039e+00,2.658601045608520508e+00,2.600561857223510742e+00,2.545002460479736328e+00,2.491767406463623047e+00
4.878487586975097656e+00,5.000000000000000000e+00,5.000000000000000000e+00,5.000000000000000000e+00,5.000000000000000000e+00,5.000000000000000000e+00,5.000000000000000000e+00,5.000000000000000000e+00,5.000000000000000000e+00,5.000000000000000000e+00,5.000000000000000000e+00,5.000000000000000000e+00,5.000000000000000000e+00,5.000000000000000000e+00,5.000000000000000000e+00,5.000000000000000000e+00,5.000000000000000000e+00,5.000000000000000000e+00,5.000000000000000000e+00,5.000000000000000000e+00,5.000000000000000000e+00,5.000000000000000000e+00,5.000000000000000000e+00,5.000000000000000000e+00,5.000000000000000000e+00,1.962882399559020996e+00,1.794590473175048828e+00,1.764906764030456543e+00,1.896156907081604004e+00,1.902215838432312012e+00,1.903111934661865234e+00,1.914972066879272461e+00,1.981861472129821777e+00,1.971253395080566406e+00,1.986465096473693848e+00,2.054656982421875000e+00,5.000000000000000000e+00,5.000000000000000000e+00,5.000000000000000000e+00,5.000000000000000000e+00,5.000000000000000000e+00,5.000000000000000000e+00,5.000000000000000000e+00,5.000000000000000000e+00,5.000000000000000000e+00,5.000000000000000000e+00,5.000000000000000000e+00,5.000000000000000000e+00,5.000000000000000000e+00,5.000000000000000000e+00,5.000000000000000000e+00,5.000000000000000000e+00,5.000000000000000000e+00,5.000000000000000000e+00,5.000000000000000000e+00,5.000000000000000000e+00,4.802191257476806641e+00,4.616104125976562500e+00,4.443900585174560547e+00,4.284083366394042969e+00,4.135361671447753906e+00,3.996619701385498047e+00,3.866885185241699219e+00,3.745308399200439453e+00,3.631143569946289062e+00,3.523732900619506836e+00,3.422493696212768555e+00,3.326909542083740234e+00,3.236519575119018555e+00,3.150911092758178711e+00,3.069715023040771484e+00,2.992598533630371094e+00,2.919261217117309570e+00,2.849432706832885742e+00,2.782866716384887695e+00,2.719339847564697266e+00,2.658648490905761719e+00,2.600607156753540039e+00,2.545045852661132812e+00,2.491809129714965820e+00
4.878374576568603516e+00,5.000000000000000000e+00,5.000000000000000000e+00,5.000000000000000000e+00,5.000000000000000000e+00,5.000000000000000000e+00,5.000000000000000000e+00,5.000000000000000000e+00,5.000000000000000000e+00,5.000000000000000000e+00,5.000000000000000000e+00,5.000000000000000000e+00,5.000000000000000000e+00,5.000000000000000000e+00,5.000000000000000000e+00,5.000000000000000000e+00,5.000000000000000000e+00,5.000000000000000000e+00,5.000000000000000000e+00,5.000000000000000000e+00,5.000000000000000000e+00,5.000000000000000000e+00,5.000000000000000000e+00,5.000000000000000000e+00,5.000000000000000000e+00,1.960237145423889160e+00,1.778677701950073242e+00,1.758724093437194824e+00,1.916221499443054199e+00,1.920150876045227051e+00,1.932333588600158691e+00,1.976469516754150391e+00,1.988357067108154297e+00,1.987299561500549316e+00,2.007321596145629883e+00,2.087659120559692383e+00,5.000000000000000000e+00,5.000000000000000000e+00,5.000000000000000000e+00,5.000000000000000000e+00,5.000000000000000000e+00,5.000000000000000000e+00,5.000000000000000000e+00,5.000000000000000000e+00,5.000000000000000000e+00,5.000000000000000000e+00,5.000000000000000000e+00,5.000000000000000000e+00,5.000000000000000000e+00,5.000000000000000000e+00,5.000000000000000000e+00,5.000000000000000000e+00,5.000000000000000000e+00,5.000000000000000000e+00,5.000000000000000000e+00,5.000000000000000000e+00,4.802346229553222656e+00,4.616247177124023438e+00,4.444033145904541016e+00,4.284206390380859375e+00,4.135476589202880859e+00,3.996727228164672852e+00,3.866985797882080078e+00,3.745402812957763672e+00,3.631232023239135742e+00,3.523816108703613281e+00,3.422572612762451172e+00,3.326984167098999023e+00,3.236590147018432617e+00,3.150977849960327148e+00,3.069778203964233398e+00,2.992658615112304688e+00,2.919318675994873047e+00,2.849487304687500000e+00,2.782918691635131836e+00,2.719389438629150391e+00,2.658695936203002930e+00,2.600652694702148438e+00,2.545089483261108398e+00,2.491850852966308594e+00
4.878261566162109375e+00,5.000000000000000000e+00,5.000000000000000000e+00,5.000000000000000000e+00,5.000000000000000000e+00,5.000000000000000000e+00,5.000000000000000000e+00,5.000000000000000000e+00,5.000000000000000000e+00,5.000000000000000000e+00,5.000000000000000000e+00,5.000000000000000000e+00,5.000000000000000000e+00,5.000000000000000000e+00,5.000000000000000000e+00,5.000000000000000000e+00,5.000000000000000000e+00,5.000000000000000000e+00,5.000000000000000000e+00,5.000000000000000000e+00,5.000000000000000000e+00,5.000000000000000000e+00,5.000000000000000000e+00,5.000000000000000000e+00,5.000000000000000000e+00,1.968187451362609863e+00,1.773529887199401855e+00,1.757274627685546875e+00,1.935692787170410156e+00,1.942239880561828613e+00,1.989498496055603027e+00,2.014758586883544922e+00,1.991669654846191406e+00,2.005362272262573242e+00,2.023902893066406250e+00,5.000000000000000000e+00,5.000000000000000000e+00,5.000000000000000000e+00,5.000000000000000000e+00,5.000000000000000000e+00,5.000000000000000000e+00,5.000000000000000000e+00,5.000000000000000000e+00,5.000000000000000000e+00,5.000000000000000000e+00,5.000000000000000000e+00,5.000000000000000000e+00,5.000000000000000000e+00,5.000000000000000000e+00,5.000000000000000000e+00,5.000000000000000000e+00,5.000000000000000000e+00,5.000000000000000000e+00,5.000000000000000000e+00,5.000000000000000000e+00,5.000000000000000000e+00,4.802501201629638672e+00,4.616390228271484375e+00,4.444165706634521484e+00,4.284329891204833984e+00,4.135591506958007812e+00,3.996834278106689453e+00,3.867086172103881836e+00,3.745496988296508789e+00,3.631320953369140625e+00,3.523899793624877930e+00,3.422651052474975586e+00,3.327058315277099609e+00,3.236660480499267578e+00,3.151044607162475586e+00,3.069841623306274414e+00,2.992718935012817383e+00,2.919375896453857422e+00,2.849541902542114258e+00,2.782970905303955078e+00,2.719439268112182617e+00,2.658743619918823242e+00,2.600697994232177734e+00,2.545132875442504883e+00,2.491892576217651367e+00
4.878149032592773438e+00,5.000000000000000000e+00,5.000000000000000000e+00,5.000000000000000000e+00,5.000000000000000000e+00,5.000000000000000000e+00,5.000000000000000000e+00,5.000000000000000000e+00,5.000000000000000000e+00,5.000000000000000000e+00,5.000000000000000000e+00,5.000000000000000000e+00,5.000000000000000000e+00,5.000000000000000000e+00,5.000000000000000000e+00,5.000000000000000000e+00,5.000000000000000000e+00,5.000000000000000000e+00,5.000000000000000000e+00,5.000000000000000000e+00,5.000000000000000000e+00,5.000000000000000000e+00,5.000000000000000000e+00,5.000000000000000000e+00,5.000000000000000000e+00,1.976202607154846191e+00,1.770635724067687988e+00,1.938660025596618652e+00,1.950980067253112793e+00,1.982983708381652832e+00,2.056615114212036133e+00,2.016452312469482422e+00,1.997512340545654297e+00,2.015746116638183594e+00,2.034140825271606445e+00,5.000000000000000000e+00,5.000000000000000000e+00,5.000000000000000000e+00,5.000000000000000000e+00,5.000000000000000000e+00,5.000000000000000000e+00,5.000000000000000000e+00,5.000000000000000000e+00,5.000000000000000000e+00,5.000000000000000000e+00,5.000000000000000000e+00,5.000000000000000000e+00,5.000000000000000000e+00,5.000000000000000000e+00,5.000000000000000000e+00,5.000000000000000000e+00,5.000000000000000000e+00,5.000000000000000000e+00,5.000000000000000000e+00,5.000000000000000000e+00,5.000000000000000000e+00,4.802656173706054688e+00,4.616533756256103516e+00,4.444298744201660156e+00,4.284453392028808594e+00,4.135706424713134766e+00,3.996942043304443359e+00,3.867186784744262695e+00,3.745590925216674805e+00,3.631409168243408203e+00,3.523983001708984375e+00,3.422729969024658203e+00,3.327132940292358398e+00,3.236731052398681641e+00,3.151111125946044922e+00,3.069904804229736328e+00,2.992779016494750977e+00,2.919433116912841797e+00,2.849596500396728516e+00,2.783022880554199219e+00,2.719488859176635742e+00,2.658791065216064453e+00,2.600743532180786133e+00,2.545176506042480469e+00,2.491934061050415039e+00
4.878035545349121094e+00,5.000000000000000000e+00,5.000000000000000000e+00,5.000000000000000000e+00,5.000000000000000000e+00,5.000000000000000000e+00,5.000000000000000000e+00,5.000000000000000000e+00,5.000000000000000000e+00,5.000000000000000000e+00,5.000000000000000000e+00,5.000000000000000000e+00,5.000000000000000000e+00,5.000000000000000000e+00,5.000000000000000000e+00,5.000000000000000000e+00,5.000000000000000000e+00,5.000000000000000000e+00,5.000000000000000000e+00,5.000000000000000000e+00,5.000000000000000000e+00,5.000000000000000000e+00,5.000000000000000000e+00,5.000000000000000000e+00,5.000000000000000000e+00,1.984243035316467285e+00,1.770489573478698730e+00,1.953801870346069336e+00,1.965718507766723633e+00,2.011519670486450195e+00,2.062808513641357422e+00,2.017280101776123047e+00,1.998008608818054199e+00,2.016251564025878906e+00,2.033451795578002930e+00,5.000000000000000000e+00,5.000000000000000000e+00,5.000000000000000000e+00,5.000000000000000000e+00,5.000000000000000000e+00,5.000000000000000000e+00,5.000000000000000000e+00,5.000000000000000000e+00,5.000000000000000000e+00,5.000000000000000000e+00,5.000000000000000000e+00,5.000000000000000000e+00,5.000000000000000000e+00,5.000000000000000000e+00,5.000000000000000000e+00,5.000000000000000000e+00,5.000000000000000000e+00,5.000000000000000000e+00,5.000000000000000000e+00,5.000000000000000000e+00,5.000000000000000000e+00,4.802831172943115234e+00,4.616689682006835938e+00,4.444438934326171875e+00,4.284578800201416016e+00,4.135821342468261719e+00,3.997049093246459961e+00,3.867287158966064453e+00,3.745685577392578125e+00,3.631498098373413086e+00,3.524066686630249023e+00,3.422808647155761719e+00,3.327207088470458984e+00,3.236801147460937500e+00,3.151178121566772461e+00,3.069968461990356445e+00,2.992838859558105469e+00,2.919490337371826172e+00,2.849650859832763672e+00,2.783074855804443359e+00,2.719538688659667969e+00,2.658838510513305664e+00,2.600788831710815430e+00,2.545220136642456055e+00,2.491976022720336914e+00
4.877923011779785156e+00,5.000000000000000000e+00,5.000000000000000000e+00,5.000000000000000000e+00,5.000000000000000000e+00,5.000000000000000000e+00,5.000000000000000000e+00,5.000000000000000000e+00,5.000000000000000000e+00,5.000000000000000000e+00,5.000000000000000000e+00,5.000000000000000000e+00,5.000000000000000000e+00,5.000000000000000000e+00,5.000000000000000000e+00,5.000000000000000000e+00,5.000000000000000000e+00,5.000000000000000000e+00,5.000000000000000000e+00,5.000000000000000000e+00,5.000000000000000000e+00,5.000000000000000000e+00,5.000000000000000000e+00,5.000000000000000000e+00,5.000000000000000000e+00,1.992847800254821777e+00,1.963194608688354492e+00,1.969182133674621582e+00,1.980681300163269043e+00,2.040888786315917969e+00,2.068196773529052734e+00,2.018108606338500977e+00,1.998990058898925781e+00,2.016092300415039062e+00,2.035314798355102539e+00,5.000000000000000000e+00,5.000000000000000000e+00,5.000000000000000000e+00,5.000000000000000000e+00,5.000000000000000000e+00,5.000000000000000000e+00,5.000000000000000000e+00,5.000000000000000000e+00,5.000000000000000000e+00,5.000000000000000000e+00,5.000000000000000000e+00,5.000000000000000000e+00,5.000000000000000000e+00,5.000000000000000000e+00,5.000000000000000000e+00,5.000000000000000000e+00,5.000000000000000000e+00,5.000000000000000000e+00,5.000000000000000000e+00,5.000000000000000000e+00,5.000000000000000000e+00,4.803024768829345703e+00,4.616868495941162109e+00,4.444604396820068359e+00,4.284732818603515625e+00,4.135962009429931641e+00,3.997176647186279297e+00,3.867402553558349609e+00,3.745790481567382812e+00,3.631593227386474609e+00,3.524152994155883789e+00,3.422887086868286133e+00,3.327281713485717773e+00,3.236871719360351562e+00,3.151244640350341797e+00,3.070031642913818359e+00,2.992899179458618164e+00,2.919547796249389648e+00,2.849705696105957031e+00,2.783126831054687500e+00,2.719588279724121094e+00,2.658885955810546875e+00,2.600834369659423828e+00,2.545263767242431641e+00,2.492017745971679688e+00
4.877810001373291016e+00,5.000000000000000000e+00,5.000000000000000000e+00,5.000000000000000000e+00,5.000000000000000000e+00,5.000000000000000000e+00,5.000000000000000000e+00,5.000000000000000000e+00,5.000000000000000000e+00,5.000000000000000000e+00,5.000000000000000000e+00,5.000000000000000000e+00,5.000000000000000000e+00,5.000000000000000000e+00,5.000000000000000000e+00,5.000000000000000000e+00,5.000000000000000000e+00,5.000000000000000000e+00,5.000000000000000000e+00,5.000000000000000000e+00,5.000000000000000000e+00,5.000000000000000000e+00,5.000000000000000000e+00,5.000000000000000000e+00,5.000000000000000000e+00,2.004225492477416992e+00,1.973897337913513184e+00,1.984080672264099121e+00,1.997758626937866211e+00,5.000000000000000000e+00,2.073292255401611328e+00,2.020995616912841797e+00,2.001975536346435547e+00,2.015892982482910156e+00,2.041867494583129883e+00,5.000000000000000000e+00,5.000000000000000000e+00,5.000000000000000000e+00,5.000000000000000000e+00,5.000000000000000000e+00,5.000000000000000000e+00,5.000000000000000000e+00,5.000000000000000000e+00,5.000000000000000000e+00,5.000000000000000000e+00,5.000000000000000000e+00,5.000000000000000000e+00,5.000000000000000000e+00,5.000000000000000000e+00,5.000000000000000000e+00,5.000000000000000000e+00,5.000000000000000000e+00,5.000000000000000000e+00,5.000000000000000000e+00,5.000000000000000000e+00,5.000000000000000000e+00,4.803217887878417969e+00,4.617046833038330078e+00,4.444769382476806641e+00,4.284885883331298828e+00,4.136105537414550781e+00,3.997310400009155273e+00,3.867527961730957031e+00,3.745908021926879883e+00,3.631703615188598633e+00,3.524256944656372070e+00,3.422985315322875977e+00,3.327371358871459961e+00,3.236953973770141602e+00,3.151320219039916992e+00,3.070101022720336914e+00,2.992962837219238281e+00,2.919605970382690430e+00,2.849760055541992188e+00,2.783179044723510742e+00,2.719638109207153320e+00,2.658933639526367188e+00,2.600879907608032227e+00,2.545307159423828125e+00,2.492059469223022461e+00
4.877696990966796875e+00,5.000000000000000000e+00,5.000000000000000000e+00,5.000000000000000000e+00,5.000000000000000000e+00,5.000000000000000000e+00,5.000000000000000000e+00,5.000000000000000000e+00,5.000000000000000000e+00,5.000000000000000000e+00,5.000000000000000000e+00,5.000000000000000000e+00,5.000000000000000000e+00,5.000000000000000000e+00,5.000000000000000000e+00,5.000000000000000000e+00,5.000000000000000000e+00,5.000000000000000000e+00,5.000000000000000000e+00,5.000000000000000000e+00,5.000000000000000000e+00,5.000000000000000000e+00,5.000000000000000000e+00,5.000000000000000000e+00,2.055722236633300781e+00,2.015734434127807617e+00,1.989440441131591797e+00,1.998840928077697754e+00,2.030899763107299805e+00,5.000000000000000000e+00,2.075124263763427734e+00,2.022395849227905273e+00,2.007630109786987305e+00,2.019103765487670898e+00,2.055377483367919922e+00,5.000000000000000000e+00,5.000000000000000000e+00,5.000000000000000000e+00,5.000000000000000000e+00,5.000000000000000000e+00,5.000000000000000000e+00,5.000000000000000000e+00,5.000000000000000000e+00,5.000000000000000000e+00,5.000000000000000000e+00,5.000000000000000000e+00,5.000000000000000000e+00,5.000000000000000000e+00,5.000000000000000000e+00,5.000000000000000000e+00,5.000000000000000000e+00,5.000000000000000000e+00,5.000000000000000000e+00,5.000000000000000000e+00,5.000000000000000000e+00,5.000000000000000000e+00,4.803411006927490234e+00,4.617225170135498047e+00,4.444934844970703125e+00,4.285039901733398438e+00,4.136248588562011719e+00,3.997444391250610352e+00,3.867653131484985352e+00,3.746025562286376953e+00,3.631814241409301758e+00,3.524360895156860352e+00,3.423083305358886719e+00,3.327464103698730469e+00,3.237041711807250977e+00,3.151403427124023438e+00,3.070179939270019531e+00,2.993037939071655273e+00,2.919677257537841797e+00,2.849826812744140625e+00,2.783241033554077148e+00,2.719695091247558594e+00,2.658986330032348633e+00,2.600928783416748047e+00,2.545352220535278320e+00,2.492101192474365234e+00
4.877584457397460938e+00,5.000000000000000000e+00,5.000000000000000000e+00,5.000000000000000000e+00,5.000000000000000000e+00,5.000000000000000000e+00,5.000000000000000000e+00,5.000000000000000000e+00,5.000000000000000000e+00,5.000000000000000000e+00,5.000000000000000000e+00,5.000000000000000000e+00,5.000000000000000000e+00,5.000000000000000000e+00,5.000000000000000000e+00,5.000000000000000000e+00,5.000000000000000000e+00,5.000000000000000000e+00,5.000000000000000000e+00,5.000000000000000000e+00,5.000000000000000000e+00,5.000000000000000000e+00,5.000000000000000000e+00,5.000000000000000000e+00,2.065080404281616211e+00,2.022918462753295898e+00,2.005229949951171875e+00,2.013822078704833984e+00,2.065421819686889648e+00,5.000000000000000000e+00,2.088716745376586914e+00,2.023797750473022461e+00,2.013659000396728516e+00,2.022803783416748047e+00,2.069107770919799805e+00,5.000000000000000000e+00,5.000000000000000000e+00,5.000000000000000000e+00,5.000000000000000000e+00,5.000000000000000000e+00,5.000000000000000000e+00,5.000000000000000000e+00,5.000000000000000000e+00,5.000000000000000000e+00,5.000000000000000000e+00,5.000000000000000000e+00,5.000000000000000000e+00,5.000000000000000000e+00,5.000000000000000000e+00,5.000000000000000000e+00,5.000000000000000000e+00,5.000000000000000000e+00,5.000000000000000000e+00,5.000000000000000000e+00,5.000000000000000000e+00,5.000000000000000000e+00,4.803604125976562500e+00,4.617403984069824219e+00,4.445100307464599609e+00,4.285193443298339844e+00,4.136392116546630859e+00,3.997578144073486328e+00,3.867778539657592773e+00,3.746143102645874023e+00,3.631924629211425781e+00,3.524465084075927734e+00,3.423181533813476562e+00,3.327556848526000977e+00,3.237129449844360352e+00,3.151486396789550781e+00,3.070258855819702148e+00,2.993112802505493164e+00,2.919748783111572266e+00,2.849895000457763672e+00,2.783305883407592773e+00,2.719757080078125000e+00,2.659045457839965820e+00,2.600985288619995117e+00,2.545406579971313477e+00,2.492153167724609375e+00
4.877471446990966797e+00,5.000000000000000000e+00,5.000000000000000000e+00,5.000000000000000000e+00,5.000000000000000000e+00,5.000000000000000000e+00,5.000000000000000000e+00,5.000000000000000000e+00,5.000000000000000000e+00,5.000000000000000000e+00,5.000000000000000000e+00,5.000000000000000000e+00,5.000000000000000000e+00,5.000000000000000000e+00,5.000000000000000000e+00,5.000000000000000000e+00,5.000000000000000000e+00,5.000000000000000000e+00,5.000000000000000000e+00,5.000000000000000000e+00,5.000000000000000000e+00,5.000000000000000000e+00,5.000000000000000000e+00,5.000000000000000000e+00,2.075147867202758789e+00,2.034444332122802734e+00,2.018647193908691406e+00,2.034444808959960938e+00,5.000000000000000000e+00,5.000000000000000000e+00,5.000000000000000000e+00,2.028440713882446289e+00,2.019724369049072266e+00,2.030205011367797852e+00,2.083142995834350586e+00,5.000000000000000000e+00,5.000000000000000000e+00,5.000000000000000000e+00,5.000000000000000000e+00,5.000000000000000000e+00,5.000000000000000000e+00,5.000000000000000000e+00,5.000000000000000000e+00,5.000000000000000000e+00,5.000000000000000000e+00,5.000000000000000000e+00,5.000000000000000000e+00,5.000000000000000000e+00,5.000000000000000000e+00,5.000000000000000000e+00,5.000000000000000000e+00,5.000000000000000000e+00,5.000000000000000000e+00,5.000000000000000000e+00,5.000000000000000000e+00,5.000000000000000000e+00,4.803797245025634766e+00,4.617582321166992188e+00,4.445265769958496094e+00,4.285347461700439453e+00,4.136535167694091797e+00,3.997711896896362305e+00,3.867903709411621094e+00,3.746260643005371094e+00,3.632035017013549805e+00,3.524569034576416016e+00,3.423279523849487305e+00,3.327649593353271484e+00,3.237217187881469727e+00,3.151569604873657227e+00,3.070337533950805664e+00,2.993187904357910156e+00,2.919820070266723633e+00,2.849962949752807617e+00,2.783370733261108398e+00,2.719819068908691406e+00,2.659104824066162109e+00,2.601042032241821289e+00,2.545460700988769531e+00,2.492205142974853516e+00
4.877358436584472656e+00,5.000000000000000000e+00,5.000000000000000000e+00,5.000000000000000000e+00,5.000000000000000000e+00,5.000000000000000000e+00,5.000000000000000000e+00,5.000000000000000000e+00,5.000000000000000000e+00,5.000000000000000000e+00,5.000000000000000000e+00,5.000000000000000000e+00,5.000000000000000000e+00,5.000000000000000000e+00,5.000000000000000000e+00,5.000000000000000000e+00,5.000000000000000000e+00,5.000000000000000000e+00,5.000000000000000000e+00,5.000000000000000000e+00,5.000000000000000000e+00,5.000000000000000000e+00,5.000000000000000000e+00,5.000000000000000000e+00,5.000000000000000000e+00,2.028441190719604492e+00,2.010625839233398438e+00,2.018558740615844727e+00,5.000000000000000000e+00,5.000000000000000000e+00,5.000000000000000000e+00,2.029844522476196289e+00,2.015181064605712891e+00,1.993576407432556152e+00,1.976229071617126465e+00,1.984145045280456543e+00,5.000000000000000000e+00,5.000000000000000000e+00,5.000000000000000000e+00,5.000000000000000000e+00,5.000000000000000000e+00,5.000000000000000000e+00,5.000000000000000000e+00,5.000000000000000000e+00,5.000000000000000000e+00,5.000000000000000000e+00,5.000000000000000000e+00,5.000000000000000000e+00,5.000000000000000000e+00,5.000000000000000000e+00,5.000000000000000000e+00,5.000000000000000000e+00,5.000000000000000000e+00,5.000000000000000000e+00,5.000000000000000000e+00,5.000000000000000000e+00,4.803990840911865234e+00,4.617761135101318359e+00,4.445431709289550781e+00,4.285501003265380859e+00,4.136678695678710938e+00,3.997845888137817383e+00,3.868028879165649414e+00,3.746377706527709961e+00,3.632145643234252930e+00,3.524672985076904297e+00,3.423377752304077148e+00,3.327742338180541992e+00,3.237304925918579102e+00,3.151652812957763672e+00,3.070416450500488281e+00,2.993263006210327148e+00,2.919891595840454102e+00,2.850030899047851562e+00,2.783435583114624023e+00,2.719881057739257812e+00,2.659163951873779297e+00,2.601098537445068359e+00,2.545515060424804688e+00,2.492257118225097656e+00
4.877245426177978516e+00,5.000000000000000000e+00,5.000000000000000000e+00,5.000000000000000000e+00,5.000000000000000000e+00,5.000000000000000000e+00,5.000000000000000000e+00,5.000000000000000000e+00,5.000000000000000000e+00,5.000000000000000000e+00,5.000000000000000000e+00,5.000000000000000000e+00,5.000000000000000000e+00,5.000000000000000000e+00,5.000000000000000000e+00,5.000000000000000000e+00,5.000000000000000000e+00,5.000000000000000000e+00,5.000000000000000000e+00,5.000000000000000000e+00,5.000000000000000000e+00,5.000000000000000000e+00,5.000000000000000000e+00,5.000000000000000000e+00,5.000000000000000000e+00,2.020375251770019531e+00,2.000409126281738281e+00,2.012066364288330078e+00,2.059455394744873047e+00,5.000000000000000000e+00,5.000000000000000000e+00,2.038545608520507812e+00,2.000545740127563477e+00,1.974046349525451660e+00,1.953441739082336426e+00,1.937191605567932129e+00,1.952875733375549316e+00,5.000000000000000000e+00,5.000000000000000000e+00,5.000000000000000000e+00,5.000000000000000000e+00,5.000000000000000000e+00,5.000000000000000000e+00,5.000000000000000000e+00,5.000000000000000000e+00,5.000000000000000000e+00,5.000000000000000000e+00,5.000000000000000000e+00,5.000000000000000000e+00,5.000000000000000000e+00,5.000000000000000000e+00,5.000000000000000000e+00,5.000000000000000000e+00,5.000000000000000000e+00,5.000000000000000000e+00,5.000000000000000000e+00,4.804183483123779297e+00,4.617939472198486328e+00,4.445597171783447266e+00,4.285655021667480469e+00,4.136821746826171875e+00,3.997979640960693359e+00,3.868154287338256836e+00,3.746495246887207031e+00,3.632256031036376953e+00,3.524777173995971680e+00,3.423475980758666992e+00,3.327835083007812500e+00,3.237392663955688477e+00,3.151736021041870117e+00,3.070495367050170898e+00,2.993337869644165039e+00,2.919962882995605469e+00,2.850099086761474609e+00,2.783500432968139648e+00,2.719943046569824219e+00,2.659223079681396484e+00,2.601155281066894531e+00,2.545569419860839844e+00,2.492309093475341797e+00
4.877132892608642578e+00,5.000000000000000000e+00,5.000000000000000000e+00,5.000000000000000000e+00,5.000000000000000000e+00,5.000000000000000000e+00,5.000000000000000000e+00,5.000000000000000000e+00,5.000000000000000000e+00,5.000000000000000000e+00,5.000000000000000000e+00,5.000000000000000000e+00,5.000000000000000000e+00,5.000000000000000000e+00,5.000000000000000000e+00,5.000000000000000000e+00,5.000000000000000000e+00,5.000000000000000000e+00,5.000000000000000000e+00,5.000000000000000000e+00,5.000000000000000000e+00,5.000000000000000000e+00,5.000000000000000000e+00,5.000000000000000000e+00,5.000000000000000000e+00,2.012373447418212891e+00,1.995724797248840332e+00,2.003031730651855469e+00,2.036510944366455078e+00,5.000000000000000000e+00,5.000000000000000000e+00,5.000000000000000000e+00,2.026451826095581055e+00,1.986393451690673828e+00,1.942848682403564453e+00,1.927219152450561523e+00,1.914735555648803711e+00,1.921283245086669922e+00,5.000000000000000000e+00,5.000000000000000000e+00,5.000000000000000000e+00,5.000000000000000000e+00,5.000000000000000000e+00,5.000000000000000000e+00,5.000000000000000000e+00,5.000000000000000000e+00,5.000000000000000000e+00,5.000000000000000000e+00,5.000000000000000000e+00,5.000000000000000000e+00,5.000000000000000000e+00,5.000000000000000000e+00,5.000000000000000000e+00,5.000000000000000000e+00,5.000000000000000000e+00,5.000000000000000000e+00,4.804377079010009766e+00,4.618118286132812500e+00,4.445762634277343750e+00,4.285809040069580078e+00,4.136965274810791016e+00,3.998113393783569336e+00,3.868279695510864258e+00,3.746612787246704102e+00,3.632366418838500977e+00,3.524881124496459961e+00,3.423573970794677734e+00,3.327927827835083008e+00,3.237480401992797852e+00,3.151819229125976562e+00,3.070574283599853516e+00,2.993412971496582031e+00,2.920034408569335938e+00,2.850167036056518555e+00,2.783565282821655273e+00,2.720005035400390625e+00,2.659282445907592773e+00,2.601212024688720703e+00,2.545623540878295898e+00,2.492361307144165039e+00
4.877009868621826172e+00,5.000000000000000000e+00,5.000000000000000000e+00,5.000000000000000000e+00,5.000000000000000000e+00,5.000000000000000000e+00,5.000000000000000000e+00,5.000000000000000000e+00,5.000000000000000000e+00,5.000000000000000000e+00,5.000000000000000000e+00,5.000000000000000000e+00,5.000000000000000000e+00,5.000000000000000000e+00,5.000000000000000000e+00,5.000000000000000000e+00,5.000000000000000000e+00,5.000000000000000000e+00,5.000000000000000000e+00,5.000000000000000000e+00,5.000000000000000000e+00,5.000000000000000000e+00,5.000000000000000000e+00,5.000000000000000000e+00,5.000000000000000000e+00,2.025274753570556641e+00,1.997403621673583984e+00,2.001630783081054688e+00,2.034537315368652344e+00,5.000000000000000000e+00,5.000000000000000000e+00,5.000000000000000000e+00,5.000000000000000000e+00,5.000000000000000000e+00,1.953490138053894043e+00,1.917152881622314453e+00,1.900687813758850098e+00,1.889467597007751465e+00,1.892779111862182617e+00,5.000000000000000000e+00,5.000000000000000000e+00,5.000000000000000000e+00,5.000000000000000000e+00,5.000000000000000000e+00,5.000000000000000000e+00,5.000000000000000000e+00,5.000000000000000000e+00,5.000000000000000000e+00,5.000000000000000000e+00,5.000000000000000000e+00,5.000000000000000000e+00,5.000000000000000000e+00,5.000000000000000000e+00,5.000000000000000000e+00,5.000000000000000000e+00,5.000000000000000000e+00,4.804570198059082031e+00,4.618296623229980469e+00,4.445927619934082031e+00,4.285962581634521484e+00,4.137108802795410156e+00,3.998247385025024414e+00,3.868404865264892578e+00,3.746730327606201172e+00,3.632477045059204102e+00,3.524985313415527344e+00,3.423672199249267578e+00,3.328020572662353516e+00,3.237568140029907227e+00,3.151902437210083008e+00,3.070653200149536133e+00,2.993488073348999023e+00,2.920105695724487305e+00,2.850234985351562500e+00,2.783629894256591797e+00,2.720066785812377930e+00,2.659341573715209961e+00,2.601268529891967773e+00,2.545677900314331055e+00,2.492413282394409180e+00
4.876884460449218750e+00,5.000000000000000000e+00,5.000000000000000000e+00,5.000000000000000000e+00,5.000000000000000000e+00,5.000000000000000000e+00,5.000000000000000000e+00,5.000000000000000000e+00,5.000000000000000000e+00,5.000000000000000000e+00,5.000000000000000000e+00,5.000000000000000000e+00,5.000000000000000000e+00,5.000000000000000000e+00,5.000000000000000000e+00,5.000000000000000000e+00,5.000000000000000000e+00,5.000000000000000000e+00,5.000000000000000000e+00,5.000000000000000000e+00,5.000000000000000000e+00,5.000000000000000000e+00,5.000000000000000000e+00,5.000000000000000000e+00,5.000000000000000000e+00,2.044326066970825195e+00,2.000610828399658203e+00,2.001679182052612305e+00,2.035395860671997070e+00,5.000000000000000000e+00,5.000000000000000000e+00,5.000000000000000000e+00,5.000000000000000000e+00,5.000000000000000000e+00,5.000000000000000000e+00,1.922281265258789062e+00,1.891492843627929688e+00,1.875732779502868652e+00,1.865914344787597656e+00,1.869457483291625977e+00,5.000000000000000000e+00,5.000000000000000000e+00,5.000000000000000000e+00,5.000000000000000000e+00,5.000000000000000000e+00,5.000000000000000000e+00,5.000000000000000000e+00,5.000000000000000000e+00,5.000000000000000000e+00,5.000000000000000000e+00,5.000000000000000000e+00,5.000000000000000000e+00,5.000000000000000000e+00,5.000000000000000000e+00,5.000000000000000000e+00,5.000000000000000000e+00,4.804763793945312500e+00,4.618475437164306641e+00,4.446093082427978516e+00,4.286116600036621094e+00,4.137251853942871094e+00,3.998381137847900391e+00,3.868530273437500000e+00,3.746847867965698242e+00,3.632587432861328125e+00,3.525089263916015625e+00,3.423770427703857422e+00,3.328113079071044922e+00,3.237656116485595703e+00,3.151985645294189453e+00,3.070732355117797852e+00,2.993563175201416016e+00,2.920177221298217773e+00,2.850303173065185547e+00,2.783694744110107422e+00,2.720128774642944336e+00,2.659400939941406250e+00,2.601325273513793945e+00,2.545732021331787109e+00,2.492465257644653320e+00
4.876759052276611328e+00,5.000000000000000000e+00,5.000000000000000000e+00,5.000000000000000000e+00,5.000000000000000000e+00,5.000000000000000000e+00,5.000000000000000000e+00,5.000000000000000000e+00,5.000000000000000000e+00,5.000000000000000000e+00,5.000000000000000000e+00,5.000000000000000000e+00,5.000000000000000000e+00,5.000000000000000000e+00,5.000000000000000000e+00,5.000000000000000000e+00,5.000000000000000000e+00,5.000000000000000000e+00,5.000000000000000000e+00,5.000000000000000000e+00,5.000000000000000000e+00,5.000000000000000000e+00,5.000000000000000000e+00,5.000000000000000000e+00,5.000000000000000000e+00,5.000000000000000000e+00,2.003237247467041016e+00,2.001800060272216797e+00,2.027637004852294922e+00,5.000000000000000000e+00,5.000000000000000000e+00,5.000000000000000000e+00,5.000000000000000000e+00,5.000000000000000000e+00,5.000000000000000000e+00,5.000000000000000000e+00,1.897260069847106934e+00,1.866963744163513184e+00,1.854223608970642090e+00,1.845434784889221191e+00,1.854365706443786621e+00,5.000000000000000000e+00,5.000000000000000000e+00,5.000000000000000000e+00,5.000000000000000000e+00,5.000000000000000000e+00,5.000000000000000000e+00,5.000000000000000000e+00,5.000000000000000000e+00,5.000000000000000000e+00,5.000000000000000000e+00,5.000000000000000000e+00,5.000000000000000000e+00,5.000000000000000000e+00,5.000000000000000000e+00,5.000000000000000000e+00,4.804956912994384766e+00,4.618654251098632812e+00,4.446259021759033203e+00,4.286270141601562500e+00,4.137394905090332031e+00,3.998515129089355469e+00,3.868655681610107422e+00,3.746965408325195312e+00,3.632698059082031250e+00,3.525193452835083008e+00,3.423868656158447266e+00,3.328205823898315430e+00,3.237743854522705078e+00,3.152068853378295898e+00,3.070811271667480469e+00,2.993638038635253906e+00,2.920248508453369141e+00,2.850371122360229492e+00,2.783759832382202148e+00,2.720190763473510742e+00,2.659460067749023438e+00,2.601382017135620117e+00,2.545786380767822266e+00,2.492517232894897461e+00
4.876633167266845703e+00,5.000000000000000000e+00,5.000000000000000000e+00,5.000000000000000000e+00,5.000000000000000000e+00,5.000000000000000000e+00,5.000000000000000000e+00,5.000000000000000000e+00,5.000000000000000000e+00,5.000000000000000000e+00,5.000000000000000000e+00,5.000000000000000000e+00,5.000000000000000000e+00,5.000000000000000000e+00,5.000000000000000000e+00,5.000000000000000000e+00,5.000000000000000000e+00,5.000000000000000000e+00,5.000000000000000000e+00,5.000000000000000000e+00,5.000000000000000000e+00,5.000000000000000000e+00,5.000000000000000000e+00,5.000000000000000000e+00,5.000000000000000000e+00,5.000000000000000000e+00,2.005870580673217773e+00,2.001920700073242188e+00,2.018539667129516602e+00,5.000000000000000000e+00,5.000000000000000000e+00,5.000000000000000000e+00,5.000000000000000000e+00,5.000000000000000000e+00,5.000000000000000000e+00,5.000000000000000000e+00,5.000000000000000000e+00,1.874223470687866211e+00,1.843062996864318848e+00,1.843345046043395996e+00,1.836860775947570801e+00,5.000000000000000000e+00,5.000000000000000000e+00,5.000000000000000000e+00,5.000000000000000000e+00,5.000000000000000000e+00,5.000000000000000000e+00,5.000000000000000000e+00,5.000000000000000000e+00,5.000000000000000000e+00,5.000000000000000000e+00,5.000000000000000000e+00,5.000000000000000000e+00,5.000000000000000000e+00,5.000000000000000000e+00,5.000000000000000000e+00,4.805150508880615234e+00,4.618832588195800781e+00,4.446424484252929688e+00,4.286424160003662109e+00,4.137538433074951172e+00,3.998649120330810547e+00,3.868780851364135742e+00,3.747082948684692383e+00,3.632808446884155273e+00,3.525297403335571289e+00,3.423966646194458008e+00,3.328298568725585938e+00,3.237831592559814453e+00,3.152152061462402344e+00,3.070890188217163086e+00,2.993713140487670898e+00,2.920320034027099609e+00,2.850439071655273438e+00,2.783824682235717773e+00,2.720252752304077148e+00,2.659519195556640625e+00,2.601438522338867188e+00,2.545840740203857422e+00,2.492569208145141602e+00
4.876507759094238281e+00,5.000000000000000000e+00,5.000000000000000000e+00,5.000000000000000000e+00,5.000000000000000000e+00,5.000000000000000000e+00,5.000000000000000000e+00,5.000000000000000000e+00,5.000000000000000000e+00,5.000000000000000000e+00,5.000000000000000000e+00,5.000000000000000000e+00,5.000000000000000000e+00,5.000000000000000000e+00,5.000000000000000000e+00,5.000000000000000000e+00,5.000000000000000000e+00,5.000000000000000000e+00,5.000000000000000000e+00,5.000000000000000000e+00,5.000000000000000000e+00,5.000000000000000000e+00,5.000000000000000000e+00,5.000000000000000000e+00,5.000000000000000000e+00,5.000000000000000000e+00,2.010555267333984375e+00,2.001876115798950195e+00,2.018951177597045898e+00,5.000000000000000000e+00,5.000000000000000000e+00,5.000000000000000000e+00,5.000000000000000000e+00,5.000000000000000000e+00,5.000000000000000000e+00,5.000000000000000000e+00,5.000000000000000000e+00,5.000000000000000000e+00,1.850799560546875000e+00,1.828313350677490234e+00,1.809187889099121094e+00,1.785830855369567871e+00,5.000000000000000000e+00,5.000000000000000000e+00,5.000000000000000000e+00,5.000000000000000000e+00,5.000000000000000000e+00,5.000000000000000000e+00,5.000000000000000000e+00,5.000000000000000000e+00,5.000000000000000000e+00,5.000000000000000000e+00,5.000000000000000000e+00,5.000000000000000000e+00,5.000000000000000000e+00,5.000000000000000000e+00,4.805343627929687500e+00,4.619011402130126953e+00,4.446589946746826172e+00,4.286578178405761719e+00,4.137681961059570312e+00,3.998782873153686523e+00,3.868906259536743164e+00,3.747200489044189453e+00,3.632919073104858398e+00,3.525401592254638672e+00,3.424064874649047852e+00,3.328391313552856445e+00,3.237919330596923828e+00,3.152235269546508789e+00,3.070969104766845703e+00,2.993788242340087891e+00,2.920391321182250977e+00,2.850507259368896484e+00,2.783889532089233398e+00,2.720314741134643555e+00,2.659578561782836914e+00,2.601495265960693359e+00,2.545894861221313477e+00,2.492621421813964844e+00
4.876227855682373047e+00,5.000000000000000000e+00,5.000000000000000000e+00,5.000000000000000000e+00,5.000000000000000000e+00,5.000000000000000000e+00,5.000000000000000000e+00,5.000000000000000000e+00,5.000000000000000000e+00,5.000000000000000000e+00,5.000000000000000000e+00,5.000000000000000000e+00,5.000000000000000000e+00,5.000000000000000000e+00,5.000000000000000000e+00,5.000000000000000000e+00,5.000000000000000000e+00,5.000000000000000000e+00,5.000000000000000000e+00,5.000000000000000000e+00,5.000000000000000000e+00,5.000000000000000000e+00,5.000000000000000000e+00,5.000000000000000000e+00,5.000000000000000000e+00,5.000000000000000000e+00,2.016103029251098633e+00,2.003034114837646484e+00,2.021665811538696289e+00,5.000000000000000000e+00,5.000000000000000000e+00,5.000000000000000000e+00,5.000000000000000000e+00,5.000000000000000000e+00,5.000000000000000000e+00,5.000000000000000000e+00,5.000000000000000000e+00,5.000000000000000000e+00,5.000000000000000000e+00,1.823585271835327148e+00,1.801783204078674316e+00,1.786541819572448730e+00,5.000000000000000000e+00,5.000000000000000000e+00,5.000000000000000000e+00,5.000000000000000000e+00,5.000000000000000000e+00,5.000000000000000000e+00,5.000000000000000000e+00,5.000000000000000000e+00,5.000000000000000000e+00,5.000000000000000000e+00,5.000000000000000000e+00,5.000000000000000000e+00,5.000000000000000000e+00,5.000000000000000000e+00,4.805537223815917969e+00,4.619190216064453125e+00,4.446755409240722656e+00,4.286731719970703125e+00,4.137825012207031250e+00,3.998916864395141602e+00,3.869031667709350586e+00,3.747318267822265625e+00,3.633029460906982422e+00,3.525505542755126953e+00,3.424163103103637695e+00,3.328484058380126953e+00,3.238007307052612305e+00,3.152318477630615234e+00,3.071048259735107422e+00,2.993863344192504883e+00,2.920462846755981445e+00,2.850575208663940430e+00,2.783954381942749023e+00,2.720376729965209961e+00,2.659637689590454102e+00,2.601552009582519531e+00,2.545948982238769531e+00,2.492673397064208984e+00
4.873468399047851562e+00,4.872258186340332031e+00,4.871049404144287109e+00,4.869840145111083984e+00,4.868632316589355469e+00,4.867424964904785156e+00,4.866217613220214844e+00,4.865011692047119141e+00,4.863805770874023438e+00,4.862600803375244141e+00,4.861395835876464844e+00,4.860191822052001953e+00,4.858988761901855469e+00,4.857785701751708984e+00,4.856584072113037109e+00,4.855382442474365234e+00,4.854181289672851562e+00,4.852981090545654297e+00,4.851781368255615234e+00,4.850582122802734375e+00,4.849383354187011719e+00,4.848185539245605469e+00,4.846988201141357422e+00,4.845791339874267578e+00,4.844594955444335938e+00,4.843399524688720703e+00,2.021681308746337891e+00,2.006610155105590820e+00,2.024387836456298828e+00,4.838622570037841797e+00,4.837430000305175781e+00,4.836237907409667969e+00,4.835046291351318359e+00,4.833855628967285156e+00,4.832664966583251953e+00,4.831475257873535156e+00,4.830286026000976562e+00,4.829097747802734375e+00,4.827909469604492188e+00,1.825435876846313477e+00,1.801730632781982422e+00,1.808508038520812988e+00,4.823163509368896484e+00,4.821978092193603516e+00,4.820794105529785156e+00,4.819610118865966797e+00,4.818426609039306641e+00,4.817244052886962891e+00,4.816061973571777344e+00,4.814879894256591797e+00,4.813698768615722656e+00,4.812518596649169922e+00,4.811338424682617188e+00,4.810159683227539062e+00,4.808980464935302734e+00,4.807802677154541016e+00,4.806624889373779297e+00,4.619368553161621094e+00,4.446921348571777344e+00,4.286885738372802734e+00,4.137968540191650391e+00,3.999050855636596680e+00,3.869157075881958008e+00,3.747435808181762695e+00,3.633140087127685547e+00,3.525609731674194336e+00,3.424261331558227539e+00,3.328576803207397461e+00,3.238095045089721680e+00,3.152401685714721680e+00,3.071127176284790039e+00,2.993938207626342773e+00,2.920534133911132812e+00,2.850643396377563477e+00,2.784019470214843750e+00,2.720438718795776367e+00,2.659697055816650391e+00,2.601608514785766602e+00,2.546003341674804688e+00,2.492725372314453125e+00
3.777213335037231445e+00,3.776486158370971680e+00,3.775759696960449219e+00,3.775033235549926758e+00,3.774307012557983398e+00,3.773581743240356445e+00,3.772855997085571289e+00,3.772130727767944336e+00,3.771405935287475586e+00,3.770681619644165039e+00,3.769957065582275391e+00,3.769232988357543945e+00,3.768509149551391602e+00,3.767785549163818359e+00,3.767062664031982422e+00,3.766339540481567383e+00,3.765616655349731445e+00,3.764894247055053711e+00,3.764172315597534180e+00,3.763450384140014648e+00,3.762728929519653320e+00,3.762007474899291992e+00,3.761286258697509766e+00,3.760565996170043945e+00,3.759845495223999023e+00,3.759124994277954102e+00,2.037162065505981445e+00,2.032023191452026367e+00,3.756966352462768555e+00,3.756247043609619141e+00,3.755528211593627930e+00,3.754809617996215820e+00,3.754091739654541016e+00,3.753373622894287109e+00,3.752655744552612305e+00,3.751938343048095703e+00,3.751220941543579102e+00,3.750504493713378906e+00,3.749787807464599609e+00,1.816732525825500488e+00,1.804980039596557617e+00,1.823974490165710449e+00,3.746923923492431641e+00,3.746208667755126953e+00,3.745493650436401367e+00,3.744778871536254883e+00,3.744064807891845703e+00,3.743350505828857422e+00,3.742636442184448242e+00,3.741922855377197266e+00,3.741209268569946289e+00,3.740496635437011719e+00,3.739783763885498047e+00,3.739071130752563477e+00,3.738358974456787109e+00,3.737647294998168945e+00,3.736935377120971680e+00,3.736223697662353516e+00,3.735512495040893555e+00,3.734801530838012695e+00,3.734091281890869141e+00,3.733380794525146484e+00,3.732670545578002930e+00,3.731960773468017578e+00,3.633250236511230469e+00,3.525713682174682617e+00,3.424359560012817383e+00,3.328669786453247070e+00,3.238182783126831055e+00,3.152484893798828125e+00,3.071206092834472656e+00,2.994013071060180664e+00,2.920605659484863281e+00,2.850711345672607422e+00,2.784084320068359375e+00,2.720500707626342773e+00,2.659756183624267578e+00,2.601665258407592773e+00,2.546057701110839844e+00,2.492777347564697266e+00
3.083581447601318359e+00,3.083096981048583984e+00,3.082612514495849609e+00,3.082128524780273438e+00,3.081644296646118164e+00,3.081160783767700195e+00,3.080677032470703125e+00,3.080193519592285156e+00,3.079710006713867188e+00,3.079226970672607422e+00,3.078743934631347656e+00,3.078260898590087891e+00,3.077778100967407227e+00,3.077295541763305664e+00,3.076813220977783203e+00,3.076330900192260742e+00,3.075848579406738281e+00,3.075366497039794922e+00,3.074884891510009766e+00,3.074403047561645508e+00,3.073921442031860352e+00,3.073440074920654297e+00,3.072958707809448242e+00,3.072477817535400391e+00,3.071996688842773438e+00,3.071516036987304688e+00,3.071035146713256836e+00,2.030210256576538086e+00,2.030592441558837891e+00,3.069594383239746094e+00,3.069114208221435547e+00,3.068634271621704102e+00,3.068154573440551758e+00,3.067675113677978516e+00,3.067195415496826172e+00,3.066716194152832031e+00,3.066236972808837891e+00,3.065758228302001953e+00,3.065279245376586914e+00,1.803189277648925781e+00,1.804836630821228027e+00,1.834051966667175293e+00,3.063365459442138672e+00,3.062887430191040039e+00,3.062409400939941406e+00,3.061931371688842773e+00,3.061454057693481445e+00,3.060976505279541016e+00,3.060498952865600586e+00,3.060021638870239258e+00,3.059544563293457031e+00,3.059067964553833008e+00,3.058591127395629883e+00,3.058114528656005859e+00,3.057637929916381836e+00,3.057161808013916016e+00,3.056685447692871094e+00,3.056209564208984375e+00,3.055733442306518555e+00,3.055257797241210938e+00,3.054782390594482422e+00,3.054306983947753906e+00,3.053831577301025391e+00,3.053356409072875977e+00,3.052881240844726562e+00,3.052406549453735352e+00,3.051931858062744141e+00,3.051457405090332031e+00,3.050982952117919922e+00,3.050508737564086914e+00,3.050034761428833008e+00,2.994088172912597656e+00,2.920677185058593750e+00,2.850779294967651367e+00,2.784149169921875000e+00,2.720562696456909180e+00,2.659815549850463867e+00,2.601722002029418945e+00,2.546111822128295898e+00,2.492829561233520508e+00
2.605177402496337891e+00,2.604831457138061523e+00,2.604485750198364258e+00,2.604140281677246094e+00,2.603794574737548828e+00,2.603449344635009766e+00,2.603103876113891602e+00,2.602758646011352539e+00,2.602413415908813477e+00,2.602068662643432617e+00,2.601723670959472656e+00,2.601378679275512695e+00,2.601033926010131836e+00,2.600689172744750977e+00,2.600344657897949219e+00,2.600000143051147461e+00,2.599655628204345703e+00,2.599311351776123047e+00,2.598967313766479492e+00,2.598623037338256836e+00,2.598278999328613281e+00,2.597934961318969727e+00,2.597590923309326172e+00,2.597247362136840820e+00,2.596903800964355469e+00,2.596560001373291016e+00,2.056322336196899414e+00,2.027115821838378906e+00,2.019887685775756836e+00,2.595186710357666016e+00,2.594843387603759766e+00,2.594500303268432617e+00,2.594157457351684570e+00,2.593814611434936523e+00,2.593471765518188477e+00,2.593129158020019531e+00,2.592786550521850586e+00,2.592444181442260742e+00,2.592101573944091797e+00,1.799333691596984863e+00,1.812541484832763672e+00,2.591074943542480469e+00,2.590732812881469727e+00,2.590390920639038086e+00,2.590049028396606445e+00,2.589707136154174805e+00,2.589365720748901367e+00,2.589024066925048828e+00,2.588682413101196289e+00,2.588340997695922852e+00,2.587999582290649414e+00,2.587658405303955078e+00,2.587317228317260742e+00,2.586976289749145508e+00,2.586635112762451172e+00,2.586294412612915039e+00,2.585953712463378906e+00,2.585613012313842773e+00,2.585272312164306641e+00,2.584931612014770508e+00,2.584591388702392578e+00,2.584250926971435547e+00,2.583910703659057617e+00,2.583570480346679688e+00,2.583230495452880859e+00,2.582890510559082031e+00,2.582550764083862305e+00,2.582210779190063477e+00,2.581871032714843750e+00,2.581531524658203125e+00,2.581192016601562500e+00,2.580852508544921875e+00,2.580513000488281250e+00,2.580173730850219727e+00,2.579834699630737305e+00,2.579495668411254883e+00,2.579156637191772461e+00,2.578817605972290039e+00,2.546166181564331055e+00,2.492881536483764648e+00
2.255280494689941406e+00,2.255021333694458008e+00,2.254762172698974609e+00,2.254503250122070312e+00,2.254244327545166016e+00,2.253985404968261719e+00,2.253726482391357422e+00,2.253467798233032227e+00,2.253209114074707031e+00,2.252950429916381836e+00,2.252691745758056641e+00,2.252433300018310547e+00,2.252174615859985352e+00,2.251916170120239258e+00,2.251657962799072266e+00,2.251399755477905273e+00,2.251141309738159180e+00,2.250883102416992188e+00,2.250625133514404297e+00,2.250366926193237305e+00,2.250108957290649414e+00,2.249850988388061523e+00,2.249593019485473633e+00,2.249335289001464844e+00,2.249077558517456055e+00,2.083790302276611328e+00,2.066140413284301758e+00,2.035269975662231445e+00,2.036800861358642578e+00,2.247789621353149414e+00,2.247532129287719727e+00,2.247274637222290039e+00,2.247017383575439453e+00,2.246760129928588867e+00,2.246502876281738281e+00,2.246245861053466797e+00,2.245988607406616211e+00,2.245731830596923828e+00,2.245474815368652344e+00,1.800239920616149902e+00,1.839160084724426270e+00,2.244704246520996094e+00,2.244447469711303711e+00,2.244190931320190430e+00,2.243934154510498047e+00,2.243677616119384766e+00,2.243421316146850586e+00,2.243164777755737305e+00,2.242908477783203125e+00,2.242652177810668945e+00,2.242395877838134766e+00,2.242139816284179688e+00,2.241883516311645508e+00,2.241627454757690430e+00,2.241371393203735352e+00,2.241115570068359375e+00,2.240859508514404297e+00,2.240603685379028320e+00,2.240347862243652344e+00,2.240092277526855469e+00,2.239836692810058594e+00,2.239580869674682617e+00,2.239325284957885742e+00,2.239069938659667969e+00,2.238814353942871094e+00,2.238559246063232422e+00,2.238303899765014648e+00,2.238048553466796875e+00,2.237793207168579102e+00,2.237538337707519531e+00,2.237283229827880859e+00,2.237028121948242188e+00,2.236773014068603516e+00,2.236518144607543945e+00,2.236263513565063477e+00,2.236008644104003906e+00,2.235753774642944336e+00,2.235499143600463867e+00,2.235244512557983398e+00,2.234989881515502930e+00
1.988243222236633301e+00,1.988041758537292480e+00,1.987840414047241211e+00,1.987639069557189941e+00,1.987437725067138672e+00,1.987236380577087402e+00,1.987035155296325684e+00,1.986834049224853516e+00,1.986632823944091797e+00,1.986431956291198730e+00,1.986230969429016113e+00,1.986029863357543945e+00,1.985828876495361328e+00,1.985628008842468262e+00,1.985427021980285645e+00,1.985226154327392578e+00,1.985025405883789062e+00,1.984824657440185547e+00,1.984624147415161133e+00,1.984423398971557617e+00,1.984222650527954102e+00,1.984022021293640137e+00,1.983821511268615723e+00,1.983621001243591309e+00,1.983420491218566895e+00,1.983219981193542480e+00,1.983019590377807617e+00,1.982819199562072754e+00,1.982619047164916992e+00,1.982418775558471680e+00,1.982218503952026367e+00,1.982018351554870605e+00,1.981818199157714844e+00,1.981618046760559082e+00,1.981417894363403320e+00,1.981217861175537109e+00,1.981017827987670898e+00,1.980818152427673340e+00,1.980618119239807129e+00,1.980418324470520020e+00,1.980218410491943359e+00,1.980018615722656250e+00,1.979818820953369141e+00,1.979619026184082031e+00,1.979419350624084473e+00,1.979219675064086914e+00,1.979020357131958008e+00,1.978820800781250000e+00,1.978621244430541992e+00,1.978421688079833984e+00,1.978222250938415527e+00,1.978022813796997070e+00,1.977823495864868164e+00,1.977624177932739258e+00,1.977424860000610352e+00,1.977225780487060547e+00,1.977026581764221191e+00,1.976827502250671387e+00,1.976628303527832031e+00,1.976429224014282227e+00,1.976230144500732422e+00,1.976031184196472168e+00,1.975832223892211914e+00,1.975633263587951660e+00,1.975434303283691406e+00,1.975235700607299805e+00,1.975036859512329102e+00,1.974838137626647949e+00,1.974639415740966797e+00,1.974440693855285645e+00,1.974242091178894043e+00,1.974043488502502441e+00,1.973844885826110840e+00,1.973646283149719238e+00,1.973448038101196289e+00,1.973249673843383789e+00,1.973051190376281738e+00,1.972852826118469238e+00,1.972654461860656738e+00,1.972456216812133789e+00
1.777748227119445801e+00,1.777587175369262695e+00,1.777426123619079590e+00,1.777265191078186035e+00,1.777104139328002930e+00,1.776943325996398926e+00,1.776782393455505371e+00,1.776621460914611816e+00,1.776460647583007812e+00,1.776300072669982910e+00,1.776139259338378906e+00,1.775978565216064453e+00,1.775817751884460449e+00,1.775657057762145996e+00,1.775496482849121094e+00,1.775335788726806641e+00,1.775175213813781738e+00,1.775014638900756836e+00,1.774854302406311035e+00,1.774693727493286133e+00,1.774533271789550781e+00,1.774372816085815430e+00,1.774212360382080078e+00,1.774051904678344727e+00,1.773891568183898926e+00,1.773731231689453125e+00,1.773570895195007324e+00,1.773410558700561523e+00,1.773250579833984375e+00,1.773090243339538574e+00,1.772930145263671875e+00,1.772769927978515625e+00,1.772609710693359375e+00,1.772449612617492676e+00,1.772289514541625977e+00,1.772129535675048828e+00,1.771969437599182129e+00,1.771809697151184082e+00,1.771649718284606934e+00,1.771489739418029785e+00,1.771329879760742188e+00,1.771169900894165039e+00,1.771010041236877441e+00,1.770850300788879395e+00,1.770690441131591797e+00,1.770530700683593750e+00,1.770371079444885254e+00,1.770211458206176758e+00,1.770051717758178711e+00,1.769892096519470215e+00,1.769732475280761719e+00,1.769572854042053223e+00,1.769413232803344727e+00,1.769253730773925781e+00,1.769094228744506836e+00,1.768934965133666992e+00,1.768775463104248047e+00,1.768616080284118652e+00,1.768456697463989258e+00,1.768297314643859863e+00,1.768137931823730469e+00,1.767978668212890625e+00,1.767819404602050781e+00,1.767660140991210938e+00,1.767500877380371094e+00,1.767341852188110352e+00,1.767182707786560059e+00,1.767023563385009766e+00,1.766864418983459473e+00,1.766705393791198730e+00,1.766546368598937988e+00,1.766387343406677246e+00,1.766228318214416504e+00,1.766069412231445312e+00,1.765910625457763672e+00,1.765751719474792480e+00,1.765592813491821289e+00,1.765434026718139648e+00,1.765275239944458008e+00,1.765116453170776367e+00
1.607556462287902832e+00,1.607424736022949219e+00,1.607293128967285156e+00,1.607161402702331543e+00,1.607029795646667480e+00,1.606898188591003418e+00,1.606766700744628906e+00,1.606635093688964844e+00,1.606503605842590332e+00,1.606372237205505371e+00,1.606240749359130859e+00,1.606109261512756348e+00,1.605977773666381836e+00,1.605846405029296875e+00,1.605714917182922363e+00,1.605583548545837402e+00,1.605452179908752441e+00,1.605320811271667480e+00,1.605189681053161621e+00,1.605058431625366211e+00,1.604927062988281250e+00,1.604795813560485840e+00,1.604664564132690430e+00,1.604533433914184570e+00,1.604402184486389160e+00,1.604271054267883301e+00,1.604139924049377441e+00,1.604008793830871582e+00,1.603877782821655273e+00,1.603746771812438965e+00,1.603615641593933105e+00,1.603484630584716797e+00,1.603353619575500488e+00,1.603222608566284180e+00,1.603091597557067871e+00,1.602960705757141113e+00,1.602829694747924805e+00,1.602698922157287598e+00,1.602568030357360840e+00,1.602437257766723633e+00,1.602306365966796875e+00,1.602175474166870117e+00,1.602044701576232910e+00,1.601913928985595703e+00,1.601783156394958496e+00,1.601652383804321289e+00,1.601521849632263184e+00,1.601391196250915527e+00,1.601260542869567871e+00,1.601129889488220215e+00,1.600999236106872559e+00,1.600868582725524902e+00,1.600738048553466797e+00,1.600607395172119141e+00,1.600476861000061035e+00,1.600346446037292480e+00,1.600216031074523926e+00,1.600085496902465820e+00,1.599954962730407715e+00,1.599824547767639160e+00,1.599694132804870605e+00,1.599563717842102051e+00,1.599433302879333496e+00,1.599303007125854492e+00,1.599172711372375488e+00,1.599042534828186035e+00,1.598912239074707031e+00,1.598781943321228027e+00,1.598651647567749023e+00,1.598521471023559570e+00,1.598391175270080566e+00,1.598260998725891113e+00,1.598130822181701660e+00,1.598000764846801758e+00,1.597870707511901855e+00,1.597740650177001953e+00,1.597610592842102051e+00,1.597480535507202148e+00,1.597350478172302246e+00,1.597220420837402344e+00
1.467104077339172363e+00,1.466994404792785645e+00,1.466884732246398926e+00,1.466775059700012207e+00,1.466665387153625488e+00,1.466555833816528320e+00,1.466446161270141602e+00,1.466336607933044434e+00,1.466227054595947266e+00,1.466117620468139648e+00,1.466008067131042480e+00,1.465898513793945312e+00,1.465789079666137695e+00,1.465679526329040527e+00,1.465570092201232910e+00,1.465460658073425293e+00,1.465351223945617676e+00,1.465241789817810059e+00,1.465132474899291992e+00,1.465023159980773926e+00,1.464913725852966309e+00,1.464804410934448242e+00,1.464694976806640625e+00,1.464585661888122559e+00,1.464476346969604492e+00,1.464367151260375977e+00,1.464257836341857910e+00,1.464148640632629395e+00,1.464039444923400879e+00,1.463930249214172363e+00,1.463821053504943848e+00,1.463711857795715332e+00,1.463602662086486816e+00,1.463493466377258301e+00,1.463384389877319336e+00,1.463275194168090820e+00,1.463166117668151855e+00,1.463057160377502441e+00,1.462948083877563477e+00,1.462839007377624512e+00,1.462729930877685547e+00,1.462620973587036133e+00,1.462511897087097168e+00,1.462402939796447754e+00,1.462293982505798340e+00,1.462185025215148926e+00,1.462076187133789062e+00,1.461967229843139648e+00,1.461858391761779785e+00,1.461749434471130371e+00,1.461640596389770508e+00,1.461531758308410645e+00,1.461422801017761230e+00,1.461313962936401367e+00,1.461205244064331055e+00,1.461096525192260742e+00,1.460987687110900879e+00,1.460878968238830566e+00,1.460770249366760254e+00,1.460661530494689941e+00,1.460552811622619629e+00,1.460444092750549316e+00,1.460335373878479004e+00,1.460226655006408691e+00,1.460118055343627930e+00,1.460009574890136719e+00,1.459900856018066406e+00,1.459792256355285645e+00,1.459683656692504883e+00,1.459575176239013672e+00,1.459466576576232910e+00,1.459357976913452148e+00,1.459249496459960938e+00,1.459141016006469727e+00,1.459032654762268066e+00,1.458924174308776855e+00,1.458815693855285645e+00,1.458707213401794434e+00,1.458598852157592773e+00,1.458490371704101562e+00
1.349222302436828613e+00,1.349129438400268555e+00,1.349036693572998047e+00,1.348943948745727539e+00,1.348851323127746582e+00,1.348758578300476074e+00,1.348665833473205566e+00,1.348573207855224609e+00,1.348480463027954102e+00,1.348387956619262695e+00,1.348295331001281738e+00,1.348202705383300781e+00,1.348110079765319824e+00,1.348017454147338867e+00,1.347924828529357910e+00,1.347832202911376953e+00,1.347739696502685547e+00,1.347647070884704590e+00,1.347554683685302734e+00,1.347462177276611328e+00,1.347369551658630371e+00,1.347277164459228516e+00,1.347184658050537109e+00,1.347092151641845703e+00,1.346999645233154297e+00,1.346907258033752441e+00,1.346814751625061035e+00,1.346722364425659180e+00,1.346629977226257324e+00,1.346537590026855469e+00,1.346445202827453613e+00,1.346352815628051758e+00,1.346260428428649902e+00,1.346168160438537598e+00,1.346075773239135742e+00,1.345983386039733887e+00,1.345891118049621582e+00,1.345798969268798828e+00,1.345706582069396973e+00,1.345614314079284668e+00,1.345522046089172363e+00,1.345429778099060059e+00,1.345337629318237305e+00,1.345245361328125000e+00,1.345153093338012695e+00,1.345060944557189941e+00,1.344968795776367188e+00,1.344876646995544434e+00,1.344784498214721680e+00,1.344692349433898926e+00,1.344600200653076172e+00,1.344508051872253418e+00,1.344415903091430664e+00,1.344323873519897461e+00,1.344231724739074707e+00,1.344139814376831055e+00,1.344047665596008301e+00,1.343955636024475098e+00,1.343863606452941895e+00,1.343771576881408691e+00,1.343679547309875488e+00,1.343587517738342285e+00,1.343495488166809082e+00,1.343403577804565430e+00,1.343311548233032227e+00,1.343219757080078125e+00,1.343127846717834473e+00,1.343035817146301270e+00,1.342943906784057617e+00,1.342851996421813965e+00,1.342760205268859863e+00,1.342668294906616211e+00,1.342576384544372559e+00,1.342484593391418457e+00,1.342392802238464355e+00,1.342301011085510254e+00,1.342209219932556152e+00,1.342117428779602051e+00,1.342025637626647949e+00,1.341933846473693848e+00
1.248875141143798828e+00,1.248795747756958008e+00,1.248716235160827637e+00,1.248636841773986816e+00,1.248557329177856445e+00,1.248477935791015625e+00,1.248398542404174805e+00,1.248319029808044434e+00,1.248239636421203613e+00,1.248160362243652344e+00,1.248080968856811523e+00,1.248001575469970703e+00,1.247922182083129883e+00,1.247842907905578613e+00,1.247763514518737793e+00,1.247684121131896973e+00,1.247604846954345703e+00,1.247525572776794434e+00,1.247446298599243164e+00,1.247367024421691895e+00,1.247287750244140625e+00,1.247208476066589355e+00,1.247129201889038086e+00,1.247049927711486816e+00,1.246970653533935547e+00,1.246891379356384277e+00,1.246812224388122559e+00,1.246732950210571289e+00,1.246653914451599121e+00,1.246574640274047852e+00,1.246495485305786133e+00,1.246416330337524414e+00,1.246337175369262695e+00,1.246258020401000977e+00,1.246178865432739258e+00,1.246099710464477539e+00,1.246020555496215820e+00,1.245941519737243652e+00,1.245862483978271484e+00,1.245783329010009766e+00,1.245704293251037598e+00,1.245625138282775879e+00,1.245546102523803711e+00,1.245467066764831543e+00,1.245388031005859375e+00,1.245308995246887207e+00,1.245230078697204590e+00,1.245151042938232422e+00,1.245072007179260254e+00,1.244992971420288086e+00,1.244914054870605469e+00,1.244835019111633301e+00,1.244756102561950684e+00,1.244677186012268066e+00,1.244598150253295898e+00,1.244519352912902832e+00,1.244440436363220215e+00,1.244361519813537598e+00,1.244282603263854980e+00,1.244203686714172363e+00,1.244124770164489746e+00,1.244045972824096680e+00,1.243967056274414062e+00,1.243888258934020996e+00,1.243809342384338379e+00,1.243730664253234863e+00,1.243651747703552246e+00,1.243572950363159180e+00,1.243494153022766113e+00,1.243415355682373047e+00,1.243336558341979980e+00,1.243257880210876465e+00,1.243179082870483398e+00,1.243100285530090332e+00,1.243021607398986816e+00,1.242942929267883301e+00,1.242864251136779785e+00,1.242785453796386719e+00,1.242706775665283203e+00,1.242628097534179688e+00
1.162421345710754395e+00,1.162352442741394043e+00,1.162283658981323242e+00,1.162214756011962891e+00,1.162145972251892090e+00,1.162077069282531738e+00,1.162008285522460938e+00,1.161939501762390137e+00,1.161870718002319336e+00,1.161801934242248535e+00,1.161733150482177734e+00,1.161664366722106934e+00,1.161595702171325684e+00,1.161526918411254883e+00,1.161458134651184082e+00,1.161389350891113281e+00,1.161320686340332031e+00,1.161251902580261230e+00,1.161183238029479980e+00,1.161114573478698730e+00,1.161045908927917480e+00,1.160977244377136230e+00,1.160908460617065430e+00,1.160839796066284180e+00,1.160771131515502930e+00,1.160702466964721680e+00,1.160633802413940430e+00,1.160565137863159180e+00,1.160496592521667480e+00,1.160428047180175781e+00,1.160359382629394531e+00,1.160290718078613281e+00,1.160222172737121582e+00,1.160153508186340332e+00,1.160084962844848633e+00,1.160016417503356934e+00,1.159947872161865234e+00,1.159879326820373535e+00,1.159810781478881836e+00,1.159742236137390137e+00,1.159673690795898438e+00,1.159605145454406738e+00,1.159536600112915039e+00,1.159468054771423340e+00,1.159399628639221191e+00,1.159331083297729492e+00,1.159262657165527344e+00,1.159194231033325195e+00,1.159125685691833496e+00,1.159057259559631348e+00,1.158988833427429199e+00,1.158920288085937500e+00,1.158851861953735352e+00,1.158783435821533203e+00,1.158715009689331055e+00,1.158646702766418457e+00,1.158578276634216309e+00,1.158509850502014160e+00,1.158441424369812012e+00,1.158373117446899414e+00,1.158304691314697266e+00,1.158236384391784668e+00,1.158167958259582520e+00,1.158099651336669922e+00,1.158031344413757324e+00,1.157963037490844727e+00,1.157894730567932129e+00,1.157826423645019531e+00,1.157758116722106934e+00,1.157689809799194336e+00,1.157621502876281738e+00,1.157553195953369141e+00,1.157484889030456543e+00,1.157416701316833496e+00,1.157348513603210449e+00,1.157280206680297852e+00,1.157211899757385254e+00,1.157143712043762207e+00,1.157075524330139160e+00,1.157007217407226562e+00
1.087162017822265625e+00,1.087101817131042480e+00,1.087041616439819336e+00,1.086981415748596191e+00,1.086921095848083496e+00,1.086860895156860352e+00,1.086800813674926758e+00,1.086740612983703613e+00,1.086680412292480469e+00,1.086620330810546875e+00,1.086560130119323730e+00,1.086499929428100586e+00,1.086439847946166992e+00,1.086379647254943848e+00,1.086319446563720703e+00,1.086259365081787109e+00,1.086199283599853516e+00,1.086139082908630371e+00,1.086079120635986328e+00,1.086018919944763184e+00,1.085958838462829590e+00,1.085898756980895996e+00,1.085838675498962402e+00,1.085778594017028809e+00,1.085718512535095215e+00,1.085658431053161621e+00,1.085598349571228027e+00,1.085538268089294434e+00,1.085478305816650391e+00,1.085418343544006348e+00,1.085358262062072754e+00,1.085298299789428711e+00,1.085238218307495117e+00,1.085178256034851074e+00,1.085118174552917480e+00,1.085058212280273438e+00,1.084998250007629395e+00,1.084938287734985352e+00,1.084878325462341309e+00,1.084818363189697266e+00,1.084758400917053223e+00,1.084698319435119629e+00,1.084638357162475586e+00,1.084578514099121094e+00,1.084518551826477051e+00,1.084458589553833008e+00,1.084398746490478516e+00,1.084338784217834473e+00,1.084278941154479980e+00,1.084218978881835938e+00,1.084159016609191895e+00,1.084099173545837402e+00,1.084039330482482910e+00,1.083979368209838867e+00,1.083919525146484375e+00,1.083859682083129883e+00,1.083799839019775391e+00,1.083739995956420898e+00,1.083680152893066406e+00,1.083620309829711914e+00,1.083560466766357422e+00,1.083500623703002930e+00,1.083440780639648438e+00,1.083381056785583496e+00,1.083321213722229004e+00,1.083261489868164062e+00,1.083201646804809570e+00,1.083141803741455078e+00,1.083082079887390137e+00,1.083022236824035645e+00,1.082962512969970703e+00,1.082902789115905762e+00,1.082842946052551270e+00,1.082783222198486328e+00,1.082723617553710938e+00,1.082663774490356445e+00,1.082604050636291504e+00,1.082544326782226562e+00,1.082484602928161621e+00,1.082424879074096680e+00
1.021055340766906738e+00,1.021002173423767090e+00,1.020949006080627441e+00,1.020895957946777344e+00,1.020842790603637695e+00,1.020789742469787598e+00,1.020736575126647949e+00,1.020683526992797852e+00,1.020630478858947754e+00,1.020577430725097656e+00,1.020524382591247559e+00,1.020471215248107910e+00,1.020418167114257812e+00,1.020365118980407715e+00,1.020312070846557617e+00,1.020259022712707520e+00,1.020205974578857422e+00,1.020152926445007324e+00,1.020099997520446777e+00,1.020046949386596680e+00,1.019993901252746582e+00,1.019940853118896484e+00,1.019887924194335938e+00,1.019834876060485840e+00,1.019781947135925293e+00,1.019728899002075195e+00,1.019675850868225098e+00,1.019622921943664551e+00,1.019569993019104004e+00,1.019517064094543457e+00,1.019464015960693359e+00,1.019411087036132812e+00,1.019358158111572266e+00,1.019305229187011719e+00,1.019252300262451172e+00,1.019199371337890625e+00,1.019146323204040527e+00,1.019093513488769531e+00,1.019040584564208984e+00,1.018987655639648438e+00,1.018934726715087891e+00,1.018881797790527344e+00,1.018828988075256348e+00,1.018776059150695801e+00,1.018723130226135254e+00,1.018670320510864258e+00,1.018617510795593262e+00,1.018564581871032715e+00,1.018511772155761719e+00,1.018458843231201172e+00,1.018406033515930176e+00,1.018353104591369629e+00,1.018300294876098633e+00,1.018247485160827637e+00,1.018194675445556641e+00,1.018141865730285645e+00,1.018089056015014648e+00,1.018036246299743652e+00,1.017983436584472656e+00,1.017930626869201660e+00,1.017877817153930664e+00,1.017825007438659668e+00,1.017772197723388672e+00,1.017719388008117676e+00,1.017666578292846680e+00,1.017613887786865234e+00,1.017561197280883789e+00,1.017508387565612793e+00,1.017455577850341797e+00,1.017402887344360352e+00,1.017350077629089355e+00,1.017297387123107910e+00,1.017244577407836914e+00,1.017191886901855469e+00,1.017139196395874023e+00,1.017086505889892578e+00,1.017033815383911133e+00,1.016981124877929688e+00,1.016928434371948242e+00,1.016875743865966797e+00
9.625272750854492188e-01,9.624800086021423340e-01,9.624328613281250000e-01,9.623855948448181152e-01,9.623384475708007812e-01,9.622911810874938965e-01,9.622440338134765625e-01,9.621968269348144531e-01,9.621496796607971191e-01,9.621025919914245605e-01,9.620553851127624512e-01,9.620082378387451172e-01,9.619610309600830078e-01,9.619139432907104492e-01,9.618667364120483398e-01,9.618196487426757812e-01,9.617724418640136719e-01,9.617253541946411133e-01,9.616782665252685547e-01,9.616311192512512207e-01,9.615840315818786621e-01,9.615368843078613281e-01,9.614897966384887695e-01,9.614426493644714355e-01,9.613955616950988770e-01,9.613484144210815430e-01,9.613013863563537598e-01,9.612542390823364258e-01,9.612072110176086426e-01,9.611601829528808594e-01,9.611130356788635254e-01,9.610660076141357422e-01,9.610189199447631836e-01,9.609718918800354004e-01,9.609248042106628418e-01,9.608777761459350586e-01,9.608306884765625000e-01,9.607837200164794922e-01,9.607366919517517090e-01,9.606896042823791504e-01,9.606426358222961426e-01,9.605955481529235840e-01,9.605485796928405762e-01,9.605014920234680176e-01,9.604545831680297852e-01,9.604074954986572266e-01,9.603605270385742188e-01,9.603136181831359863e-01,9.602665305137634277e-01,9.602196216583251953e-01,9.601725935935974121e-01,9.601256251335144043e-01,9.600785970687866211e-01,9.600316882133483887e-01,9.599846601486206055e-01,9.599377512931823730e-01,9.598908424377441406e-01,9.598438739776611328e-01,9.597969651222229004e-01,9.597499370574951172e-01,9.597030878067016602e-01,9.596560597419738770e-01,9.596092104911804199e-01,9.595622420310974121e-01,9.595153927803039551e-01,9.594684839248657227e-01,9.594215154647827148e-01,9.593746662139892578e-01,9.593276977539062500e-01,9.592808485031127930e-01,9.592339396476745605e-01,9.591870903968811035e-01,9.591401219367980957e-01,9.590933322906494141e-01,9.590464830398559570e-01,9.589995741844177246e-01,9.589527845382690430e-01,9.589058756828308105e-01,9.588590264320373535e-01,9.588121175765991211e-01
9.103451967239379883e-01,9.103029370307922363e-01,9.102607369422912598e-01,9.102184772491455078e-01,9.101762771606445312e-01,9.101340174674987793e-01,9.100918769836425781e-01,9.100496172904968262e-01,9.100074768066406250e-01,9.099653363227844238e-01,9.099230766296386719e-01,9.098809361457824707e-01,9.098386764526367188e-01,9.097965359687805176e-01,9.097543358802795410e-01,9.097121953964233398e-01,9.096699357032775879e-01,9.096278548240661621e-01,9.095857143402099609e-01,9.095435142517089844e-01,9.095014333724975586e-01,9.094592332839965820e-01,9.094170928001403809e-01,9.093748927116394043e-01,9.093328118324279785e-01,9.092906117439270020e-01,9.092485308647155762e-01,9.092063903808593750e-01,9.091643095016479492e-01,9.091222286224365234e-01,9.090800285339355469e-01,9.090380072593688965e-01,9.089958071708679199e-01,9.089537858963012695e-01,9.089115858078002930e-01,9.088695645332336426e-01,9.088274240493774414e-01,9.087854027748107910e-01,9.087433218955993652e-01,9.087012410163879395e-01,9.086591601371765137e-01,9.086170792579650879e-01,9.085750579833984375e-01,9.085329174995422363e-01,9.084908962249755859e-01,9.084488153457641602e-01,9.084067940711975098e-01,9.083647727966308594e-01,9.083226919174194336e-01,9.082806706428527832e-01,9.082385897636413574e-01,9.081966280937194824e-01,9.081545472145080566e-01,9.081125855445861816e-01,9.080705046653747559e-01,9.080285429954528809e-01,9.079865813255310059e-01,9.079445004463195801e-01,9.079025387763977051e-01,9.078604578971862793e-01,9.078185558319091797e-01,9.077764749526977539e-01,9.077345132827758789e-01,9.076924920082092285e-01,9.076505303382873535e-01,9.076086282730102539e-01,9.075666069984436035e-01,9.075246453285217285e-01,9.074826240539550781e-01,9.074407219886779785e-01,9.073987007141113281e-01,9.073567986488342285e-01,9.073148369789123535e-01,9.072729349136352539e-01,9.072310328483581543e-01,9.071890115737915039e-01,9.071471095085144043e-01,9.071051478385925293e-01,9.070632457733154297e-01,9.070212841033935547e-01
8.635300993919372559e-01,8.634920716285705566e-01,8.634541034698486328e-01,8.634160757064819336e-01,8.633781671524047852e-01,8.633401393890380859e-01,8.633021712303161621e-01,8.632641434669494629e-01,8.632262349128723145e-01,8.631882667541503906e-01,8.631502985954284668e-01,8.631123304367065430e-01,8.630743622779846191e-01,8.630364537239074707e-01,8.629984259605407715e-01,8.629605174064636230e-01,8.629225492477416992e-01,8.628846406936645508e-01,8.628467321395874023e-01,8.628087639808654785e-01,8.627708554267883301e-01,8.627328872680664062e-01,8.626949787139892578e-01,8.626570105552673340e-01,8.626191616058349609e-01,8.625811934471130371e-01,8.625432848930358887e-01,8.625053167343139648e-01,8.624674677848815918e-01,8.624296188354492188e-01,8.623916506767272949e-01,8.623538017272949219e-01,8.623158931732177734e-01,8.622780442237854004e-01,8.622400760650634766e-01,8.622022271156311035e-01,8.621643185615539551e-01,8.621264696121215820e-01,8.620886802673339844e-01,8.620507121086120605e-01,8.620129227638244629e-01,8.619750142097473145e-01,8.619371652603149414e-01,8.618992567062377930e-01,8.618614673614501953e-01,8.618235588073730469e-01,8.617857694625854492e-01,8.617479801177978516e-01,8.617100715637207031e-01,8.616722822189331055e-01,8.616343736648559570e-01,8.615965843200683594e-01,8.615587353706359863e-01,8.615209460258483887e-01,8.614830970764160156e-01,8.614453077316284180e-01,8.614075183868408203e-01,8.613696694374084473e-01,8.613318800926208496e-01,8.612940311431884766e-01,8.612563014030456543e-01,8.612184524536132812e-01,8.611807227134704590e-01,8.611428737640380859e-01,8.611051440238952637e-01,8.610673546791076660e-01,8.610295653343200684e-01,8.609918355941772461e-01,8.609539866447448730e-01,8.609162569046020508e-01,8.608784675598144531e-01,8.608407378196716309e-01,8.608028888702392578e-01,8.607652187347412109e-01,8.607274889945983887e-01,8.606896996498107910e-01,8.606519699096679688e-01,8.606141805648803711e-01,8.605765104293823242e-01,8.605387210845947266e-01
8.212945461273193359e-01,8.212600946426391602e-01,8.212257623672485352e-01,8.211913704872131348e-01,8.211570382118225098e-01,8.211226463317871094e-01,8.210883140563964844e-01,8.210539221763610840e-01,8.210196495056152344e-01,8.209853172302246094e-01,8.209509253501892090e-01,8.209166526794433594e-01,8.208822607994079590e-01,8.208479285240173340e-01,8.208135962486267090e-01,8.207792639732360840e-01,8.207449316978454590e-01,8.207105994224548340e-01,8.206763267517089844e-01,8.206419944763183594e-01,8.206077218055725098e-01,8.205733299255371094e-01,8.205390572547912598e-01,8.205047249794006348e-01,8.204704523086547852e-01,8.204361200332641602e-01,8.204018473625183105e-01,8.203675150871276855e-01,8.203332424163818359e-01,8.202990293502807617e-01,8.202646970748901367e-01,8.202304244041442871e-01,8.201960921287536621e-01,8.201618790626525879e-01,8.201275467872619629e-01,8.200933337211608887e-01,8.200590014457702637e-01,8.200247883796691895e-01,8.199905157089233398e-01,8.199562430381774902e-01,8.199220299720764160e-01,8.198876976966857910e-01,8.198534846305847168e-01,8.198192119598388672e-01,8.197849988937377930e-01,8.197507262229919434e-01,8.197165131568908691e-01,8.196823000907897949e-01,8.196480274200439453e-01,8.196138143539428711e-01,8.195795416831970215e-01,8.195453882217407227e-01,8.195111155509948730e-01,8.194769024848937988e-01,8.194426298141479492e-01,8.194084763526916504e-01,8.193742632865905762e-01,8.193400502204895020e-01,8.193058967590332031e-01,8.192716240882873535e-01,8.192374706268310547e-01,8.192031979560852051e-01,8.191690444946289062e-01,8.191348314285278320e-01,8.191006779670715332e-01,8.190665245056152344e-01,8.190323114395141602e-01,8.189981579780578613e-01,8.189639449119567871e-01,8.189297914505004883e-01,8.188955783843994141e-01,8.188614249229431152e-01,8.188272118568420410e-01,8.187931180000305176e-01,8.187589645385742188e-01,8.187247514724731445e-01,8.186906576156616211e-01,8.186564445495605469e-01,8.186223506927490234e-01,8.185881376266479492e-01
7.829978466033935547e-01,7.829665541648864746e-01,7.829353809356689453e-01,7.829040884971618652e-01,7.828728556632995605e-01,7.828416228294372559e-01,7.828103899955749512e-01,7.827791571617126465e-01,7.827479839324951172e-01,7.827167510986328125e-01,7.826855182647705078e-01,7.826543450355529785e-01,7.826230525970458984e-01,7.825918793678283691e-01,7.825606465339660645e-01,7.825294733047485352e-01,7.824982404708862305e-01,7.824670672416687012e-01,7.824358940124511719e-01,7.824046611785888672e-01,7.823734879493713379e-01,7.823423147201538086e-01,7.823111414909362793e-01,7.822799086570739746e-01,7.822487354278564453e-01,7.822175621986389160e-01,7.821863889694213867e-01,7.821551561355590820e-01,7.821240425109863281e-01,7.820929288864135742e-01,7.820616960525512695e-01,7.820305824279785156e-01,7.819993495941162109e-01,7.819682359695434570e-01,7.819370627403259277e-01,7.819058895111083984e-01,7.818747162818908691e-01,7.818436026573181152e-01,7.818124890327453613e-01,7.817813158035278320e-01,7.817502021789550781e-01,7.817190289497375488e-01,7.816879153251647949e-01,7.816567420959472656e-01,7.816256284713745117e-01,7.815944552421569824e-01,7.815633416175842285e-01,7.815322875976562500e-01,7.815011143684387207e-01,7.814700007438659668e-01,7.814388871192932129e-01,7.814077734947204590e-01,7.813766598701477051e-01,7.813455462455749512e-01,7.813144326210021973e-01,7.812833189964294434e-01,7.812522649765014648e-01,7.812211513519287109e-01,7.811900377273559570e-01,7.811589241027832031e-01,7.811278700828552246e-01,7.810967564582824707e-01,7.810657024383544922e-01,7.810345292091369629e-01,7.810034751892089844e-01,7.809724807739257812e-01,7.809413075447082520e-01,7.809103131294250488e-01,7.808791995048522949e-01,7.808481454849243164e-01,7.808170318603515625e-01,7.807859778404235840e-01,7.807549238204956055e-01,7.807238698005676270e-01,7.806928753852844238e-01,7.806617617607116699e-01,7.806307077407836914e-01,7.805996537208557129e-01,7.805685997009277344e-01,7.805375456809997559e-01
7.481135129928588867e-01,7.480849623680114746e-01,7.480564713478088379e-01,7.480279207229614258e-01,7.479994297027587891e-01,7.479708790779113770e-01,7.479424476623535156e-01,7.479138970375061035e-01,7.478854060173034668e-01,7.478569149971008301e-01,7.478284239768981934e-01,7.477999329566955566e-01,7.477714419364929199e-01,7.477429509162902832e-01,7.477144002914428711e-01,7.476859688758850098e-01,7.476574182510375977e-01,7.476289868354797363e-01,7.476005554199218750e-01,7.475720047950744629e-01,7.475435733795166016e-01,7.475150823593139648e-01,7.474866509437561035e-01,7.474581003189086914e-01,7.474296689033508301e-01,7.474011778831481934e-01,7.473727464675903320e-01,7.473442554473876953e-01,7.473158240318298340e-01,7.472873926162719727e-01,7.472589015960693359e-01,7.472304701805114746e-01,7.472019791603088379e-01,7.471735477447509766e-01,7.471451163291931152e-01,7.471166849136352539e-01,7.470881938934326172e-01,7.470597624778747559e-01,7.470313906669616699e-01,7.470028996467590332e-01,7.469745278358459473e-01,7.469460368156433105e-01,7.469176054000854492e-01,7.468891739845275879e-01,7.468608021736145020e-01,7.468323111534118652e-01,7.468039393424987793e-01,7.467755675315856934e-01,7.467470765113830566e-01,7.467187047004699707e-01,7.466902732849121094e-01,7.466619014739990234e-01,7.466334104537963867e-01,7.466050386428833008e-01,7.465766072273254395e-01,7.465482354164123535e-01,7.465198636054992676e-01,7.464914321899414062e-01,7.464630603790283203e-01,7.464346289634704590e-01,7.464063167572021484e-01,7.463778853416442871e-01,7.463495135307312012e-01,7.463210821151733398e-01,7.462927103042602539e-01,7.462643980979919434e-01,7.462359666824340820e-01,7.462076544761657715e-01,7.461792230606079102e-01,7.461508512496948242e-01,7.461224794387817383e-01,7.460941076278686523e-01,7.460657358169555664e-01,7.460374236106872559e-01,7.460090517997741699e-01,7.459806799888610840e-01,7.459523677825927734e-01,7.459239363670349121e-01,7.458956241607666016e-01,7.458672523498535156e-01
7.162050008773803711e-01,7.161787748336791992e-01,7.161526679992675781e-01,7.161265015602111816e-01,7.161003947257995605e-01,7.160742878913879395e-01,7.160481810569763184e-01,7.160220146179199219e-01,7.159959077835083008e-01,7.159698009490966797e-01,7.159436345100402832e-01,7.159175872802734375e-01,7.158914208412170410e-01,7.158653140068054199e-01,7.158392071723937988e-01,7.158131003379821777e-01,7.157869338989257812e-01,7.157608866691589355e-01,7.157347798347473145e-01,7.157086730003356934e-01,7.156826257705688477e-01,7.156564593315124512e-01,7.156304121017456055e-01,7.156042456626892090e-01,7.155781984329223633e-01,7.155520915985107422e-01,7.155260443687438965e-01,7.154998779296875000e-01,7.154738306999206543e-01,7.154477834701538086e-01,7.154216766357421875e-01,7.153956294059753418e-01,7.153695225715637207e-01,7.153434753417968750e-01,7.153173685073852539e-01,7.152913212776184082e-01,7.152652144432067871e-01,7.152391672134399414e-01,7.152131199836730957e-01,7.151870131492614746e-01,7.151609659194946289e-01,7.151349186897277832e-01,7.151088714599609375e-01,7.150827646255493164e-01,7.150567173957824707e-01,7.150306701660156250e-01,7.150046229362487793e-01,7.149786353111267090e-01,7.149525284767150879e-01,7.149265408515930176e-01,7.149004340171813965e-01,7.148744463920593262e-01,7.148483395576477051e-01,7.148223519325256348e-01,7.147962450981140137e-01,7.147702574729919434e-01,7.147442698478698730e-01,7.147182226181030273e-01,7.146921753883361816e-01,7.146661281585693359e-01,7.146401405334472656e-01,7.146140933036804199e-01,7.145881056785583496e-01,7.145620584487915039e-01,7.145360708236694336e-01,7.145100831985473633e-01,7.144840359687805176e-01,7.144580483436584473e-01,7.144320011138916016e-01,7.144060134887695312e-01,7.143799662590026855e-01,7.143539786338806152e-01,7.143279314041137695e-01,7.143020033836364746e-01,7.142760157585144043e-01,7.142499685287475586e-01,7.142240405082702637e-01,7.141979932785034180e-01,7.141720056533813477e-01,7.141460180282592773e-01
6.869069933891296387e-01,6.868829727172851562e-01,6.868589520454406738e-01,6.868348717689514160e-01,6.868108510971069336e-01,6.867867708206176758e-01,6.867627501487731934e-01,6.867387294769287109e-01,6.867147088050842285e-01,6.866906881332397461e-01,6.866666674613952637e-01,6.866426467895507812e-01,6.866185665130615234e-01,6.865946054458618164e-01,6.865705251693725586e-01,6.865465641021728516e-01,6.865224838256835938e-01,6.864985227584838867e-01,6.864745020866394043e-01,6.864504814147949219e-01,6.864265203475952148e-01,6.864024400711059570e-01,6.863784790039062500e-01,6.863544583320617676e-01,6.863304376602172852e-01,6.863064169883728027e-01,6.862824559211730957e-01,6.862584352493286133e-01,6.862344741821289062e-01,6.862104535102844238e-01,6.861864328384399414e-01,6.861624717712402344e-01,6.861384510993957520e-01,6.861144900321960449e-01,6.860904693603515625e-01,6.860665082931518555e-01,6.860424876213073730e-01,6.860185265541076660e-01,6.859946250915527344e-01,6.859706044197082520e-01,6.859466433525085449e-01,6.859226226806640625e-01,6.858986616134643555e-01,6.858747005462646484e-01,6.858507394790649414e-01,6.858267188072204590e-01,6.858028173446655273e-01,6.857788562774658203e-01,6.857548356056213379e-01,6.857309341430664062e-01,6.857069134712219238e-01,6.856830120086669922e-01,6.856589913368225098e-01,6.856350898742675781e-01,6.856110692024230957e-01,6.855871677398681641e-01,6.855632662773132324e-01,6.855392456054687500e-01,6.855153441429138184e-01,6.854913830757141113e-01,6.854674220085144043e-01,6.854434609413146973e-01,6.854195594787597656e-01,6.853955984115600586e-01,6.853716969490051270e-01,6.853477954864501953e-01,6.853238344192504883e-01,6.852999329566955566e-01,6.852759718894958496e-01,6.852520108222961426e-01,6.852281093597412109e-01,6.852042078971862793e-01,6.851802468299865723e-01,6.851563453674316406e-01,6.851324439048767090e-01,6.851084828376770020e-01,6.850845813751220703e-01,6.850606799125671387e-01,6.850367784500122070e-01,6.850128173828125000e-01
6.599118709564208984e-01,6.598896384239196777e-01,6.598674654960632324e-01,6.598452329635620117e-01,6.598231196403503418e-01,6.598008871078491211e-01,6.597787141799926758e-01,6.597565412521362305e-01,6.597343683242797852e-01,6.597121953964233398e-01,6.596900224685668945e-01,6.596678495407104492e-01,6.596456766128540039e-01,6.596235036849975586e-01,6.596013307571411133e-01,6.595791578292846680e-01,6.595569849014282227e-01,6.595348119735717773e-01,6.595126986503601074e-01,6.594904661178588867e-01,6.594683527946472168e-01,6.594461798667907715e-01,6.594240069389343262e-01,6.594018340110778809e-01,6.593797206878662109e-01,6.593575477600097656e-01,6.593353748321533203e-01,6.593132019042968750e-01,6.592910885810852051e-01,6.592689752578735352e-01,6.592468023300170898e-01,6.592246890068054199e-01,6.592025160789489746e-01,6.591804027557373047e-01,6.591582298278808594e-01,6.591361165046691895e-01,6.591139435768127441e-01,6.590918302536010742e-01,6.590697169303894043e-01,6.590475440025329590e-01,6.590254306793212891e-01,6.590032577514648438e-01,6.589811444282531738e-01,6.589590311050415039e-01,6.589369177818298340e-01,6.589147448539733887e-01,6.588926911354064941e-01,6.588705778121948242e-01,6.588484048843383789e-01,6.588263511657714844e-01,6.588041782379150391e-01,6.587820649147033691e-01,6.587599515914916992e-01,6.587378382682800293e-01,6.587157249450683594e-01,6.586936116218566895e-01,6.586715579032897949e-01,6.586493849754333496e-01,6.586273312568664551e-01,6.586052179336547852e-01,6.585831046104431152e-01,6.585609912872314453e-01,6.585389375686645508e-01,6.585167646408081055e-01,6.584947109222412109e-01,6.584726572036743164e-01,6.584505438804626465e-01,6.584284305572509766e-01,6.584063172340393066e-01,6.583842635154724121e-01,6.583621501922607422e-01,6.583400964736938477e-01,6.583179831504821777e-01,6.582959294319152832e-01,6.582738757133483887e-01,6.582517623901367188e-01,6.582297086715698242e-01,6.582075953483581543e-01,6.581855416297912598e-01,6.581634283065795898e-01
6.349582672119140625e-01,6.349376440048217773e-01,6.349171400070190430e-01,6.348965764045715332e-01,6.348760724067687988e-01,6.348555088043212891e-01,6.348350048065185547e-01,6.348144412040710449e-01,6.347939372062683105e-01,6.347733736038208008e-01,6.347528696060180664e-01,6.347323656082153320e-01,6.347118020057678223e-01,6.346912980079650879e-01,6.346707344055175781e-01,6.346502304077148438e-01,6.346296668052673340e-01,6.346091628074645996e-01,6.345886588096618652e-01,6.345680952072143555e-01,6.345476508140563965e-01,6.345270872116088867e-01,6.345065832138061523e-01,6.344860792160034180e-01,6.344655752182006836e-01,6.344450116157531738e-01,6.344245076179504395e-01,6.344040036201477051e-01,6.343834996223449707e-01,6.343630552291870117e-01,6.343424916267395020e-01,6.343219876289367676e-01,6.343014836311340332e-01,6.342809796333312988e-01,6.342604756355285645e-01,6.342400312423706055e-01,6.342194676399230957e-01,6.341990232467651367e-01,6.341785192489624023e-01,6.341580152511596680e-01,6.341375708580017090e-01,6.341170072555541992e-01,6.340965628623962402e-01,6.340760588645935059e-01,6.340555548667907715e-01,6.340350508689880371e-01,6.340146064758300781e-01,6.339941620826721191e-01,6.339736580848693848e-01,6.339532136917114258e-01,6.339327096939086914e-01,6.339122056961059570e-01,6.338917016983032227e-01,6.338712573051452637e-01,6.338507533073425293e-01,6.338303089141845703e-01,6.338098645210266113e-01,6.337893605232238770e-01,6.337689161300659180e-01,6.337484121322631836e-01,6.337280273437500000e-01,6.337075233459472656e-01,6.336870789527893066e-01,6.336665749549865723e-01,6.336461305618286133e-01,6.336256861686706543e-01,6.336051821708679199e-01,6.335847973823547363e-01,6.335642933845520020e-01,6.335438489913940430e-01,6.335234045982360840e-01,6.335029602050781250e-01,6.334824562072753906e-01,6.334620714187622070e-01,6.334416270256042480e-01,6.334211826324462891e-01,6.334007382392883301e-01,6.333802938461303711e-01,6.333598494529724121e-01,6.333394050598144531e-01
6.118230819702148438e-01,6.118039488792419434e-01,6.117849349975585938e-01,6.117658019065856934e-01,6.117467880249023438e-01,6.117276549339294434e-01,6.117086410522460938e-01,6.116895675659179688e-01,6.116704940795898438e-01,6.116514801979064941e-01,6.116323471069335938e-01,6.116133332252502441e-01,6.115942597389221191e-01,6.115751862525939941e-01,6.115561127662658691e-01,6.115370988845825195e-01,6.115180253982543945e-01,6.114989519119262695e-01,6.114799380302429199e-01,6.114608645439147949e-01,6.114418506622314453e-01,6.114227771759033203e-01,6.114037036895751953e-01,6.113846302032470703e-01,6.113656163215637207e-01,6.113465428352355957e-01,6.113275289535522461e-01,6.113084554672241211e-01,6.112894415855407715e-01,6.112704277038574219e-01,6.112513542175292969e-01,6.112323403358459473e-01,6.112132668495178223e-01,6.111942529678344727e-01,6.111751794815063477e-01,6.111561655998229980e-01,6.111371517181396484e-01,6.111181378364562988e-01,6.110991239547729492e-01,6.110800504684448242e-01,6.110610365867614746e-01,6.110420227050781250e-01,6.110230088233947754e-01,6.110039353370666504e-01,6.109849214553833008e-01,6.109659075736999512e-01,6.109468936920166016e-01,6.109278798103332520e-01,6.109088659286499023e-01,6.108898520469665527e-01,6.108708381652832031e-01,6.108518242835998535e-01,6.108328104019165039e-01,6.108137965202331543e-01,6.107947826385498047e-01,6.107757687568664551e-01,6.107567548751831055e-01,6.107377409934997559e-01,6.107187867164611816e-01,6.106997132301330566e-01,6.106807589530944824e-01,6.106617450714111328e-01,6.106427311897277832e-01,6.106237173080444336e-01,6.106047034263610840e-01,6.105857491493225098e-01,6.105667352676391602e-01,6.105477809906005859e-01,6.105287671089172363e-01,6.105097532272338867e-01,6.104907393455505371e-01,6.104717850685119629e-01,6.104527711868286133e-01,6.104338169097900391e-01,6.104148030281066895e-01,6.103957891464233398e-01,6.103768348693847656e-01,6.103578209877014160e-01,6.103388667106628418e-01,6.103198528289794922e-01
