2.439601898193359375e+00,2.487252235412597656e+00,2.536800622940063477e+00,2.588363409042358398e+00,2.642065763473510742e+00,2.698044061660766602e+00,2.756445169448852539e+00,2.817430973052978516e+00,2.881176471710205078e+00,2.947872877120971680e+00,3.017730712890625000e+00,3.090979576110839844e+00,3.167873144149780273e+00,3.248689651489257812e+00,3.333737850189208984e+00,3.423358440399169922e+00,3.517931222915649414e+00,3.617877244949340820e+00,3.723668575286865234e+00,3.835830688476562500e+00,3.954944849014282227e+00,4.081693172454833984e+00,4.216835021972656250e+00,4.361232280731201172e+00,4.515869140625000000e+00,4.681874752044677734e+00,4.860551357269287109e+00,5.000000000000000000e+00,5.000000000000000000e+00,5.000000000000000000e+00,5.000000000000000000e+00,5.000000000000000000e+00,5.000000000000000000e+00,5.000000000000000000e+00,5.000000000000000000e+00,5.000000000000000000e+00,5.000000000000000000e+00,5.000000000000000000e+00,5.000000000000000000e+00,5.000000000000000000e+00,5.000000000000000000e+00,5.000000000000000000e+00,5.000000000000000000e+00,5.000000000000000000e+00,5.000000000000000000e+00,5.000000000000000000e+00,5.000000000000000000e+00,5.000000000000000000e+00,5.000000000000000000e+00,5.000000000000000000e+00,5.000000000000000000e+00,5.000000000000000000e+00,5.000000000000000000e+00,5.000000000000000000e+00,5.000000000000000000e+00,5.000000000000000000e+00,5.000000000000000000e+00,5.000000000000000000e+00,5.000000000000000000e+00,5.000000000000000000e+00,5.000000000000000000e+00,5.000000000000000000e+00,5.000000000000000000e+00,5.000000000000000000e+00,5.000000000000000000e+00,5.000000000000000000e+00,5.000000000000000000e+00,5.000000000000000000e+00,5.000000000000000000e+00,5.000000000000000000e+00,5.000000000000000000e+00,5.000000000000000000e+00,5.000000000000000000e+00,5.000000000000000000e+00,5.000000000000000000e+00,5.000000000000000000e+00,5.000000000000000000e+00,5.000000000000000000e+00,5.000000000000000000e+00,5.000000000000000000e+00
2.439546585083007812e+00,2.487200975418090820e+00,2.536752939224243164e+00,2.588313817977905273e+00,2.642014026641845703e+00,2.697989940643310547e+00,2.756388902664184570e+00,2.817372083663940430e+00,2.881114721298217773e+00,2.947808504104614258e+00,3.017663002014160156e+00,3.090908765792846680e+00,3.167798280715942383e+00,3.248611450195312500e+00,3.333655118942260742e+00,3.423271656036376953e+00,3.517839431762695312e+00,3.617779970169067383e+00,3.723565578460693359e+00,3.835723876953125000e+00,3.954846382141113281e+00,4.081588268280029297e+00,4.216722965240478516e+00,4.361112117767333984e+00,4.515740394592285156e+00,4.681736469268798828e+00,4.860402584075927734e+00,5.000000000000000000e+00,5.000000000000000000e+00,5.000000000000000000e+00,5.000000000000000000e+00,5.000000000000000000e+00,5.000000000000000000e+00,5.000000000000000000e+00,5.000000000000000000e+00,5.000000000000000000e+00,5.000000000000000000e+00,5.000000000000000000e+00,5.000000000000000000e+00,5.000000000000000000e+00,5.000000000000000000e+00,5.000000000000000000e+00,5.000000000000000000e+00,5.000000000000000000e+00,5.000000000000000000e+00,5.000000000000000000e+00,5.000000000000000000e+00,5.000000000000000000e+00,5.000000000000000000e+00,5.000000000000000000e+00,5.000000000000000000e+00,5.000000000000000000e+00,5.000000000000000000e+00,5.000000000000000000e+00,5.000000000000000000e+00,5.000000000000000000e+00,5.000000000000000000e+00,5.000000000000000000e+00,5.000000000000000000e+00,5.000000000000000000e+00,5.000000000000000000e+00,5.000000000000000000e+00,5.000000000000000000e+00,5.000000000000000000e+00,5.000000000000000000e+00,5.000000000000000000e+00,5.000000000000000000e+00,5.000000000000000000e+00,5.000000000000000000e+00,5.000000000000000000e+00,5.000000000000000000e+00,5.000000000000000000e+00,5.000000000000000000e+00,5.000000000000000000e+00,5.000000000000000000e+00,5.000000000000000000e+00,5.000000000000000000e+00,5.000000000000000000e+00,5.000000000000000000e+00,5.000000000000000000e+00
2.439489603042602539e+00,2.487141609191894531e+00,2.536692380905151367e+00,2.588257551193237305e+00,2.641962289810180664e+00,2.697935819625854492e+00,2.756332635879516602e+00,2.817312955856323242e+00,2.881052970886230469e+00,2.947743892669677734e+00,3.017595291137695312e+00,3.090837717056274414e+00,3.167723894119262695e+00,3.248533010482788086e+00,3.333572626113891602e+00,3.423184633255004883e+00,3.517747163772583008e+00,3.617682933807373047e+00,3.723462343215942383e+00,3.835614681243896484e+00,3.954732179641723633e+00,4.081483364105224609e+00,4.216610908508300781e+00,4.360992908477783203e+00,4.515612125396728516e+00,4.681598663330078125e+00,4.860253810882568359e+00,5.000000000000000000e+00,5.000000000000000000e+00,5.000000000000000000e+00,5.000000000000000000e+00,5.000000000000000000e+00,5.000000000000000000e+00,5.000000000000000000e+00,5.000000000000000000e+00,5.000000000000000000e+00,5.000000000000000000e+00,5.000000000000000000e+00,5.000000000000000000e+00,5.000000000000000000e+00,5.000000000000000000e+00,5.000000000000000000e+00,5.000000000000000000e+00,5.000000000000000000e+00,5.000000000000000000e+00,5.000000000000000000e+00,5.000000000000000000e+00,5.000000000000000000e+00,5.000000000000000000e+00,5.000000000000000000e+00,5.000000000000000000e+00,5.000000000000000000e+00,5.000000000000000000e+00,5.000000000000000000e+00,5.000000000000000000e+00,5.000000000000000000e+00,5.000000000000000000e+00,5.000000000000000000e+00,5.000000000000000000e+00,5.000000000000000000e+00,5.000000000000000000e+00,5.000000000000000000e+00,5.000000000000000000e+00,5.000000000000000000e+00,5.000000000000000000e+00,5.000000000000000000e+00,5.000000000000000000e+00,5.000000000000000000e+00,5.000000000000000000e+00,5.000000000000000000e+00,5.000000000000000000e+00,5.000000000000000000e+00,5.000000000000000000e+00,5.000000000000000000e+00,5.000000000000000000e+00,5.000000000000000000e+00,5.000000000000000000e+00,5.000000000000000000e+00,5.000000000000000000e+00,5.000000000000000000e+00
2.439432382583618164e+00,2.487082242965698242e+00,2.536630630493164062e+00,2.588193416595458984e+00,2.641896009445190430e+00,2.697874069213867188e+00,2.756275892257690430e+00,2.817254066467285156e+00,2.880991458892822266e+00,2.947679281234741211e+00,3.017527818679809570e+00,3.090766668319702148e+00,3.167649269104003906e+00,3.248454332351684570e+00,3.333490133285522461e+00,3.423097372055053711e+00,3.517655372619628906e+00,3.617585897445678711e+00,3.723359584808349609e+00,3.835505485534667969e+00,3.954616308212280273e+00,4.081362247467041016e+00,4.216499328613281250e+00,4.360872745513916016e+00,4.515483856201171875e+00,4.681460380554199219e+00,4.860105037689208984e+00,5.000000000000000000e+00,5.000000000000000000e+00,5.000000000000000000e+00,5.000000000000000000e+00,5.000000000000000000e+00,5.000000000000000000e+00,5.000000000000000000e+00,5.000000000000000000e+00,5.000000000000000000e+00,5.000000000000000000e+00,5.000000000000000000e+00,5.000000000000000000e+00,5.000000000000000000e+00,5.000000000000000000e+00,5.000000000000000000e+00,5.000000000000000000e+00,5.000000000000000000e+00,5.000000000000000000e+00,5.000000000000000000e+00,5.000000000000000000e+00,5.000000000000000000e+00,5.000000000000000000e+00,5.000000000000000000e+00,5.000000000000000000e+00,5.000000000000000000e+00,5.000000000000000000e+00,5.000000000000000000e+00,5.000000000000000000e+00,5.000000000000000000e+00,5.000000000000000000e+00,5.000000000000000000e+00,5.000000000000000000e+00,5.000000000000000000e+00,5.000000000000000000e+00,5.000000000000000000e+00,5.000000000000000000e+00,5.000000000000000000e+00,5.000000000000000000e+00,5.000000000000000000e+00,5.000000000000000000e+00,5.000000000000000000e+00,5.000000000000000000e+00,5.000000000000000000e+00,5.000000000000000000e+00,5.000000000000000000e+00,5.000000000000000000e+00,5.000000000000000000e+00,5.000000000000000000e+00,5.000000000000000000e+00,5.000000000000000000e+00,5.000000000000000000e+00,5.000000000000000000e+00,5.000000000000000000e+00
2.439385652542114258e+00,2.487026929855346680e+00,2.536568880081176758e+00,2.588129043579101562e+00,2.641829013824462891e+00,2.697804212570190430e+00,2.756202936172485352e+00,2.817186117172241211e+00,2.880928516387939453e+00,2.947614669799804688e+00,3.017460107803344727e+00,3.090695619583129883e+00,3.167574882507324219e+00,3.248376131057739258e+00,3.333407640457153320e+00,3.423010349273681641e+00,3.517563581466674805e+00,3.617488384246826172e+00,3.723256587982177734e+00,3.835395812988281250e+00,3.954500198364257812e+00,4.081238269805908203e+00,4.216369628906250000e+00,4.360753059387207031e+00,4.515355587005615234e+00,4.681322574615478516e+00,4.859956264495849609e+00,5.000000000000000000e+00,5.000000000000000000e+00,5.000000000000000000e+00,5.000000000000000000e+00,5.000000000000000000e+00,5.000000000000000000e+00,5.000000000000000000e+00,5.000000000000000000e+00,5.000000000000000000e+00,5.000000000000000000e+00,5.000000000000000000e+00,5.000000000000000000e+00,5.000000000000000000e+00,5.000000000000000000e+00,5.000000000000000000e+00,5.000000000000000000e+00,5.000000000000000000e+00,5.000000000000000000e+00,5.000000000000000000e+00,5.000000000000000000e+00,5.000000000000000000e+00,5.000000000000000000e+00,5.000000000000000000e+00,5.000000000000000000e+00,5.000000000000000000e+00,5.000000000000000000e+00,5.000000000000000000e+00,5.000000000000000000e+00,5.000000000000000000e+00,5.000000000000000000e+00,5.000000000000000000e+00,5.000000000000000000e+00,5.000000000000000000e+00,5.000000000000000000e+00,5.000000000000000000e+00,5.000000000000000000e+00,5.000000000000000000e+00,5.000000000000000000e+00,5.000000000000000000e+00,5.000000000000000000e+00,5.000000000000000000e+00,5.000000000000000000e+00,5.000000000000000000e+00,5.000000000000000000e+00,5.000000000000000000e+00,5.000000000000000000e+00,5.000000000000000000e+00,5.000000000000000000e+00,5.000000000000000000e+00,5.000000000000000000e+00,5.000000000000000000e+00,5.000000000000000000e+00,5.000000000000000000e+00
2.439341545104980469e+00,2.486981153488159180e+00,2.536518812179565430e+00,2.588069915771484375e+00,2.641762018203735352e+00,2.697734355926513672e+00,2.756130218505859375e+00,2.817109823226928711e+00,2.880848884582519531e+00,2.947539091110229492e+00,3.017390251159667969e+00,3.090624809265136719e+00,3.167500257492065430e+00,3.248297691345214844e+00,3.333324909210205078e+00,3.422923326492309570e+00,3.517471313476562500e+00,3.617391109466552734e+00,3.723153829574584961e+00,3.835286617279052734e+00,3.954384088516235352e+00,4.081114768981933594e+00,4.216237545013427734e+00,4.360614776611328125e+00,4.515226840972900391e+00,4.681184768676757812e+00,4.859807491302490234e+00,5.000000000000000000e+00,5.000000000000000000e+00,5.000000000000000000e+00,5.000000000000000000e+00,5.000000000000000000e+00,5.000000000000000000e+00,5.000000000000000000e+00,5.000000000000000000e+00,5.000000000000000000e+00,5.000000000000000000e+00,5.000000000000000000e+00,5.000000000000000000e+00,5.000000000000000000e+00,5.000000000000000000e+00,5.000000000000000000e+00,5.000000000000000000e+00,5.000000000000000000e+00,5.000000000000000000e+00,5.000000000000000000e+00,5.000000000000000000e+00,5.000000000000000000e+00,5.000000000000000000e+00,5.000000000000000000e+00,5.000000000000000000e+00,5.000000000000000000e+00,5.000000000000000000e+00,5.000000000000000000e+00,5.000000000000000000e+00,5.000000000000000000e+00,5.000000000000000000e+00,5.000000000000000000e+00,5.000000000000000000e+00,5.000000000000000000e+00,5.000000000000000000e+00,5.000000000000000000e+00,5.000000000000000000e+00,5.000000000000000000e+00,5.000000000000000000e+00,5.000000000000000000e+00,5.000000000000000000e+00,5.000000000000000000e+00,5.000000000000000000e+00,5.000000000000000000e+00,5.000000000000000000e+00,5.000000000000000000e+00,5.000000000000000000e+00,5.000000000000000000e+00,5.000000000000000000e+00,5.000000000000000000e+00,5.000000000000000000e+00,5.000000000000000000e+00,5.000000000000000000e+00,5.000000000000000000e+00
2.439297437667846680e+00,2.486935377120971680e+00,2.536471128463745117e+00,2.588020324707031250e+00,2.641708135604858398e+00,2.697670698165893555e+00,2.756057262420654297e+00,2.817033767700195312e+00,2.880769491195678711e+00,2.947456121444702148e+00,3.017302989959716797e+00,3.090540885925292969e+00,3.167422533035278320e+00,3.248219490051269531e+00,3.333242416381835938e+00,3.422836542129516602e+00,3.517379522323608398e+00,3.617294073104858398e+00,3.723050355911254883e+00,3.835177659988403320e+00,3.954267501831054688e+00,4.080990791320800781e+00,4.216105461120605469e+00,4.360473155975341797e+00,4.515078544616699219e+00,4.681046962738037109e+00,4.859659194946289062e+00,5.000000000000000000e+00,5.000000000000000000e+00,5.000000000000000000e+00,5.000000000000000000e+00,5.000000000000000000e+00,5.000000000000000000e+00,5.000000000000000000e+00,5.000000000000000000e+00,5.000000000000000000e+00,5.000000000000000000e+00,5.000000000000000000e+00,5.000000000000000000e+00,5.000000000000000000e+00,5.000000000000000000e+00,5.000000000000000000e+00,5.000000000000000000e+00,5.000000000000000000e+00,5.000000000000000000e+00,5.000000000000000000e+00,5.000000000000000000e+00,5.000000000000000000e+00,5.000000000000000000e+00,5.000000000000000000e+00,5.000000000000000000e+00,5.000000000000000000e+00,5.000000000000000000e+00,5.000000000000000000e+00,5.000000000000000000e+00,5.000000000000000000e+00,5.000000000000000000e+00,5.000000000000000000e+00,5.000000000000000000e+00,5.000000000000000000e+00,5.000000000000000000e+00,5.000000000000000000e+00,5.000000000000000000e+00,5.000000000000000000e+00,5.000000000000000000e+00,5.000000000000000000e+00,5.000000000000000000e+00,5.000000000000000000e+00,5.000000000000000000e+00,5.000000000000000000e+00,5.000000000000000000e+00,5.000000000000000000e+00,5.000000000000000000e+00,5.000000000000000000e+00,5.000000000000000000e+00,5.000000000000000000e+00,5.000000000000000000e+00,5.000000000000000000e+00,5.000000000000000000e+00,5.000000000000000000e+00
2.439253568649291992e+00,2.486889839172363281e+00,2.536423683166503906e+00,2.587970733642578125e+00,2.641656637191772461e+00,2.697616815567016602e+00,2.755999565124511719e+00,2.816965103149414062e+00,2.880689859390258789e+00,2.947372674942016602e+00,3.017215728759765625e+00,3.090449094772338867e+00,3.167326211929321289e+00,3.248125553131103516e+00,3.333155155181884766e+00,3.422749280929565430e+00,3.517287731170654297e+00,3.617196559906005859e+00,3.722947597503662109e+00,3.835068464279174805e+00,3.954151630401611328e+00,4.080867290496826172e+00,4.215973377227783203e+00,4.360332012176513672e+00,4.514926910400390625e+00,4.680887222290039062e+00,4.859510421752929688e+00,5.000000000000000000e+00,5.000000000000000000e+00,5.000000000000000000e+00,5.000000000000000000e+00,5.000000000000000000e+00,5.000000000000000000e+00,5.000000000000000000e+00,5.000000000000000000e+00,5.000000000000000000e+00,5.000000000000000000e+00,5.000000000000000000e+00,5.000000000000000000e+00,5.000000000000000000e+00,5.000000000000000000e+00,5.000000000000000000e+00,5.000000000000000000e+00,5.000000000000000000e+00,5.000000000000000000e+00,5.000000000000000000e+00,5.000000000000000000e+00,5.000000000000000000e+00,5.000000000000000000e+00,5.000000000000000000e+00,5.000000000000000000e+00,5.000000000000000000e+00,5.000000000000000000e+00,5.000000000000000000e+00,5.000000000000000000e+00,5.000000000000000000e+00,5.000000000000000000e+00,5.000000000000000000e+00,5.000000000000000000e+00,5.000000000000000000e+00,5.000000000000000000e+00,5.000000000000000000e+00,5.000000000000000000e+00,5.000000000000000000e+00,5.000000000000000000e+00,5.000000000000000000e+00,5.000000000000000000e+00,5.000000000000000000e+00,5.000000000000000000e+00,5.000000000000000000e+00,5.000000000000000000e+00,5.000000000000000000e+00,5.000000000000000000e+00,5.000000000000000000e+00,5.000000000000000000e+00,5.000000000000000000e+00,5.000000000000000000e+00,5.000000000000000000e+00,5.000000000000000000e+00,5.000000000000000000e+00
2.439209461212158203e+00,2.486844062805175781e+00,2.536375999450683594e+00,2.587921142578125000e+00,2.641604900360107422e+00,2.697563171386718750e+00,2.755943298339843750e+00,2.816906452178955078e+00,2.880627393722534180e+00,2.947298049926757812e+00,3.017128467559814453e+00,3.090357542037963867e+00,3.167229890823364258e+00,3.248024225234985352e+00,3.333048343658447266e+00,3.422643661499023438e+00,3.517189025878906250e+00,3.617099523544311523e+00,3.722844839096069336e+00,3.834958791732788086e+00,3.954035520553588867e+00,4.080743789672851562e+00,4.215841293334960938e+00,4.360190868377685547e+00,4.514775276184082031e+00,4.680724143981933594e+00,4.859338283538818359e+00,5.000000000000000000e+00,5.000000000000000000e+00,5.000000000000000000e+00,5.000000000000000000e+00,5.000000000000000000e+00,5.000000000000000000e+00,5.000000000000000000e+00,5.000000000000000000e+00,5.000000000000000000e+00,5.000000000000000000e+00,5.000000000000000000e+00,5.000000000000000000e+00,5.000000000000000000e+00,5.000000000000000000e+00,5.000000000000000000e+00,5.000000000000000000e+00,5.000000000000000000e+00,5.000000000000000000e+00,5.000000000000000000e+00,5.000000000000000000e+00,5.000000000000000000e+00,5.000000000000000000e+00,5.000000000000000000e+00,5.000000000000000000e+00,5.000000000000000000e+00,5.000000000000000000e+00,5.000000000000000000e+00,5.000000000000000000e+00,5.000000000000000000e+00,5.000000000000000000e+00,5.000000000000000000e+00,5.000000000000000000e+00,5.000000000000000000e+00,5.000000000000000000e+00,5.000000000000000000e+00,5.000000000000000000e+00,5.000000000000000000e+00,5.000000000000000000e+00,5.000000000000000000e+00,5.000000000000000000e+00,5.000000000000000000e+00,5.000000000000000000e+00,5.000000000000000000e+00,5.000000000000000000e+00,5.000000000000000000e+00,5.000000000000000000e+00,5.000000000000000000e+00,5.000000000000000000e+00,5.000000000000000000e+00,5.000000000000000000e+00,5.000000000000000000e+00,5.000000000000000000e+00,5.000000000000000000e+00
2.439165592193603516e+00,2.486798286437988281e+00,2.536328554153442383e+00,2.587871551513671875e+00,2.641553401947021484e+00,2.697509288787841797e+00,2.755887269973754883e+00,2.816847562789916992e+00,2.880566120147705078e+00,2.947233915328979492e+00,3.017060756683349609e+00,3.090276718139648438e+00,3.167134284973144531e+00,3.247923374176025391e+00,3.332942247390747070e+00,3.422531604766845703e+00,3.517070531845092773e+00,3.616980552673339844e+00,3.722732782363891602e+00,3.834849596023559570e+00,3.953919410705566406e+00,4.080619812011718750e+00,4.215709686279296875e+00,4.360049724578857422e+00,4.514624118804931641e+00,4.680561542510986328e+00,4.859162807464599609e+00,5.000000000000000000e+00,5.000000000000000000e+00,5.000000000000000000e+00,5.000000000000000000e+00,5.000000000000000000e+00,5.000000000000000000e+00,5.000000000000000000e+00,5.000000000000000000e+00,5.000000000000000000e+00,5.000000000000000000e+00,5.000000000000000000e+00,5.000000000000000000e+00,5.000000000000000000e+00,5.000000000000000000e+00,5.000000000000000000e+00,5.000000000000000000e+00,5.000000000000000000e+00,5.000000000000000000e+00,5.000000000000000000e+00,5.000000000000000000e+00,5.000000000000000000e+00,5.000000000000000000e+00,5.000000000000000000e+00,5.000000000000000000e+00,5.000000000000000000e+00,5.000000000000000000e+00,5.000000000000000000e+00,5.000000000000000000e+00,5.000000000000000000e+00,5.000000000000000000e+00,5.000000000000000000e+00,5.000000000000000000e+00,5.000000000000000000e+00,5.000000000000000000e+00,5.000000000000000000e+00,5.000000000000000000e+00,5.000000000000000000e+00,5.000000000000000000e+00,5.000000000000000000e+00,5.000000000000000000e+00,5.000000000000000000e+00,5.000000000000000000e+00,5.000000000000000000e+00,5.000000000000000000e+00,5.000000000000000000e+00,5.000000000000000000e+00,5.000000000000000000e+00,5.000000000000000000e+00,5.000000000000000000e+00,5.000000000000000000e+00,5.000000000000000000e+00,5.000000000000000000e+00,5.000000000000000000e+00
2.439121484756469727e+00,2.486752748489379883e+00,2.536280870437622070e+00,2.587822198867797852e+00,2.641501903533935547e+00,2.697455644607543945e+00,2.755831003189086914e+00,2.816788911819458008e+00,2.880504608154296875e+00,2.947169780731201172e+00,3.016993522644042969e+00,3.090205907821655273e+00,3.167060136795043945e+00,3.247834682464599609e+00,3.332837104797363281e+00,3.422419309616088867e+00,3.516951799392700195e+00,3.616854906082153320e+00,3.722599744796752930e+00,3.834714174270629883e+00,3.953791379928588867e+00,4.080496311187744141e+00,4.215577602386474609e+00,4.359908580780029297e+00,4.514472484588623047e+00,4.680398941040039062e+00,4.858987331390380859e+00,5.000000000000000000e+00,5.000000000000000000e+00,5.000000000000000000e+00,5.000000000000000000e+00,5.000000000000000000e+00,5.000000000000000000e+00,5.000000000000000000e+00,5.000000000000000000e+00,5.000000000000000000e+00,5.000000000000000000e+00,5.000000000000000000e+00,5.000000000000000000e+00,5.000000000000000000e+00,5.000000000000000000e+00,5.000000000000000000e+00,5.000000000000000000e+00,5.000000000000000000e+00,5.000000000000000000e+00,5.000000000000000000e+00,5.000000000000000000e+00,5.000000000000000000e+00,5.000000000000000000e+00,5.000000000000000000e+00,5.000000000000000000e+00,5.000000000000000000e+00,5.000000000000000000e+00,5.000000000000000000e+00,5.000000000000000000e+00,5.000000000000000000e+00,5.000000000000000000e+00,5.000000000000000000e+00,5.000000000000000000e+00,5.000000000000000000e+00,5.000000000000000000e+00,5.000000000000000000e+00,5.000000000000000000e+00,5.000000000000000000e+00,5.000000000000000000e+00,5.000000000000000000e+00,5.000000000000000000e+00,5.000000000000000000e+00,5.000000000000000000e+00,5.000000000000000000e+00,5.000000000000000000e+00,5.000000000000000000e+00,5.000000000000000000e+00,5.000000000000000000e+00,5.000000000000000000e+00,5.000000000000000000e+00,5.000000000000000000e+00,5.000000000000000000e+00,5.000000000000000000e+00,5.000000000000000000e+00
2.439077615737915039e+00,2.486706972122192383e+00,2.536233186721801758e+00,2.587772607803344727e+00,2.641450166702270508e+00,2.697401762008666992e+00,2.755774736404418945e+00,2.816730260848999023e+00,2.880443334579467773e+00,2.947105407714843750e+00,3.016926288604736328e+00,3.090135335922241211e+00,3.166985988616943359e+00,3.247756719589233398e+00,3.332755088806152344e+00,3.422321796417236328e+00,3.516836166381835938e+00,3.616729497909545898e+00,3.722466945648193359e+00,3.834573030471801758e+00,3.953641414642333984e+00,4.080341339111328125e+00,4.215430259704589844e+00,4.359767436981201172e+00,4.514321327209472656e+00,4.680236339569091797e+00,4.858812332153320312e+00,5.000000000000000000e+00,5.000000000000000000e+00,5.000000000000000000e+00,5.000000000000000000e+00,5.000000000000000000e+00,5.000000000000000000e+00,5.000000000000000000e+00,5.000000000000000000e+00,5.000000000000000000e+00,5.000000000000000000e+00,5.000000000000000000e+00,5.000000000000000000e+00,5.000000000000000000e+00,5.000000000000000000e+00,5.000000000000000000e+00,5.000000000000000000e+00,5.000000000000000000e+00,5.000000000000000000e+00,5.000000000000000000e+00,5.000000000000000000e+00,5.000000000000000000e+00,5.000000000000000000e+00,5.000000000000000000e+00,5.000000000000000000e+00,5.000000000000000000e+00,5.000000000000000000e+00,5.000000000000000000e+00,5.000000000000000000e+00,5.000000000000000000e+00,5.000000000000000000e+00,5.000000000000000000e+00,5.000000000000000000e+00,5.000000000000000000e+00,5.000000000000000000e+00,5.000000000000000000e+00,5.000000000000000000e+00,5.000000000000000000e+00,5.000000000000000000e+00,5.000000000000000000e+00,5.000000000000000000e+00,5.000000000000000000e+00,5.000000000000000000e+00,5.000000000000000000e+00,5.000000000000000000e+00,5.000000000000000000e+00,5.000000000000000000e+00,5.000000000000000000e+00,5.000000000000000000e+00,5.000000000000000000e+00,5.000000000000000000e+00,5.000000000000000000e+00,5.000000000000000000e+00,5.000000000000000000e+00
2.439033508300781250e+00,2.486660957336425781e+00,2.536185741424560547e+00,2.587723255157470703e+00,2.641398668289184570e+00,2.697347879409790039e+00,2.755718708038330078e+00,2.816671609878540039e+00,2.880382061004638672e+00,2.947041273117065430e+00,3.016858816146850586e+00,3.090064764022827148e+00,3.166911840438842773e+00,3.247678756713867188e+00,3.332673072814941406e+00,3.422235250473022461e+00,3.516744613647460938e+00,3.616622209548950195e+00,3.722338914871215820e+00,3.834432363510131836e+00,3.953491926193237305e+00,4.080181598663330078e+00,4.215260028839111328e+00,4.359588146209716797e+00,4.514150619506835938e+00,4.680073261260986328e+00,4.858636379241943359e+00,5.000000000000000000e+00,5.000000000000000000e+00,5.000000000000000000e+00,5.000000000000000000e+00,5.000000000000000000e+00,5.000000000000000000e+00,5.000000000000000000e+00,5.000000000000000000e+00,5.000000000000000000e+00,5.000000000000000000e+00,5.000000000000000000e+00,5.000000000000000000e+00,5.000000000000000000e+00,5.000000000000000000e+00,5.000000000000000000e+00,5.000000000000000000e+00,5.000000000000000000e+00,5.000000000000000000e+00,5.000000000000000000e+00,5.000000000000000000e+00,5.000000000000000000e+00,5.000000000000000000e+00,5.000000000000000000e+00,5.000000000000000000e+00,5.000000000000000000e+00,5.000000000000000000e+00,5.000000000000000000e+00,5.000000000000000000e+00,5.000000000000000000e+00,5.000000000000000000e+00,5.000000000000000000e+00,5.000000000000000000e+00,5.000000000000000000e+00,5.000000000000000000e+00,5.000000000000000000e+00,5.000000000000000000e+00,5.000000000000000000e+00,5.000000000000000000e+00,5.000000000000000000e+00,5.000000000000000000e+00,5.000000000000000000e+00,5.000000000000000000e+00,5.000000000000000000e+00,5.000000000000000000e+00,5.000000000000000000e+00,5.000000000000000000e+00,5.000000000000000000e+00,5.000000000000000000e+00,5.000000000000000000e+00,5.000000000000000000e+00,5.000000000000000000e+00,5.000000000000000000e+00,5.000000000000000000e+00
2.438989639282226562e+00,2.486615419387817383e+00,2.536138296127319336e+00,2.587673664093017578e+00,2.641347169876098633e+00,2.697293996810913086e+00,2.755662441253662109e+00,2.816612958908081055e+00,2.880320787429809570e+00,2.946977138519287109e+00,3.016791343688964844e+00,3.089994192123413086e+00,3.166837692260742188e+00,3.247600793838500977e+00,3.332590579986572266e+00,3.422148704528808594e+00,3.516653299331665039e+00,3.616525650024414062e+00,3.722236394882202148e+00,3.834312915802001953e+00,3.953348398208618164e+00,4.080021858215332031e+00,4.215089321136474609e+00,4.359406471252441406e+00,4.513955116271972656e+00,4.679865360260009766e+00,4.858436584472656250e+00,5.000000000000000000e+00,5.000000000000000000e+00,5.000000000000000000e+00,5.000000000000000000e+00,5.000000000000000000e+00,5.000000000000000000e+00,5.000000000000000000e+00,5.000000000000000000e+00,5.000000000000000000e+00,5.000000000000000000e+00,5.000000000000000000e+00,5.000000000000000000e+00,5.000000000000000000e+00,5.000000000000000000e+00,5.000000000000000000e+00,5.000000000000000000e+00,5.000000000000000000e+00,5.000000000000000000e+00,5.000000000000000000e+00,5.000000000000000000e+00,5.000000000000000000e+00,5.000000000000000000e+00,5.000000000000000000e+00,5.000000000000000000e+00,5.000000000000000000e+00,5.000000000000000000e+00,5.000000000000000000e+00,5.000000000000000000e+00,5.000000000000000000e+00,5.000000000000000000e+00,5.000000000000000000e+00,5.000000000000000000e+00,5.000000000000000000e+00,5.000000000000000000e+00,5.000000000000000000e+00,5.000000000000000000e+00,5.000000000000000000e+00,5.000000000000000000e+00,5.000000000000000000e+00,5.000000000000000000e+00,5.000000000000000000e+00,5.000000000000000000e+00,5.000000000000000000e+00,5.000000000000000000e+00,5.000000000000000000e+00,5.000000000000000000e+00,5.000000000000000000e+00,5.000000000000000000e+00,5.000000000000000000e+00,5.000000000000000000e+00,5.000000000000000000e+00,5.000000000000000000e+00,5.000000000000000000e+00
2.438945531845092773e+00,2.486569643020629883e+00,2.536090612411499023e+00,2.587624073028564453e+00,2.641295433044433594e+00,2.697240114212036133e+00,2.755606412887573242e+00,2.816554307937622070e+00,2.880259513854980469e+00,2.946912765502929688e+00,3.016724109649658203e+00,3.089923620223999023e+00,3.166763544082641602e+00,3.247522830963134766e+00,3.332508563995361328e+00,3.422062158584594727e+00,3.516561985015869141e+00,3.616428852081298828e+00,3.722133636474609375e+00,3.834204196929931641e+00,3.953232765197753906e+00,4.079888343811035156e+00,4.214928627014160156e+00,4.359223842620849609e+00,4.513759613037109375e+00,4.679655075073242188e+00,4.858210086822509766e+00,5.000000000000000000e+00,5.000000000000000000e+00,5.000000000000000000e+00,5.000000000000000000e+00,5.000000000000000000e+00,5.000000000000000000e+00,5.000000000000000000e+00,5.000000000000000000e+00,5.000000000000000000e+00,5.000000000000000000e+00,5.000000000000000000e+00,5.000000000000000000e+00,5.000000000000000000e+00,5.000000000000000000e+00,5.000000000000000000e+00,5.000000000000000000e+00,5.000000000000000000e+00,5.000000000000000000e+00,5.000000000000000000e+00,5.000000000000000000e+00,5.000000000000000000e+00,5.000000000000000000e+00,5.000000000000000000e+00,5.000000000000000000e+00,5.000000000000000000e+00,5.000000000000000000e+00,5.000000000000000000e+00,5.000000000000000000e+00,5.000000000000000000e+00,5.000000000000000000e+00,5.000000000000000000e+00,5.000000000000000000e+00,5.000000000000000000e+00,5.000000000000000000e+00,5.000000000000000000e+00,5.000000000000000000e+00,5.000000000000000000e+00,5.000000000000000000e+00,5.000000000000000000e+00,5.000000000000000000e+00,5.000000000000000000e+00,5.000000000000000000e+00,5.000000000000000000e+00,5.000000000000000000e+00,5.000000000000000000e+00,5.000000000000000000e+00,5.000000000000000000e+00,5.000000000000000000e+00,5.000000000000000000e+00,5.000000000000000000e+00,5.000000000000000000e+00,5.000000000000000000e+00,5.000000000000000000e+00
2.438901662826538086e+00,2.486523866653442383e+00,2.536043167114257812e+00,2.587574720382690430e+00,2.641243696212768555e+00,2.697186470031738281e+00,2.755550146102905273e+00,2.816495656967163086e+00,2.880198001861572266e+00,2.946848392486572266e+00,3.016656875610351562e+00,3.089853048324584961e+00,3.166689395904541016e+00,3.247444629669189453e+00,3.332426548004150391e+00,3.421975612640380859e+00,3.516470432281494141e+00,3.616332292556762695e+00,3.722031116485595703e+00,3.834095478057861328e+00,3.953117370605468750e+00,4.079765319824218750e+00,4.214797019958496094e+00,4.359073162078857422e+00,4.513576984405517578e+00,4.679445266723632812e+00,4.857984066009521484e+00,5.000000000000000000e+00,5.000000000000000000e+00,5.000000000000000000e+00,5.000000000000000000e+00,5.000000000000000000e+00,5.000000000000000000e+00,5.000000000000000000e+00,5.000000000000000000e+00,5.000000000000000000e+00,5.000000000000000000e+00,5.000000000000000000e+00,5.000000000000000000e+00,5.000000000000000000e+00,5.000000000000000000e+00,5.000000000000000000e+00,5.000000000000000000e+00,5.000000000000000000e+00,5.000000000000000000e+00,5.000000000000000000e+00,5.000000000000000000e+00,5.000000000000000000e+00,5.000000000000000000e+00,5.000000000000000000e+00,5.000000000000000000e+00,5.000000000000000000e+00,5.000000000000000000e+00,5.000000000000000000e+00,5.000000000000000000e+00,5.000000000000000000e+00,5.000000000000000000e+00,5.000000000000000000e+00,5.000000000000000000e+00,5.000000000000000000e+00,5.000000000000000000e+00,5.000000000000000000e+00,5.000000000000000000e+00,5.000000000000000000e+00,5.000000000000000000e+00,5.000000000000000000e+00,5.000000000000000000e+00,5.000000000000000000e+00,5.000000000000000000e+00,5.000000000000000000e+00,5.000000000000000000e+00,5.000000000000000000e+00,5.000000000000000000e+00,5.000000000000000000e+00,5.000000000000000000e+00,5.000000000000000000e+00,5.000000000000000000e+00,5.000000000000000000e+00,5.000000000000000000e+00,5.000000000000000000e+00
2.438857555389404297e+00,2.486478328704833984e+00,2.535995483398437500e+00,2.587524890899658203e+00,2.641192197799682617e+00,2.697132587432861328e+00,2.755494117736816406e+00,2.816437005996704102e+00,2.880136489868164062e+00,2.946784257888793945e+00,3.016589641571044922e+00,3.089782476425170898e+00,3.166615247726440430e+00,3.247366666793823242e+00,3.332344293594360352e+00,3.421889066696166992e+00,3.516379117965698242e+00,3.616235256195068359e+00,3.721928834915161133e+00,3.833986997604370117e+00,3.953001976013183594e+00,4.079642295837402344e+00,4.214665412902832031e+00,4.358932971954345703e+00,4.513426303863525391e+00,4.679273605346679688e+00,4.857773780822753906e+00,5.000000000000000000e+00,5.000000000000000000e+00,5.000000000000000000e+00,5.000000000000000000e+00,5.000000000000000000e+00,5.000000000000000000e+00,5.000000000000000000e+00,5.000000000000000000e+00,5.000000000000000000e+00,5.000000000000000000e+00,5.000000000000000000e+00,5.000000000000000000e+00,5.000000000000000000e+00,5.000000000000000000e+00,5.000000000000000000e+00,5.000000000000000000e+00,5.000000000000000000e+00,5.000000000000000000e+00,5.000000000000000000e+00,5.000000000000000000e+00,5.000000000000000000e+00,5.000000000000000000e+00,5.000000000000000000e+00,5.000000000000000000e+00,5.000000000000000000e+00,5.000000000000000000e+00,5.000000000000000000e+00,5.000000000000000000e+00,5.000000000000000000e+00,5.000000000000000000e+00,5.000000000000000000e+00,5.000000000000000000e+00,5.000000000000000000e+00,5.000000000000000000e+00,5.000000000000000000e+00,5.000000000000000000e+00,5.000000000000000000e+00,5.000000000000000000e+00,5.000000000000000000e+00,5.000000000000000000e+00,5.000000000000000000e+00,5.000000000000000000e+00,5.000000000000000000e+00,5.000000000000000000e+00,5.000000000000000000e+00,5.000000000000000000e+00,5.000000000000000000e+00,5.000000000000000000e+00,5.000000000000000000e+00,5.000000000000000000e+00,5.000000000000000000e+00,5.000000000000000000e+00,5.000000000000000000e+00
2.438813686370849609e+00,2.486432552337646484e+00,2.535948038101196289e+00,2.587475538253784180e+00,2.641140699386596680e+00,2.697078943252563477e+00,2.755438089370727539e+00,2.816378593444824219e+00,2.880075216293334961e+00,2.946720123291015625e+00,3.016522407531738281e+00,3.089711904525756836e+00,3.166540861129760742e+00,3.247288703918457031e+00,3.332262277603149414e+00,3.421802520751953125e+00,3.516287803649902344e+00,3.616138696670532227e+00,3.721826553344726562e+00,3.833878278732299805e+00,3.952886343002319336e+00,4.079519271850585938e+00,4.214534282684326172e+00,4.358792304992675781e+00,4.513275623321533203e+00,4.679111480712890625e+00,4.857599735260009766e+00,5.000000000000000000e+00,5.000000000000000000e+00,5.000000000000000000e+00,5.000000000000000000e+00,5.000000000000000000e+00,5.000000000000000000e+00,5.000000000000000000e+00,5.000000000000000000e+00,5.000000000000000000e+00,5.000000000000000000e+00,5.000000000000000000e+00,5.000000000000000000e+00,5.000000000000000000e+00,5.000000000000000000e+00,5.000000000000000000e+00,5.000000000000000000e+00,5.000000000000000000e+00,5.000000000000000000e+00,5.000000000000000000e+00,5.000000000000000000e+00,5.000000000000000000e+00,5.000000000000000000e+00,5.000000000000000000e+00,5.000000000000000000e+00,5.000000000000000000e+00,5.000000000000000000e+00,5.000000000000000000e+00,5.000000000000000000e+00,5.000000000000000000e+00,5.000000000000000000e+00,5.000000000000000000e+00,5.000000000000000000e+00,5.000000000000000000e+00,5.000000000000000000e+00,5.000000000000000000e+00,5.000000000000000000e+00,5.000000000000000000e+00,5.000000000000000000e+00,5.000000000000000000e+00,5.000000000000000000e+00,5.000000000000000000e+00,5.000000000000000000e+00,5.000000000000000000e+00,5.000000000000000000e+00,5.000000000000000000e+00,5.000000000000000000e+00,5.000000000000000000e+00,5.000000000000000000e+00,5.000000000000000000e+00,5.000000000000000000e+00,5.000000000000000000e+00,5.000000000000000000e+00,5.000000000000000000e+00
2.438769578933715820e+00,2.486386775970458984e+00,2.535900354385375977e+00,2.587425947189331055e+00,2.641089200973510742e+00,2.697025060653686523e+00,2.755381822586059570e+00,2.816319704055786133e+00,2.880013942718505859e+00,2.946655988693237305e+00,3.016455173492431641e+00,3.089641332626342773e+00,3.166466712951660156e+00,3.247210741043090820e+00,3.332180261611938477e+00,3.421715974807739258e+00,3.516196012496948242e+00,3.616041898727416992e+00,3.721724033355712891e+00,3.833769559860229492e+00,3.952770948410034180e+00,4.079396247863769531e+00,4.214403152465820312e+00,4.358651638031005859e+00,4.513124942779541016e+00,4.678949356079101562e+00,4.857425212860107422e+00,5.000000000000000000e+00,5.000000000000000000e+00,5.000000000000000000e+00,5.000000000000000000e+00,5.000000000000000000e+00,5.000000000000000000e+00,5.000000000000000000e+00,5.000000000000000000e+00,5.000000000000000000e+00,5.000000000000000000e+00,5.000000000000000000e+00,5.000000000000000000e+00,5.000000000000000000e+00,5.000000000000000000e+00,5.000000000000000000e+00,5.000000000000000000e+00,5.000000000000000000e+00,5.000000000000000000e+00,5.000000000000000000e+00,5.000000000000000000e+00,5.000000000000000000e+00,5.000000000000000000e+00,5.000000000000000000e+00,5.000000000000000000e+00,5.000000000000000000e+00,5.000000000000000000e+00,5.000000000000000000e+00,5.000000000000000000e+00,5.000000000000000000e+00,5.000000000000000000e+00,5.000000000000000000e+00,5.000000000000000000e+00,5.000000000000000000e+00,5.000000000000000000e+00,5.000000000000000000e+00,5.000000000000000000e+00,5.000000000000000000e+00,5.000000000000000000e+00,5.000000000000000000e+00,5.000000000000000000e+00,5.000000000000000000e+00,5.000000000000000000e+00,5.000000000000000000e+00,5.000000000000000000e+00,5.000000000000000000e+00,5.000000000000000000e+00,5.000000000000000000e+00,5.000000000000000000e+00,5.000000000000000000e+00,5.000000000000000000e+00,5.000000000000000000e+00,5.000000000000000000e+00,5.000000000000000000e+00
2.438725709915161133e+00,2.486341238021850586e+00,2.535852909088134766e+00,2.587376594543457031e+00,2.641037464141845703e+00,2.696971416473388672e+00,2.755325555801391602e+00,2.816261053085327148e+00,2.879952669143676758e+00,2.946591854095458984e+00,3.016387939453125000e+00,3.089570522308349609e+00,3.166392803192138672e+00,3.247132778167724609e+00,3.332098245620727539e+00,3.421629428863525391e+00,3.516104459762573242e+00,3.615945339202880859e+00,3.721621751785278320e+00,3.833661079406738281e+00,3.952654838562011719e+00,4.079273223876953125e+00,4.214271545410156250e+00,4.358511447906494141e+00,4.512974262237548828e+00,4.678787708282470703e+00,4.857250690460205078e+00,5.000000000000000000e+00,5.000000000000000000e+00,5.000000000000000000e+00,5.000000000000000000e+00,5.000000000000000000e+00,5.000000000000000000e+00,5.000000000000000000e+00,5.000000000000000000e+00,5.000000000000000000e+00,5.000000000000000000e+00,5.000000000000000000e+00,5.000000000000000000e+00,5.000000000000000000e+00,5.000000000000000000e+00,5.000000000000000000e+00,5.000000000000000000e+00,5.000000000000000000e+00,5.000000000000000000e+00,5.000000000000000000e+00,5.000000000000000000e+00,5.000000000000000000e+00,5.000000000000000000e+00,5.000000000000000000e+00,5.000000000000000000e+00,5.000000000000000000e+00,5.000000000000000000e+00,5.000000000000000000e+00,5.000000000000000000e+00,5.000000000000000000e+00,5.000000000000000000e+00,5.000000000000000000e+00,5.000000000000000000e+00,5.000000000000000000e+00,5.000000000000000000e+00,5.000000000000000000e+00,5.000000000000000000e+00,5.000000000000000000e+00,5.000000000000000000e+00,5.000000000000000000e+00,5.000000000000000000e+00,5.000000000000000000e+00,5.000000000000000000e+00,5.000000000000000000e+00,5.000000000000000000e+00,5.000000000000000000e+00,5.000000000000000000e+00,5.000000000000000000e+00,5.000000000000000000e+00,5.000000000000000000e+00,5.000000000000000000e+00,5.000000000000000000e+00,5.000000000000000000e+00,5.000000000000000000e+00
2.438681840896606445e+00,2.486295223236083984e+00,2.535805225372314453e+00,2.587327003479003906e+00,2.640985965728759766e+00,2.696917533874511719e+00,2.755269527435302734e+00,2.816202402114868164e+00,2.879891395568847656e+00,2.946527719497680664e+00,3.016320466995239258e+00,3.089499950408935547e+00,3.166318655014038086e+00,3.247054815292358398e+00,3.332015991210937500e+00,3.421542644500732422e+00,3.516013145446777344e+00,3.615848779678344727e+00,3.721519231796264648e+00,3.833552360534667969e+00,3.952539443969726562e+00,4.079150199890136719e+00,4.214140415191650391e+00,4.358370780944824219e+00,4.512823581695556641e+00,4.678626060485839844e+00,4.857076168060302734e+00,5.000000000000000000e+00,5.000000000000000000e+00,5.000000000000000000e+00,5.000000000000000000e+00,5.000000000000000000e+00,5.000000000000000000e+00,5.000000000000000000e+00,5.000000000000000000e+00,5.000000000000000000e+00,5.000000000000000000e+00,5.000000000000000000e+00,5.000000000000000000e+00,5.000000000000000000e+00,5.000000000000000000e+00,5.000000000000000000e+00,5.000000000000000000e+00,5.000000000000000000e+00,5.000000000000000000e+00,5.000000000000000000e+00,5.000000000000000000e+00,5.000000000000000000e+00,5.000000000000000000e+00,5.000000000000000000e+00,5.000000000000000000e+00,5.000000000000000000e+00,5.000000000000000000e+00,5.000000000000000000e+00,5.000000000000000000e+00,5.000000000000000000e+00,5.000000000000000000e+00,5.000000000000000000e+00,5.000000000000000000e+00,5.000000000000000000e+00,5.000000000000000000e+00,5.000000000000000000e+00,5.000000000000000000e+00,5.000000000000000000e+00,5.000000000000000000e+00,5.000000000000000000e+00,5.000000000000000000e+00,5.000000000000000000e+00,5.000000000000000000e+00,5.000000000000000000e+00,5.000000000000000000e+00,5.000000000000000000e+00,5.000000000000000000e+00,5.000000000000000000e+00,5.000000000000000000e+00,5.000000000000000000e+00,5.000000000000000000e+00,5.000000000000000000e+00,5.000000000000000000e+00,5.000000000000000000e+00
2.438637733459472656e+00,2.486249685287475586e+00,2.535757780075073242e+00,2.587277650833129883e+00,2.640934467315673828e+00,2.696863651275634766e+00,2.755213260650634766e+00,2.816143751144409180e+00,2.879830121994018555e+00,2.946463346481323242e+00,3.016253232955932617e+00,3.089429378509521484e+00,3.166244506835937500e+00,3.246977090835571289e+00,3.331933975219726562e+00,3.421456098556518555e+00,3.515921831130981445e+00,3.615751981735229492e+00,3.721416950225830078e+00,3.833443403244018555e+00,3.952424049377441406e+00,4.079026699066162109e+00,4.214008808135986328e+00,4.358230590820312500e+00,4.512672901153564453e+00,4.678464412689208984e+00,4.856901645660400391e+00,5.000000000000000000e+00,5.000000000000000000e+00,5.000000000000000000e+00,5.000000000000000000e+00,5.000000000000000000e+00,5.000000000000000000e+00,5.000000000000000000e+00,5.000000000000000000e+00,5.000000000000000000e+00,5.000000000000000000e+00,5.000000000000000000e+00,5.000000000000000000e+00,5.000000000000000000e+00,5.000000000000000000e+00,5.000000000000000000e+00,5.000000000000000000e+00,5.000000000000000000e+00,5.000000000000000000e+00,5.000000000000000000e+00,5.000000000000000000e+00,5.000000000000000000e+00,5.000000000000000000e+00,5.000000000000000000e+00,5.000000000000000000e+00,5.000000000000000000e+00,5.000000000000000000e+00,5.000000000000000000e+00,5.000000000000000000e+00,5.000000000000000000e+00,5.000000000000000000e+00,5.000000000000000000e+00,5.000000000000000000e+00,5.000000000000000000e+00,5.000000000000000000e+00,5.000000000000000000e+00,5.000000000000000000e+00,5.000000000000000000e+00,5.000000000000000000e+00,5.000000000000000000e+00,5.000000000000000000e+00,5.000000000000000000e+00,5.000000000000000000e+00,5.000000000000000000e+00,5.000000000000000000e+00,5.000000000000000000e+00,5.000000000000000000e+00,5.000000000000000000e+00,5.000000000000000000e+00,5.000000000000000000e+00,5.000000000000000000e+00,5.000000000000000000e+00,5.000000000000000000e+00,5.000000000000000000e+00
2.438593626022338867e+00,2.486203908920288086e+00,2.535710334777832031e+00,2.587228059768676758e+00,2.640882968902587891e+00,2.696810007095336914e+00,2.755157232284545898e+00,2.816085100173950195e+00,2.879768848419189453e+00,2.946398973464965820e+00,3.016185998916625977e+00,3.089358806610107422e+00,3.166170358657836914e+00,3.246899127960205078e+00,3.331851720809936523e+00,3.421369552612304688e+00,3.515830516815185547e+00,3.615655422210693359e+00,3.721314668655395508e+00,3.833334684371948242e+00,3.952308654785156250e+00,4.078904151916503906e+00,4.213877677917480469e+00,4.358089923858642578e+00,4.512522697448730469e+00,4.678302288055419922e+00,4.845006465911865234e+00,4.843802452087402344e+00,4.842598915100097656e+00,4.841395854949951172e+00,4.840193748474121094e+00,4.838992118835449219e+00,4.837790966033935547e+00,4.836590766906738281e+00,4.835390567779541016e+00,4.834191322326660156e+00,4.832992553710937500e+00,4.831794738769531250e+00,4.830597400665283203e+00,4.829400539398193359e+00,4.828204154968261719e+00,4.827008247375488281e+00,4.825813293457031250e+00,4.824618816375732422e+00,4.823424816131591797e+00,4.822231769561767578e+00,4.821038722991943359e+00,4.819846630096435547e+00,4.818655014038085938e+00,4.817463874816894531e+00,4.816273689270019531e+00,4.815083980560302734e+00,4.813894748687744141e+00,4.812705993652343750e+00,4.811518192291259766e+00,4.810330390930175781e+00,4.809143543243408203e+00,4.807957172393798828e+00,4.806771755218505859e+00,4.805586814880371094e+00,4.804401874542236328e+00,4.803217887878417969e+00,4.802034854888916016e+00,4.800851821899414062e+00,4.799669742584228516e+00,4.798488140106201172e+00,4.797307014465332031e+00,4.796126842498779297e+00,4.794946670532226562e+00,4.793767452239990234e+00,4.792588710784912109e+00,4.791410923004150391e+00,4.790233135223388672e+00,4.789056301116943359e+00,4.787879943847656250e+00,4.786704063415527344e+00,4.785529136657714844e+00,4.784354209899902344e+00,4.783180236816406250e+00,4.782007217407226562e+00
2.438549757003784180e+00,2.486158132553100586e+00,2.535662651062011719e+00,2.587178707122802734e+00,2.640831232070922852e+00,2.696756124496459961e+00,2.755101203918457031e+00,2.816026449203491211e+00,2.879707336425781250e+00,2.946334838867187500e+00,3.016118764877319336e+00,3.089288234710693359e+00,3.166096210479736328e+00,3.246820926666259766e+00,3.331769704818725586e+00,3.421283006668090820e+00,3.515739202499389648e+00,3.615558862686157227e+00,3.721211910247802734e+00,3.765165805816650391e+00,3.764438390731811523e+00,3.763711690902709961e+00,3.762984991073608398e+00,3.762258768081665039e+00,3.761532545089721680e+00,3.760806560516357422e+00,3.760081291198730469e+00,3.759355783462524414e+00,3.758631229400634766e+00,3.757906198501586914e+00,3.757182121276855469e+00,3.756457805633544922e+00,3.755734205245971680e+00,3.755010366439819336e+00,3.754287481307983398e+00,3.753564119338989258e+00,3.752841711044311523e+00,3.752119064331054688e+00,3.751397132873535156e+00,3.750674962997436523e+00,3.749953746795654297e+00,3.749232053756713867e+00,3.748511314392089844e+00,3.747790336608886719e+00,3.747070074081420898e+00,3.746349573135375977e+00,3.745630025863647461e+00,3.744910001754760742e+00,3.744190931320190430e+00,3.743471622467041016e+00,3.742753028869628906e+00,3.742034196853637695e+00,3.741316080093383789e+00,3.740597963333129883e+00,3.739880561828613281e+00,3.739162921905517578e+00,3.738445997238159180e+00,3.737728834152221680e+00,3.737012386322021484e+00,3.736295700073242188e+00,3.735579967498779297e+00,3.734863996505737305e+00,3.734148502349853516e+00,3.733433246612548828e+00,3.732718467712402344e+00,3.732003450393676758e+00,3.731289148330688477e+00,3.730574846267700195e+00,3.729861259460449219e+00,3.729147434234619141e+00,3.728434324264526367e+00,3.727720975875854492e+00,3.727008342742919922e+00,3.726295709609985352e+00,3.725583553314208984e+00,3.724871397018432617e+00,3.724159955978393555e+00,3.723448276519775391e+00,3.722737312316894531e+00,3.722026348114013672e+00
2.438505649566650391e+00,2.486112594604492188e+00,2.535615205764770508e+00,2.587129116058349609e+00,2.640779495239257812e+00,2.696702480316162109e+00,2.755044937133789062e+00,2.815968036651611328e+00,2.879645824432373047e+00,2.946270704269409180e+00,3.016051530838012695e+00,3.079427480697631836e+00,3.078940868377685547e+00,3.078454732894897461e+00,3.077968358993530273e+00,3.077482461929321289e+00,3.076996564865112305e+00,3.076511144638061523e+00,3.076025485992431641e+00,3.075539827346801758e+00,3.075054883956909180e+00,3.074569702148437500e+00,3.074084758758544922e+00,3.073600053787231445e+00,3.073115587234497070e+00,3.072630882263183594e+00,3.072146654129028320e+00,3.071662425994873047e+00,3.071178197860717773e+00,3.070694208145141602e+00,3.070210456848144531e+00,3.069727182388305664e+00,3.069243669509887695e+00,3.068760395050048828e+00,3.068277359008789062e+00,3.067794561386108398e+00,3.067311525344848633e+00,3.066829204559326172e+00,3.066346406936645508e+00,3.065864324569702148e+00,3.065382003784179688e+00,3.064900159835815430e+00,3.064418315887451172e+00,3.063936710357666016e+00,3.063455343246459961e+00,3.062973737716674805e+00,3.062492609024047852e+00,3.062011241912841797e+00,3.061530590057373047e+00,3.061049699783325195e+00,3.060569047927856445e+00,3.060088396072387695e+00,3.059608221054077148e+00,3.059127807617187500e+00,3.058647871017456055e+00,3.058167934417724609e+00,3.057688236236572266e+00,3.057208538055419922e+00,3.056729316711425781e+00,3.056249856948852539e+00,3.055770874023437500e+00,3.055291652679443359e+00,3.054812908172607422e+00,3.054334163665771484e+00,3.053855657577514648e+00,3.053377151489257812e+00,3.052899122238159180e+00,3.052420854568481445e+00,3.051943063735961914e+00,3.051465034484863281e+00,3.050987482070922852e+00,3.050509929656982422e+00,3.050032615661621094e+00,3.049555301666259766e+00,3.049078464508056641e+00,3.048601388931274414e+00,3.048124790191650391e+00,3.047648191452026367e+00,3.047171831130981445e+00,3.046695470809936523e+00
2.438461780548095703e+00,2.486066818237304688e+00,2.535567760467529297e+00,2.587079524993896484e+00,2.604640483856201172e+00,2.604292392730712891e+00,2.603944301605224609e+00,2.603596687316894531e+00,2.603248834609985352e+00,2.602901220321655273e+00,2.602553606033325195e+00,2.602206230163574219e+00,2.601858854293823242e+00,2.601511478424072266e+00,2.601164340972900391e+00,2.600817203521728516e+00,2.600470304489135742e+00,2.600123167037963867e+00,2.599776506423950195e+00,2.599429845809936523e+00,2.599082946777343750e+00,2.598736524581909180e+00,2.598390102386474609e+00,2.598043680191040039e+00,2.597697496414184570e+00,2.597351312637329102e+00,2.597005128860473633e+00,2.596659183502197266e+00,2.596313238143920898e+00,2.595967531204223633e+00,2.595621824264526367e+00,2.595276117324829102e+00,2.594930648803710938e+00,2.594585180282592773e+00,2.594239473342895508e+00,2.593894481658935547e+00,2.593549251556396484e+00,2.593204259872436523e+00,2.592859268188476562e+00,2.592514276504516602e+00,2.592169523239135742e+00,2.591825008392333984e+00,2.591480255126953125e+00,2.591135740280151367e+00,2.590791225433349609e+00,2.590447187423706055e+00,2.590102672576904297e+00,2.589758634567260742e+00,2.589414596557617188e+00,2.589070796966552734e+00,2.588726758956909180e+00,2.588383197784423828e+00,2.588039398193359375e+00,2.587695837020874023e+00,2.587352275848388672e+00,2.587008953094482422e+00,2.586665630340576172e+00,2.586322307586669922e+00,2.585979223251342773e+00,2.585636138916015625e+00,2.585293292999267578e+00,2.584950447082519531e+00,2.584607601165771484e+00,2.584264993667602539e+00,2.583922386169433594e+00,2.583579778671264648e+00,2.583237648010253906e+00,2.582895278930664062e+00,2.582553148269653320e+00,2.582210779190063477e+00,2.581868886947631836e+00,2.581526756286621094e+00,2.581185102462768555e+00,2.580843210220336914e+00,2.580501556396484375e+00,2.580159902572631836e+00,2.579818487167358398e+00,2.579477071762084961e+00,2.579135656356811523e+00,2.578794479370117188e+00
2.255917787551879883e+00,2.255656957626342773e+00,2.255395650863647461e+00,2.255134820938110352e+00,2.254873991012573242e+00,2.254613161087036133e+00,2.254352331161499023e+00,2.254091501235961914e+00,2.253830909729003906e+00,2.253570318222045898e+00,2.253309965133666992e+00,2.253049373626708984e+00,2.252789020538330078e+00,2.252528667449951172e+00,2.252268314361572266e+00,2.252008199691772461e+00,2.251747846603393555e+00,2.251487970352172852e+00,2.251227855682373047e+00,2.250967741012573242e+00,2.250707864761352539e+00,2.250447988510131836e+00,2.250188112258911133e+00,2.249928474426269531e+00,2.249668836593627930e+00,2.249408960342407227e+00,2.249149560928344727e+00,2.248889923095703125e+00,2.248630523681640625e+00,2.248371124267578125e+00,2.248111724853515625e+00,2.247852563858032227e+00,2.247593402862548828e+00,2.247334241867065430e+00,2.247075080871582031e+00,2.246815919876098633e+00,2.246556997299194336e+00,2.246298074722290039e+00,2.246039152145385742e+00,2.245780229568481445e+00,2.245521545410156250e+00,2.245262861251831055e+00,2.245004177093505859e+00,2.244745731353759766e+00,2.244487285614013672e+00,2.244228839874267578e+00,2.243970394134521484e+00,2.243712186813354492e+00,2.243453741073608398e+00,2.243195772171020508e+00,2.242937564849853516e+00,2.242679595947265625e+00,2.242421388626098633e+00,2.242163658142089844e+00,2.241905689239501953e+00,2.241647720336914062e+00,2.241389989852905273e+00,2.241132259368896484e+00,2.240874528884887695e+00,2.240617036819458008e+00,2.240359544754028320e+00,2.240102052688598633e+00,2.239844560623168945e+00,2.239587306976318359e+00,2.239329814910888672e+00,2.239072799682617188e+00,2.238815546035766602e+00,2.238558292388916016e+00,2.238301277160644531e+00,2.238044261932373047e+00,2.237787246704101562e+00,2.237530469894409180e+00,2.237273693084716797e+00,2.237016916275024414e+00,2.236760139465332031e+00,2.236503601074218750e+00,2.236246824264526367e+00,2.235990524291992188e+00,2.235733747482299805e+00,2.235477447509765625e+00
1.988735318183898926e+00,1.988532304763793945e+00,1.988329410552978516e+00,1.988126635551452637e+00,1.987923979759216309e+00,1.987721204757690430e+00,1.987518429756164551e+00,1.987315773963928223e+00,1.987113118171691895e+00,1.986910700798034668e+00,1.986708164215087891e+00,1.986505627632141113e+00,1.986303091049194336e+00,1.986100673675537109e+00,1.985898494720458984e+00,1.985696077346801758e+00,1.985493779182434082e+00,1.985291481018066406e+00,1.985089540481567383e+00,1.984887242317199707e+00,1.984685182571411133e+00,1.984483003616333008e+00,1.984280943870544434e+00,1.984079122543334961e+00,1.983877062797546387e+00,1.983675122261047363e+00,1.983473181724548340e+00,1.983271360397338867e+00,1.983069777488708496e+00,1.982867956161499023e+00,1.982666134834289551e+00,1.982464432716369629e+00,1.982263088226318359e+00,1.982061386108398438e+00,1.981859803199768066e+00,1.981658220291137695e+00,1.981456756591796875e+00,1.981255531311035156e+00,1.981054067611694336e+00,1.980852723121643066e+00,1.980651378631591797e+00,1.980450272560119629e+00,1.980249047279357910e+00,1.980047583580017090e+00,1.979846358299255371e+00,1.979645490646362305e+00,1.979444384574890137e+00,1.979243278503417969e+00,1.979042291641235352e+00,1.978841543197631836e+00,1.978640556335449219e+00,1.978439688682556152e+00,1.978238821029663086e+00,1.978038191795349121e+00,1.977837443351745605e+00,1.977636694908142090e+00,1.977436065673828125e+00,1.977235674858093262e+00,1.977035045623779297e+00,1.976834416389465332e+00,1.976633906364440918e+00,1.976433634757995605e+00,1.976233243942260742e+00,1.976032733917236328e+00,1.975832462310791016e+00,1.975632309913635254e+00,1.975432038307189941e+00,1.975231766700744629e+00,1.975031614303588867e+00,1.974831581115722656e+00,1.974631547927856445e+00,1.974431395530700684e+00,1.974231362342834473e+00,1.974031567573547363e+00,1.973831653594970703e+00,1.973631739616394043e+00,1.973431825637817383e+00,1.973232269287109375e+00,1.973032474517822266e+00,1.972832679748535156e+00
1.778138995170593262e+00,1.777976751327514648e+00,1.777814507484436035e+00,1.777652502059936523e+00,1.777490377426147461e+00,1.777328252792358398e+00,1.777166128158569336e+00,1.777004122734069824e+00,1.776842236518859863e+00,1.776680231094360352e+00,1.776518225669860840e+00,1.776356339454650879e+00,1.776194334030151367e+00,1.776032686233520508e+00,1.775870800018310547e+00,1.775708913803100586e+00,1.775547146797180176e+00,1.775385618209838867e+00,1.775223851203918457e+00,1.775062084197998047e+00,1.774900436401367188e+00,1.774738788604736328e+00,1.774577379226684570e+00,1.774415731430053711e+00,1.774254202842712402e+00,1.774092674255371094e+00,1.773931264877319336e+00,1.773769855499267578e+00,1.773608446121215820e+00,1.773446917533874512e+00,1.773285627365112305e+00,1.773124337196350098e+00,1.772963047027587891e+00,1.772801756858825684e+00,1.772640466690063477e+00,1.772479176521301270e+00,1.772318243980407715e+00,1.772157073020935059e+00,1.771995902061462402e+00,1.771834731101989746e+00,1.771673798561096191e+00,1.771512746810913086e+00,1.771351695060729980e+00,1.771190643310546875e+00,1.771029710769653320e+00,1.770868897438049316e+00,1.770707964897155762e+00,1.770546913146972656e+00,1.770386099815368652e+00,1.770225405693054199e+00,1.770064592361450195e+00,1.769903779029846191e+00,1.769743084907531738e+00,1.769582509994506836e+00,1.769421815872192383e+00,1.769261240959167480e+00,1.769100546836853027e+00,1.768940091133117676e+00,1.768779516220092773e+00,1.768619060516357422e+00,1.768458485603332520e+00,1.768298268318176270e+00,1.768137812614440918e+00,1.767977356910705566e+00,1.767816901206970215e+00,1.767656803131103516e+00,1.767496347427368164e+00,1.767336130142211914e+00,1.767175793647766113e+00,1.767015695571899414e+00,1.766855478286743164e+00,1.766695380210876465e+00,1.766535162925720215e+00,1.766375184059143066e+00,1.766215085983276367e+00,1.766054987907409668e+00,1.765895009040832520e+00,1.765735149383544922e+00,1.765575170516967773e+00,1.765415310859680176e+00
1.607873797416687012e+00,1.607741117477416992e+00,1.607608675956726074e+00,1.607475996017456055e+00,1.607343435287475586e+00,1.607210874557495117e+00,1.607078313827514648e+00,1.606945991516113281e+00,1.606813430786132812e+00,1.606680989265441895e+00,1.606548428535461426e+00,1.606416225433349609e+00,1.606283783912658691e+00,1.606151342391967773e+00,1.606019020080566406e+00,1.605886578559875488e+00,1.605754494667053223e+00,1.605622172355651855e+00,1.605489850044250488e+00,1.605357527732849121e+00,1.605225324630737305e+00,1.605093240737915039e+00,1.604961037635803223e+00,1.604828834533691406e+00,1.604696750640869141e+00,1.604564666748046875e+00,1.604432582855224609e+00,1.604300498962402344e+00,1.604168415069580078e+00,1.604036331176757812e+00,1.603904485702514648e+00,1.603772521018981934e+00,1.603640437126159668e+00,1.603508472442626953e+00,1.603376626968383789e+00,1.603244781494140625e+00,1.603112936019897461e+00,1.602980971336364746e+00,1.602849125862121582e+00,1.602717518806457520e+00,1.602585673332214355e+00,1.602453827857971191e+00,1.602322101593017578e+00,1.602190375328063965e+00,1.602058768272399902e+00,1.601927042007446289e+00,1.601795434951782227e+00,1.601663708686828613e+00,1.601532220840454102e+00,1.601400613784790039e+00,1.601269006729125977e+00,1.601137518882751465e+00,1.601005792617797852e+00,1.600874185562133789e+00,1.600742816925048828e+00,1.600611448287963867e+00,1.600479960441589355e+00,1.600348472595214844e+00,1.600217223167419434e+00,1.600085854530334473e+00,1.599954366683959961e+00,1.599823117256164551e+00,1.599691867828369141e+00,1.599560499191284180e+00,1.599429249763488770e+00,1.599298119544982910e+00,1.599166870117187500e+00,1.599035620689392090e+00,1.598904371261596680e+00,1.598773360252380371e+00,1.598642230033874512e+00,1.598511099815368652e+00,1.598379969596862793e+00,1.598248958587646484e+00,1.598117947578430176e+00,1.597986817359924316e+00,1.597855806350708008e+00,1.597725033760070801e+00,1.597594022750854492e+00,1.597463011741638184e+00
1.467366576194763184e+00,1.467256188392639160e+00,1.467145681381225586e+00,1.467035293579101562e+00,1.466924786567687988e+00,1.466814398765563965e+00,1.466704130172729492e+00,1.466593742370605469e+00,1.466483354568481445e+00,1.466372966766357422e+00,1.466262817382812500e+00,1.466152429580688477e+00,1.466042160987854004e+00,1.465931892395019531e+00,1.465821623802185059e+00,1.465711474418640137e+00,1.465601205825805664e+00,1.465490937232971191e+00,1.465380787849426270e+00,1.465270519256591797e+00,1.465160489082336426e+00,1.465050339698791504e+00,1.464940190315246582e+00,1.464830040931701660e+00,1.464720129966735840e+00,1.464609980583190918e+00,1.464499950408935547e+00,1.464389920234680176e+00,1.464279770851135254e+00,1.464169979095458984e+00,1.464059948921203613e+00,1.463949918746948242e+00,1.463839888572692871e+00,1.463730096817016602e+00,1.463620185852050781e+00,1.463510274887084961e+00,1.463400363922119141e+00,1.463290452957153320e+00,1.463180661201477051e+00,1.463070750236511230e+00,1.462960958480834961e+00,1.462851166725158691e+00,1.462741374969482422e+00,1.462631702423095703e+00,1.462521910667419434e+00,1.462412118911743164e+00,1.462302327156066895e+00,1.462192773818969727e+00,1.462083101272583008e+00,1.461973428726196289e+00,1.461863636970520020e+00,1.461754083633422852e+00,1.461644530296325684e+00,1.461534857749938965e+00,1.461425304412841797e+00,1.461315631866455078e+00,1.461206078529357910e+00,1.461096405982971191e+00,1.460986971855163574e+00,1.460877418518066406e+00,1.460767984390258789e+00,1.460658431053161621e+00,1.460549116134643555e+00,1.460439562797546387e+00,1.460330128669738770e+00,1.460220694541931152e+00,1.460111379623413086e+00,1.460002064704895020e+00,1.459892630577087402e+00,1.459783315658569336e+00,1.459674000740051270e+00,1.459564685821533203e+00,1.459455370903015137e+00,1.459346055984497070e+00,1.459236979484558105e+00,1.459127664566040039e+00,1.459018468856811523e+00,1.458909153938293457e+00,1.458800077438354492e+00,1.458690881729125977e+00
1.349442839622497559e+00,1.349349498748779297e+00,1.349256038665771484e+00,1.349162578582763672e+00,1.349069237709045410e+00,1.348975896835327148e+00,1.348882555961608887e+00,1.348789095878601074e+00,1.348695755004882812e+00,1.348602533340454102e+00,1.348509192466735840e+00,1.348415851593017578e+00,1.348322629928588867e+00,1.348229289054870605e+00,1.348136186599731445e+00,1.348042845726013184e+00,1.347949624061584473e+00,1.347856402397155762e+00,1.347763299942016602e+00,1.347670078277587891e+00,1.347576856613159180e+00,1.347483634948730469e+00,1.347390532493591309e+00,1.347297430038452148e+00,1.347204327583312988e+00,1.347111225128173828e+00,1.347018122673034668e+00,1.346925020217895508e+00,1.346831917762756348e+00,1.346738934516906738e+00,1.346645832061767578e+00,1.346552729606628418e+00,1.346459865570068359e+00,1.346366763114929199e+00,1.346273779869079590e+00,1.346180796623229980e+00,1.346087813377380371e+00,1.345994949340820312e+00,1.345901966094970703e+00,1.345808982849121094e+00,1.345715999603271484e+00,1.345623254776000977e+00,1.345530271530151367e+00,1.345437407493591309e+00,1.345344424247741699e+00,1.345251560211181641e+00,1.345158815383911133e+00,1.345065951347351074e+00,1.344973087310791016e+00,1.344880342483520508e+00,1.344787478446960449e+00,1.344694852828979492e+00,1.344601988792419434e+00,1.344509243965148926e+00,1.344416499137878418e+00,1.344323873519897461e+00,1.344231128692626953e+00,1.344138383865356445e+00,1.344045639038085938e+00,1.343952894210815430e+00,1.343860387802124023e+00,1.343767523765563965e+00,1.343674898147583008e+00,1.343582272529602051e+00,1.343489646911621094e+00,1.343397021293640137e+00,1.343304514884948730e+00,1.343211889266967773e+00,1.343119263648986816e+00,1.343026757240295410e+00,1.342934250831604004e+00,1.342841744422912598e+00,1.342749238014221191e+00,1.342656731605529785e+00,1.342564225196838379e+00,1.342471718788146973e+00,1.342379331588745117e+00,1.342286825180053711e+00,1.342194437980651855e+00,1.342102050781250000e+00
1.249062895774841309e+00,1.248982906341552734e+00,1.248902797698974609e+00,1.248822808265686035e+00,1.248742818832397461e+00,1.248662829399108887e+00,1.248582839965820312e+00,1.248502850532531738e+00,1.248422980308532715e+00,1.248342990875244141e+00,1.248263001441955566e+00,1.248183012008666992e+00,1.248103022575378418e+00,1.248023271560668945e+00,1.247943282127380371e+00,1.247863411903381348e+00,1.247783422470092773e+00,1.247703671455383301e+00,1.247623801231384277e+00,1.247543931007385254e+00,1.247464060783386230e+00,1.247384190559387207e+00,1.247304439544677734e+00,1.247224569320678711e+00,1.247144699096679688e+00,1.247064948081970215e+00,1.246985197067260742e+00,1.246905446052551270e+00,1.246825695037841797e+00,1.246745824813842773e+00,1.246666073799133301e+00,1.246586441993713379e+00,1.246506690979003906e+00,1.246426939964294434e+00,1.246347188949584961e+00,1.246267557144165039e+00,1.246187925338745117e+00,1.246108174324035645e+00,1.246028542518615723e+00,1.245948910713195801e+00,1.245869278907775879e+00,1.245789647102355957e+00,1.245710015296936035e+00,1.245630383491516113e+00,1.245550751686096191e+00,1.245471239089965820e+00,1.245391607284545898e+00,1.245311975479125977e+00,1.245232462882995605e+00,1.245152831077575684e+00,1.245073437690734863e+00,1.244993805885314941e+00,1.244914293289184570e+00,1.244834780693054199e+00,1.244755387306213379e+00,1.244675874710083008e+00,1.244596362113952637e+00,1.244516849517822266e+00,1.244437336921691895e+00,1.244357943534851074e+00,1.244278550148010254e+00,1.244199037551879883e+00,1.244119644165039062e+00,1.244040250778198242e+00,1.243960857391357422e+00,1.243881464004516602e+00,1.243801951408386230e+00,1.243722558021545410e+00,1.243643283843994141e+00,1.243563890457153320e+00,1.243484616279602051e+00,1.243405222892761230e+00,1.243325948715209961e+00,1.243246555328369141e+00,1.243167400360107422e+00,1.243088006973266602e+00,1.243008732795715332e+00,1.242929458618164062e+00,1.242850303649902344e+00,1.242771029472351074e+00
1.162582874298095703e+00,1.162513494491577148e+00,1.162444233894348145e+00,1.162374854087829590e+00,1.162305474281311035e+00,1.162236213684082031e+00,1.162166833877563477e+00,1.162097692489624023e+00,1.162028312683105469e+00,1.161959052085876465e+00,1.161889791488647461e+00,1.161820530891418457e+00,1.161751270294189453e+00,1.161682009696960449e+00,1.161612749099731445e+00,1.161543488502502441e+00,1.161474347114562988e+00,1.161405205726623535e+00,1.161335945129394531e+00,1.161266684532165527e+00,1.161197543144226074e+00,1.161128401756286621e+00,1.161059260368347168e+00,1.160989999771118164e+00,1.160920858383178711e+00,1.160851836204528809e+00,1.160782694816589355e+00,1.160713434219360352e+00,1.160644412040710449e+00,1.160575270652770996e+00,1.160506129264831543e+00,1.160437107086181641e+00,1.160367965698242188e+00,1.160298824310302734e+00,1.160229802131652832e+00,1.160160779953002930e+00,1.160091757774353027e+00,1.160022616386413574e+00,1.159953594207763672e+00,1.159884572029113770e+00,1.159815549850463867e+00,1.159746527671813965e+00,1.159677505493164062e+00,1.159608483314514160e+00,1.159539580345153809e+00,1.159470558166503906e+00,1.159401655197143555e+00,1.159332633018493652e+00,1.159263730049133301e+00,1.159194707870483398e+00,1.159125804901123047e+00,1.159056901931762695e+00,1.158987879753112793e+00,1.158919095993041992e+00,1.158850073814392090e+00,1.158781170845031738e+00,1.158712267875671387e+00,1.158643364906311035e+00,1.158574581146240234e+00,1.158505678176879883e+00,1.158436894416809082e+00,1.158367991447448730e+00,1.158299207687377930e+00,1.158230423927307129e+00,1.158161520957946777e+00,1.158092737197875977e+00,1.158023834228515625e+00,1.157955169677734375e+00,1.157886385917663574e+00,1.157817482948303223e+00,1.157748699188232422e+00,1.157679915428161621e+00,1.157611131668090820e+00,1.157542347908020020e+00,1.157473683357238770e+00,1.157404899597167969e+00,1.157336115837097168e+00,1.157267451286315918e+00,1.157198786735534668e+00,1.157130122184753418e+00
1.087302327156066895e+00,1.087241768836975098e+00,1.087181091308593750e+00,1.087120413780212402e+00,1.087059736251831055e+00,1.086999058723449707e+00,1.086938500404357910e+00,1.086877942085266113e+00,1.086817264556884766e+00,1.086756706237792969e+00,1.086696147918701172e+00,1.086635589599609375e+00,1.086574912071228027e+00,1.086514353752136230e+00,1.086453795433044434e+00,1.086393237113952637e+00,1.086332678794860840e+00,1.086272120475769043e+00,1.086211562156677246e+00,1.086151123046875000e+00,1.086090564727783203e+00,1.086030006408691406e+00,1.085969567298889160e+00,1.085909008979797363e+00,1.085848569869995117e+00,1.085788130760192871e+00,1.085727572441101074e+00,1.085667133331298828e+00,1.085606575012207031e+00,1.085546135902404785e+00,1.085485696792602539e+00,1.085425257682800293e+00,1.085364818572998047e+00,1.085304379463195801e+00,1.085243940353393555e+00,1.085183501243591309e+00,1.085123062133789062e+00,1.085062742233276367e+00,1.085002303123474121e+00,1.084941983222961426e+00,1.084881544113159180e+00,1.084821105003356934e+00,1.084760785102844238e+00,1.084700345993041992e+00,1.084640026092529297e+00,1.084579706192016602e+00,1.084519267082214355e+00,1.084458947181701660e+00,1.084398627281188965e+00,1.084338307380676270e+00,1.084277987480163574e+00,1.084217667579650879e+00,1.084157347679138184e+00,1.084097027778625488e+00,1.084036707878112793e+00,1.083976507186889648e+00,1.083916187286376953e+00,1.083855986595153809e+00,1.083795666694641113e+00,1.083735346794128418e+00,1.083675146102905273e+00,1.083614945411682129e+00,1.083554625511169434e+00,1.083494424819946289e+00,1.083434224128723145e+00,1.083373904228210449e+00,1.083313822746276855e+00,1.083253502845764160e+00,1.083193302154541016e+00,1.083133101463317871e+00,1.083073019981384277e+00,1.083012819290161133e+00,1.082952618598937988e+00,1.082892417907714844e+00,1.082832217216491699e+00,1.082772016525268555e+00,1.082711815834045410e+00,1.082651615142822266e+00,1.082591533660888672e+00,1.082531452178955078e+00
1.021178245544433594e+00,1.021124720573425293e+00,1.021071195602416992e+00,1.021017670631408691e+00,1.020964264869689941e+00,1.020910739898681641e+00,1.020857334136962891e+00,1.020803809165954590e+00,1.020750403404235840e+00,1.020696997642517090e+00,1.020643472671508789e+00,1.020590066909790039e+00,1.020536541938781738e+00,1.020483136177062988e+00,1.020429730415344238e+00,1.020376324653625488e+00,1.020322918891906738e+00,1.020269513130187988e+00,1.020216107368469238e+00,1.020162701606750488e+00,1.020109295845031738e+00,1.020055890083312988e+00,1.020002484321594238e+00,1.019949197769165039e+00,1.019895792007446289e+00,1.019842386245727539e+00,1.019788980484008789e+00,1.019735693931579590e+00,1.019682407379150391e+00,1.019629001617431641e+00,1.019575595855712891e+00,1.019522309303283691e+00,1.019469022750854492e+00,1.019415736198425293e+00,1.019362330436706543e+00,1.019309043884277344e+00,1.019255757331848145e+00,1.019202470779418945e+00,1.019149184226989746e+00,1.019095897674560547e+00,1.019042611122131348e+00,1.018989324569702148e+00,1.018936038017272949e+00,1.018882751464843750e+00,1.018829464912414551e+00,1.018776297569274902e+00,1.018723011016845703e+00,1.018669724464416504e+00,1.018616557121276855e+00,1.018563270568847656e+00,1.018510103225708008e+00,1.018456935882568359e+00,1.018403649330139160e+00,1.018350481986999512e+00,1.018297195434570312e+00,1.018244028091430664e+00,1.018190860748291016e+00,1.018137693405151367e+00,1.018084406852722168e+00,1.018031239509582520e+00,1.017978191375732422e+00,1.017924904823303223e+00,1.017871737480163574e+00,1.017818570137023926e+00,1.017765522003173828e+00,1.017712354660034180e+00,1.017659187316894531e+00,1.017606019973754883e+00,1.017552971839904785e+00,1.017499804496765137e+00,1.017446756362915039e+00,1.017393589019775391e+00,1.017340540885925293e+00,1.017287373542785645e+00,1.017234325408935547e+00,1.017181277275085449e+00,1.017128109931945801e+00,1.017075061798095703e+00,1.017022013664245605e+00,1.016968965530395508e+00
9.626357555389404297e-01,9.625881314277648926e-01,9.625406265258789062e-01,9.624931812286376953e-01,9.624455571174621582e-01,9.623980522155761719e-01,9.623504877090454102e-01,9.623029828071594238e-01,9.622555375099182129e-01,9.622079730033874512e-01,9.621605277061462402e-01,9.621129631996154785e-01,9.620655179023742676e-01,9.620180726051330566e-01,9.619705080986022949e-01,9.619231224060058594e-01,9.618755578994750977e-01,9.618281126022338867e-01,9.617807269096374512e-01,9.617331624031066895e-01,9.616857767105102539e-01,9.616382718086242676e-01,9.615908861160278320e-01,9.615435004234313965e-01,9.614959955215454102e-01,9.614486098289489746e-01,9.614012241363525391e-01,9.613537192344665527e-01,9.613063335418701172e-01,9.612588882446289062e-01,9.612115025520324707e-01,9.611641168594360352e-01,9.611166715621948242e-01,9.610693454742431641e-01,9.610219001770019531e-01,9.609745740890502930e-01,9.609271883964538574e-01,9.608797430992126465e-01,9.608324170112609863e-01,9.607850313186645508e-01,9.607377052307128906e-01,9.606903791427612305e-01,9.606429934501647949e-01,9.605956673622131348e-01,9.605482816696166992e-01,9.605009555816650391e-01,9.604536890983581543e-01,9.604063034057617188e-01,9.603590369224548340e-01,9.603116512298583984e-01,9.602643251419067383e-01,9.602170586585998535e-01,9.601697325706481934e-01,9.601224660873413086e-01,9.600751996040344238e-01,9.600278735160827637e-01,9.599806070327758789e-01,9.599332809448242188e-01,9.598860144615173340e-01,9.598388075828552246e-01,9.597914814949035645e-01,9.597442746162414551e-01,9.596969485282897949e-01,9.596497416496276855e-01,9.596025347709655762e-01,9.595552086830139160e-01,9.595080018043518066e-01,9.594607353210449219e-01,9.594135284423828125e-01,9.593663215637207031e-01,9.593190550804138184e-01,9.592718482017517090e-01,9.592245817184448242e-01,9.591774344444274902e-01,9.591302871704101562e-01,9.590830206871032715e-01,9.590358734130859375e-01,9.589887261390686035e-01,9.589414596557617188e-01,9.588943123817443848e-01
9.104415178298950195e-01,9.103989601135253906e-01,9.103564620018005371e-01,9.103139638900756836e-01,9.102714061737060547e-01,9.102289080619812012e-01,9.101863503456115723e-01,9.101439118385314941e-01,9.101014733314514160e-01,9.100589156150817871e-01,9.100164175033569336e-01,9.099739789962768555e-01,9.099314808845520020e-01,9.098889827728271484e-01,9.098464846611022949e-01,9.098040461540222168e-01,9.097616076469421387e-01,9.097191095352172852e-01,9.096766710281372070e-01,9.096341729164123535e-01,9.095917344093322754e-01,9.095493555068969727e-01,9.095068573951721191e-01,9.094644188880920410e-01,9.094219207763671875e-01,9.093795418739318848e-01,9.093371629714965820e-01,9.092946648597717285e-01,9.092522859573364258e-01,9.092098474502563477e-01,9.091674685478210449e-01,9.091250896453857422e-01,9.090825915336608887e-01,9.090402722358703613e-01,9.089977741241455078e-01,9.089554548263549805e-01,9.089130759239196777e-01,9.088706374168395996e-01,9.088283181190490723e-01,9.087859988212585449e-01,9.087435603141784668e-01,9.087012410163879395e-01,9.086588025093078613e-01,9.086164832115173340e-01,9.085741639137268066e-01,9.085317254066467285e-01,9.084894061088562012e-01,9.084470272064208984e-01,9.084047079086303711e-01,9.083624482154846191e-01,9.083200097084045410e-01,9.082777500152587891e-01,9.082353711128234863e-01,9.081931114196777344e-01,9.081507921218872070e-01,9.081084132194519043e-01,9.080661535263061523e-01,9.080237746238708496e-01,9.079815149307250977e-01,9.079392552375793457e-01,9.078969359397888184e-01,9.078546762466430664e-01,9.078124165534973145e-01,9.077700972557067871e-01,9.077278375625610352e-01,9.076855182647705078e-01,9.076432585716247559e-01,9.076010584831237793e-01,9.075587391853332520e-01,9.075165390968322754e-01,9.074742197990417480e-01,9.074320197105407715e-01,9.073898196220397949e-01,9.073475003242492676e-01,9.073053002357482910e-01,9.072629809379577637e-01,9.072207808494567871e-01,9.071786403656005859e-01,9.071363210678100586e-01,9.070941805839538574e-01
8.636161684989929199e-01,8.635779619216918945e-01,8.635396361351013184e-01,8.635014295578002930e-01,8.634631037712097168e-01,8.634248971939086914e-01,8.633866906166076660e-01,8.633483648300170898e-01,8.633101582527160645e-01,8.632718920707702637e-01,8.632336854934692383e-01,8.631954789161682129e-01,8.631572127342224121e-01,8.631190061569213867e-01,8.630807399749755859e-01,8.630425333976745605e-01,8.630043864250183105e-01,8.629661202430725098e-01,8.629279732704162598e-01,8.628897070884704590e-01,8.628515005111694336e-01,8.628133535385131836e-01,8.627750873565673828e-01,8.627369403839111328e-01,8.626987934112548828e-01,8.626605868339538574e-01,8.626224398612976074e-01,8.625841736793518066e-01,8.625460267066955566e-01,8.625079393386840820e-01,8.624696731567382812e-01,8.624315857887268066e-01,8.623933792114257812e-01,8.623552322387695312e-01,8.623170852661132812e-01,8.622789382934570312e-01,8.622407913208007812e-01,8.622025847434997559e-01,8.621644973754882812e-01,8.621264100074768066e-01,8.620882034301757812e-01,8.620501160621643066e-01,8.620119094848632812e-01,8.619738221168518066e-01,8.619357943534851074e-01,8.618975877761840820e-01,8.618595004081726074e-01,8.618214130401611328e-01,8.617832660675048828e-01,8.617452383041381836e-01,8.617070913314819336e-01,8.616690039634704590e-01,8.616309165954589844e-01,8.615927696228027344e-01,8.615547418594360352e-01,8.615165948867797852e-01,8.614785671234130859e-01,8.614405393600463867e-01,8.614023923873901367e-01,8.613643646240234375e-01,8.613262772560119629e-01,8.612882494926452637e-01,8.612502217292785645e-01,8.612120747566223145e-01,8.611740469932556152e-01,8.611359596252441406e-01,8.610979318618774414e-01,8.610599637031555176e-01,8.610218763351440430e-01,8.609838485717773438e-01,8.609458804130554199e-01,8.609077930450439453e-01,8.608697652816772461e-01,8.608317375183105469e-01,8.607937097549438477e-01,8.607557415962219238e-01,8.607177138328552246e-01,8.606796860694885254e-01,8.606416583061218262e-01,8.606036901473999023e-01
8.213717937469482422e-01,8.213372230529785156e-01,8.213025927543640137e-01,8.212680220603942871e-01,8.212334513664245605e-01,8.211987614631652832e-01,8.211641907691955566e-01,8.211295604705810547e-01,8.210949897766113281e-01,8.210604786872863770e-01,8.210258483886718750e-01,8.209912776947021484e-01,8.209566473960876465e-01,8.209220767021179199e-01,8.208875656127929688e-01,8.208529353141784668e-01,8.208183646202087402e-01,8.207837939262390137e-01,8.207492232322692871e-01,8.207147121429443359e-01,8.206801414489746094e-01,8.206455707550048828e-01,8.206110000610351562e-01,8.205764889717102051e-01,8.205419778823852539e-01,8.205074071884155273e-01,8.204728960990905762e-01,8.204382658004760742e-01,8.204037547111511230e-01,8.203693032264709473e-01,8.203347325325012207e-01,8.203002214431762695e-01,8.202657103538513184e-01,8.202311396598815918e-01,8.201966881752014160e-01,8.201621174812316895e-01,8.201276063919067383e-01,8.200931549072265625e-01,8.200585842132568359e-01,8.200241327285766602e-01,8.199895620346069336e-01,8.199551105499267578e-01,8.199206590652465820e-01,8.198860883712768555e-01,8.198516368865966797e-01,8.198171257972717285e-01,8.197826743125915527e-01,8.197482228279113770e-01,8.197137117385864258e-01,8.196792602539062500e-01,8.196447491645812988e-01,8.196102976799011230e-01,8.195758461952209473e-01,8.195413351058959961e-01,8.195069432258605957e-01,8.194724917411804199e-01,8.194379806518554688e-01,8.194035887718200684e-01,8.193690776824951172e-01,8.193346858024597168e-01,8.193002939224243164e-01,8.192657828330993652e-01,8.192313909530639648e-01,8.191968798637390137e-01,8.191624879837036133e-01,8.191280961036682129e-01,8.190936446189880371e-01,8.190592527389526367e-01,8.190247416496276855e-01,8.189904093742370605e-01,8.189560174942016602e-01,8.189215660095214844e-01,8.188871741294860840e-01,8.188527226448059082e-01,8.188183307647705078e-01,8.187839984893798828e-01,8.187495470046997070e-01,8.187151551246643066e-01,8.186807632446289062e-01,8.186463713645935059e-01
7.830675840377807617e-01,7.830361127853393555e-01,7.830046415328979492e-01,7.829732298851013184e-01,7.829417586326599121e-01,7.829102873802185059e-01,7.828788757324218750e-01,7.828474044799804688e-01,7.828159928321838379e-01,7.827845811843872070e-01,7.827530503273010254e-01,7.827216386795043945e-01,7.826901674270629883e-01,7.826588153839111328e-01,7.826274037361145020e-01,7.825959324836730957e-01,7.825645208358764648e-01,7.825331091880798340e-01,7.825016975402832031e-01,7.824702858924865723e-01,7.824388146400451660e-01,7.824074625968933105e-01,7.823760509490966797e-01,7.823446393013000488e-01,7.823132276535034180e-01,7.822818160057067871e-01,7.822504639625549316e-01,7.822190523147583008e-01,7.821876406669616699e-01,7.821562886238098145e-01,7.821248173713684082e-01,7.820934653282165527e-01,7.820621132850646973e-01,7.820307016372680664e-01,7.819993495941162109e-01,7.819679379463195801e-01,7.819365859031677246e-01,7.819052338600158691e-01,7.818738222122192383e-01,7.818425297737121582e-01,7.818111777305603027e-01,7.817797660827636719e-01,7.817484736442565918e-01,7.817170619964599609e-01,7.816857099533081055e-01,7.816544175148010254e-01,7.816230058670043945e-01,7.815917134284973145e-01,7.815603017807006836e-01,7.815290093421936035e-01,7.814977169036865234e-01,7.814663052558898926e-01,7.814350128173828125e-01,7.814036607742309570e-01,7.813723683357238770e-01,7.813410162925720215e-01,7.813096642494201660e-01,7.812783718109130859e-01,7.812470197677612305e-01,7.812157273292541504e-01,7.811844348907470703e-01,7.811530828475952148e-01,7.811218500137329102e-01,7.810905575752258301e-01,7.810592055320739746e-01,7.810279130935668945e-01,7.809966206550598145e-01,7.809653282165527344e-01,7.809340953826904297e-01,7.809027433395385742e-01,7.808714509010314941e-01,7.808401584625244141e-01,7.808088660240173340e-01,7.807776331901550293e-01,7.807463407516479492e-01,7.807150483131408691e-01,7.806837558746337891e-01,7.806525230407714844e-01,7.806212902069091797e-01,7.805899977684020996e-01
7.481766939163208008e-01,7.481480240821838379e-01,7.481193542480468750e-01,7.480905652046203613e-01,7.480618953704833984e-01,7.480331063270568848e-01,7.480044364929199219e-01,7.479757666587829590e-01,7.479470372200012207e-01,7.479183673858642578e-01,7.478896379470825195e-01,7.478609681129455566e-01,7.478322982788085938e-01,7.478035688400268555e-01,7.477748990058898926e-01,7.477461695671081543e-01,7.477174997329711914e-01,7.476888298988342285e-01,7.476601004600524902e-01,7.476314306259155273e-01,7.476027607917785645e-01,7.475740909576416016e-01,7.475454211235046387e-01,7.475167512893676758e-01,7.474880814552307129e-01,7.474594712257385254e-01,7.474307417869567871e-01,7.474021315574645996e-01,7.473734021186828613e-01,7.473447918891906738e-01,7.473161220550537109e-01,7.472874522209167480e-01,7.472588419914245605e-01,7.472301721572875977e-01,7.472015023231506348e-01,7.471728920936584473e-01,7.471442222595214844e-01,7.471156120300292969e-01,7.470869421958923340e-01,7.470583319664001465e-01,7.470297217369079590e-01,7.470010519027709961e-01,7.469724416732788086e-01,7.469437718391418457e-01,7.469151616096496582e-01,7.468865513801574707e-01,7.468579411506652832e-01,7.468293309211730957e-01,7.468007206916809082e-01,7.467721104621887207e-01,7.467435002326965332e-01,7.467148303985595703e-01,7.466862797737121582e-01,7.466576695442199707e-01,7.466290593147277832e-01,7.466004490852355957e-01,7.465718388557434082e-01,7.465432882308959961e-01,7.465146780014038086e-01,7.464860677719116211e-01,7.464575171470642090e-01,7.464288473129272461e-01,7.464002966880798340e-01,7.463717460632324219e-01,7.463431358337402344e-01,7.463145852088928223e-01,7.462859749794006348e-01,7.462574243545532227e-01,7.462288737297058105e-01,7.462002635002136230e-01,7.461717128753662109e-01,7.461431026458740234e-01,7.461145520210266113e-01,7.460860610008239746e-01,7.460574507713317871e-01,7.460289001464843750e-01,7.460004091262817383e-01,7.459717988967895508e-01,7.459432482719421387e-01,7.459146976470947266e-01
7.162624597549438477e-01,7.162361741065979004e-01,7.162098884582519531e-01,7.161834836006164551e-01,7.161571979522705078e-01,7.161308526992797852e-01,7.161045670509338379e-01,7.160782814025878906e-01,7.160519361495971680e-01,7.160256505012512207e-01,7.159993648529052734e-01,7.159730792045593262e-01,7.159467935562133789e-01,7.159204483032226562e-01,7.158941626548767090e-01,7.158678770065307617e-01,7.158415913581848145e-01,7.158153057098388672e-01,7.157889604568481445e-01,7.157627344131469727e-01,7.157364487648010254e-01,7.157101631164550781e-01,7.156838774681091309e-01,7.156575918197631836e-01,7.156313061714172363e-01,7.156050801277160645e-01,7.155787348747253418e-01,7.155525088310241699e-01,7.155262231826782227e-01,7.154999375343322754e-01,7.154737114906311035e-01,7.154474258422851562e-01,7.154211997985839844e-01,7.153949737548828125e-01,7.153686285018920898e-01,7.153424024581909180e-01,7.153161168098449707e-01,7.152898907661437988e-01,7.152636647224426270e-01,7.152373790740966797e-01,7.152111530303955078e-01,7.151848673820495605e-01,7.151587009429931641e-01,7.151324748992919922e-01,7.151061892509460449e-01,7.150799632072448730e-01,7.150536775588989258e-01,7.150275111198425293e-01,7.150012850761413574e-01,7.149749994277954102e-01,7.149488329887390137e-01,7.149225473403930664e-01,7.148963809013366699e-01,7.148701548576354980e-01,7.148439288139343262e-01,7.148177027702331543e-01,7.147914767265319824e-01,7.147652506828308105e-01,7.147390842437744141e-01,7.147128582000732422e-01,7.146866321563720703e-01,7.146604657173156738e-01,7.146342396736145020e-01,7.146080732345581055e-01,7.145818471908569336e-01,7.145556211471557617e-01,7.145294547080993652e-01,7.145032286643981934e-01,7.144770622253417969e-01,7.144508361816406250e-01,7.144246697425842285e-01,7.143985033035278320e-01,7.143722772598266602e-01,7.143461704254150391e-01,7.143199443817138672e-01,7.142937779426574707e-01,7.142676115036010742e-01,7.142413854598999023e-01,7.142152786254882812e-01,7.141890525817871094e-01
6.869595646858215332e-01,6.869353055953979492e-01,6.869111061096191406e-01,6.868869066238403320e-01,6.868627071380615234e-01,6.868385076522827148e-01,6.868143081665039062e-01,6.867901086807250977e-01,6.867658495903015137e-01,6.867417097091674805e-01,6.867175102233886719e-01,6.866933107376098633e-01,6.866691112518310547e-01,6.866449117660522461e-01,6.866207122802734375e-01,6.865965723991394043e-01,6.865723133087158203e-01,6.865481734275817871e-01,6.865240335464477539e-01,6.864997744560241699e-01,6.864756345748901367e-01,6.864514350891113281e-01,6.864272952079772949e-01,6.864031553268432617e-01,6.863788962364196777e-01,6.863547563552856445e-01,6.863305568695068359e-01,6.863064169883728027e-01,6.862822771072387695e-01,6.862580776214599609e-01,6.862339377403259277e-01,6.862097382545471191e-01,6.861855983734130859e-01,6.861614584922790527e-01,6.861372590065002441e-01,6.861131787300109863e-01,6.860889792442321777e-01,6.860648393630981445e-01,6.860406994819641113e-01,6.860165596008300781e-01,6.859924197196960449e-01,6.859682798385620117e-01,6.859441399574279785e-01,6.859200000762939453e-01,6.858958005905151367e-01,6.858717203140258789e-01,6.858475804328918457e-01,6.858234405517578125e-01,6.857993006706237793e-01,6.857751607894897461e-01,6.857510209083557129e-01,6.857269406318664551e-01,6.857028007507324219e-01,6.856786608695983887e-01,6.856545209884643555e-01,6.856304407119750977e-01,6.856063604354858398e-01,6.855821609497070312e-01,6.855580806732177734e-01,6.855339407920837402e-01,6.855098605155944824e-01,6.854857802391052246e-01,6.854616403579711914e-01,6.854375600814819336e-01,6.854134202003479004e-01,6.853893399238586426e-01,6.853652596473693848e-01,6.853411197662353516e-01,6.853170394897460938e-01,6.852929592132568359e-01,6.852688193321228027e-01,6.852447390556335449e-01,6.852206587791442871e-01,6.851965785026550293e-01,6.851724982261657715e-01,6.851483583450317383e-01,6.851243376731872559e-01,6.851001977920532227e-01,6.850761771202087402e-01,6.850520968437194824e-01
6.599599719047546387e-01,6.599376201629638672e-01,6.599152684211730957e-01,6.598929762840270996e-01,6.598705649375915527e-01,6.598482728004455566e-01,6.598259210586547852e-01,6.598035693168640137e-01,6.597812771797180176e-01,6.597589254379272461e-01,6.597365736961364746e-01,6.597142219543457031e-01,6.596919298171997070e-01,6.596696376800537109e-01,6.596472859382629395e-01,6.596249341964721680e-01,6.596025824546813965e-01,6.595802903175354004e-01,6.595579981803894043e-01,6.595356464385986328e-01,6.595133543014526367e-01,6.594910025596618652e-01,6.594687104225158691e-01,6.594464182853698730e-01,6.594240665435791016e-01,6.594017744064331055e-01,6.593794822692871094e-01,6.593571901321411133e-01,6.593348979949951172e-01,6.593125462532043457e-01,6.592902541160583496e-01,6.592679619789123535e-01,6.592456698417663574e-01,6.592233777046203613e-01,6.592010259628295898e-01,6.591787934303283691e-01,6.591565012931823730e-01,6.591342091560363770e-01,6.591119170188903809e-01,6.590895652770996094e-01,6.590673327445983887e-01,6.590450406074523926e-01,6.590227484703063965e-01,6.590004563331604004e-01,6.589781641960144043e-01,6.589559316635131836e-01,6.589336395263671875e-01,6.589113473892211914e-01,6.588891148567199707e-01,6.588667631149291992e-01,6.588445305824279785e-01,6.588222980499267578e-01,6.588000059127807617e-01,6.587777137756347656e-01,6.587554812431335449e-01,6.587331891059875488e-01,6.587109565734863281e-01,6.586886644363403320e-01,6.586664319038391113e-01,6.586441993713378906e-01,6.586219072341918945e-01,6.585996747016906738e-01,6.585773825645446777e-01,6.585551500320434570e-01,6.585329174995422363e-01,6.585106253623962402e-01,6.584883928298950195e-01,6.584661006927490234e-01,6.584439277648925781e-01,6.584216952323913574e-01,6.583994030952453613e-01,6.583771705627441406e-01,6.583549380302429199e-01,6.583327054977416992e-01,6.583104729652404785e-01,6.582882404327392578e-01,6.582660079002380371e-01,6.582437753677368164e-01,6.582215428352355957e-01,6.581993103027343750e-01
6.350024342536926270e-01,6.349817514419555664e-01,6.349610686302185059e-01,6.349403858184814453e-01,6.349197030067443848e-01,6.348990201950073242e-01,6.348783373832702637e-01,6.348576545715332031e-01,6.348370313644409180e-01,6.348162889480590820e-01,6.347956657409667969e-01,6.347749829292297363e-01,6.347543001174926758e-01,6.347336173057556152e-01,6.347129344940185547e-01,6.346923112869262695e-01,6.346716284751892090e-01,6.346509456634521484e-01,6.346303224563598633e-01,6.346095800399780273e-01,6.345889568328857422e-01,6.345683336257934570e-01,6.345476508140563965e-01,6.345269680023193359e-01,6.345062851905822754e-01,6.344856619834899902e-01,6.344650387763977051e-01,6.344443559646606445e-01,6.344237327575683594e-01,6.344030499458312988e-01,6.343824267387390137e-01,6.343618035316467285e-01,6.343411207199096680e-01,6.343204975128173828e-01,6.342998147010803223e-01,6.342791914939880371e-01,6.342585682868957520e-01,6.342378854751586914e-01,6.342172622680664062e-01,6.341966390609741211e-01,6.341760158538818359e-01,6.341553926467895508e-01,6.341347098350524902e-01,6.341140866279602051e-01,6.340935230255126953e-01,6.340728402137756348e-01,6.340522170066833496e-01,6.340315937995910645e-01,6.340109705924987793e-01,6.339903473854064941e-01,6.339697241783142090e-01,6.339491009712219238e-01,6.339284777641296387e-01,6.339078545570373535e-01,6.338872909545898438e-01,6.338666081428527832e-01,6.338460445404052734e-01,6.338253617286682129e-01,6.338047981262207031e-01,6.337842345237731934e-01,6.337635517120361328e-01,6.337429881095886230e-01,6.337224245071411133e-01,6.337017416954040527e-01,6.336811780929565430e-01,6.336605548858642578e-01,6.336399316787719727e-01,6.336193680763244629e-01,6.335987448692321777e-01,6.335781812667846680e-01,6.335575580596923828e-01,6.335369944572448730e-01,6.335163712501525879e-01,6.334958076477050781e-01,6.334751844406127930e-01,6.334546208381652832e-01,6.334339976310729980e-01,6.334134340286254883e-01,6.333928704261779785e-01,6.333723068237304688e-01
6.118637919425964355e-01,6.118445992469787598e-01,6.118254065513610840e-01,6.118062138557434082e-01,6.117869615554809570e-01,6.117677688598632812e-01,6.117485761642456055e-01,6.117293834686279297e-01,6.117101907730102539e-01,6.116909980773925781e-01,6.116718053817749023e-01,6.116526126861572266e-01,6.116334199905395508e-01,6.116142272949218750e-01,6.115949749946594238e-01,6.115758419036865234e-01,6.115566492080688477e-01,6.115374565124511719e-01,6.115182638168334961e-01,6.114990711212158203e-01,6.114798784255981445e-01,6.114607453346252441e-01,6.114414930343627930e-01,6.114223599433898926e-01,6.114031672477722168e-01,6.113839745521545410e-01,6.113648414611816406e-01,6.113455891609191895e-01,6.113264560699462891e-01,6.113073229789733887e-01,6.112881302833557129e-01,6.112689375877380371e-01,6.112497448921203613e-01,6.112306118011474609e-01,6.112114191055297852e-01,6.111922264099121094e-01,6.111730933189392090e-01,6.111539006233215332e-01,6.111347675323486328e-01,6.111156344413757324e-01,6.110964417457580566e-01,6.110773086547851562e-01,6.110581159591674805e-01,6.110389828681945801e-01,6.110198497772216797e-01,6.110006570816040039e-01,6.109815239906311035e-01,6.109623908996582031e-01,6.109431982040405273e-01,6.109240651130676270e-01,6.109048724174499512e-01,6.108857393264770508e-01,6.108666062355041504e-01,6.108474731445312500e-01,6.108283400535583496e-01,6.108091473579406738e-01,6.107900142669677734e-01,6.107709407806396484e-01,6.107517480850219727e-01,6.107326149940490723e-01,6.107134819030761719e-01,6.106943488121032715e-01,6.106752157211303711e-01,6.106560826301574707e-01,6.106369495391845703e-01,6.106178164482116699e-01,6.105986833572387695e-01,6.105795502662658691e-01,6.105604171752929688e-01,6.105413436889648438e-01,6.105222105979919434e-01,6.105030775070190430e-01,6.104839444160461426e-01,6.104648113250732422e-01,6.104456782341003418e-01,6.104266047477722168e-01,6.104074716567993164e-01,6.103883385658264160e-01,6.103692054748535156e-01,6.103501319885253906e-01
