3.101482868194580078e+00,3.179964303970336914e+00,3.262520074844360352e+00,3.349476814270019531e+00,3.441195726394653320e+00,3.538075447082519531e+00,3.640564203262329102e+00,3.749167680740356445e+00,3.864449977874755859e+00,3.987046241760253906e+00,4.117676734924316406e+00,4.257156372070312500e+00,4.406416893005371094e+00,4.566524505615234375e+00,4.738705635070800781e+00,4.924379348754882812e+00,5.000000000000000000e+00,5.000000000000000000e+00,5.000000000000000000e+00,5.000000000000000000e+00,5.000000000000000000e+00,5.000000000000000000e+00,5.000000000000000000e+00,5.000000000000000000e+00,5.000000000000000000e+00,5.000000000000000000e+00,5.000000000000000000e+00,5.000000000000000000e+00,5.000000000000000000e+00,5.000000000000000000e+00,5.000000000000000000e+00,5.000000000000000000e+00,5.000000000000000000e+00,5.000000000000000000e+00,5.000000000000000000e+00,5.000000000000000000e+00,5.000000000000000000e+00,5.000000000000000000e+00,5.000000000000000000e+00,5.000000000000000000e+00,5.000000000000000000e+00,5.000000000000000000e+00,5.000000000000000000e+00,5.000000000000000000e+00,5.000000000000000000e+00,5.000000000000000000e+00,5.000000000000000000e+00,5.000000000000000000e+00,5.000000000000000000e+00,5.000000000000000000e+00,5.000000000000000000e+00,5.000000000000000000e+00,5.000000000000000000e+00,5.000000000000000000e+00,5.000000000000000000e+00,5.000000000000000000e+00,5.000000000000000000e+00,5.000000000000000000e+00,5.000000000000000000e+00,5.000000000000000000e+00,5.000000000000000000e+00,5.000000000000000000e+00,5.000000000000000000e+00,5.000000000000000000e+00,5.000000000000000000e+00,5.000000000000000000e+00,5.000000000000000000e+00,5.000000000000000000e+00,5.000000000000000000e+00,5.000000000000000000e+00,4.846371173858642578e+00,4.687365055084228516e+00,4.538461685180664062e+00,4.398727416992187500e+00,4.267340660095214844e+00,4.143575191497802734e+00,4.026786327362060547e+00,3.916400909423828125e+00,3.811906099319458008e+00,3.712841749191284180e+00
3.101416826248168945e+00,3.179894208908081055e+00,3.262446880340576172e+00,3.349399566650390625e+00,3.441114187240600586e+00,3.537992954254150391e+00,3.640480756759643555e+00,3.749079227447509766e+00,3.864356040954589844e+00,3.986946344375610352e+00,4.117569923400878906e+00,4.257042407989501953e+00,4.406294822692871094e+00,4.566393375396728516e+00,4.738564491271972656e+00,4.924226760864257812e+00,5.000000000000000000e+00,5.000000000000000000e+00,5.000000000000000000e+00,5.000000000000000000e+00,5.000000000000000000e+00,5.000000000000000000e+00,5.000000000000000000e+00,5.000000000000000000e+00,5.000000000000000000e+00,5.000000000000000000e+00,5.000000000000000000e+00,5.000000000000000000e+00,5.000000000000000000e+00,5.000000000000000000e+00,5.000000000000000000e+00,5.000000000000000000e+00,5.000000000000000000e+00,5.000000000000000000e+00,5.000000000000000000e+00,5.000000000000000000e+00,5.000000000000000000e+00,5.000000000000000000e+00,5.000000000000000000e+00,5.000000000000000000e+00,5.000000000000000000e+00,5.000000000000000000e+00,5.000000000000000000e+00,5.000000000000000000e+00,5.000000000000000000e+00,5.000000000000000000e+00,5.000000000000000000e+00,5.000000000000000000e+00,5.000000000000000000e+00,5.000000000000000000e+00,5.000000000000000000e+00,5.000000000000000000e+00,5.000000000000000000e+00,5.000000000000000000e+00,5.000000000000000000e+00,5.000000000000000000e+00,5.000000000000000000e+00,5.000000000000000000e+00,5.000000000000000000e+00,5.000000000000000000e+00,5.000000000000000000e+00,5.000000000000000000e+00,5.000000000000000000e+00,5.000000000000000000e+00,5.000000000000000000e+00,5.000000000000000000e+00,5.000000000000000000e+00,5.000000000000000000e+00,5.000000000000000000e+00,5.000000000000000000e+00,4.846512794494628906e+00,4.687497615814208984e+00,4.538586139678955078e+00,4.398844242095947266e+00,4.267450809478759766e+00,4.143679141998291016e+00,4.026884555816650391e+00,3.916493892669677734e+00,3.811993598937988281e+00,3.712925195693969727e+00
3.101350545883178711e+00,3.179824590682983398e+00,3.262373208999633789e+00,3.349322319030761719e+00,3.441032648086547852e+00,3.537906885147094727e+00,3.640393495559692383e+00,3.748990774154663086e+00,3.864262104034423828e+00,3.986846446990966797e+00,4.117463588714599609e+00,4.256928443908691406e+00,4.406172752380371094e+00,4.566262245178222656e+00,4.738422870635986328e+00,4.924074649810791016e+00,5.000000000000000000e+00,5.000000000000000000e+00,5.000000000000000000e+00,5.000000000000000000e+00,5.000000000000000000e+00,5.000000000000000000e+00,5.000000000000000000e+00,3.796972513198852539e+00,3.837090015411376953e+00,5.000000000000000000e+00,5.000000000000000000e+00,5.000000000000000000e+00,5.000000000000000000e+00,5.000000000000000000e+00,5.000000000000000000e+00,5.000000000000000000e+00,5.000000000000000000e+00,5.000000000000000000e+00,5.000000000000000000e+00,5.000000000000000000e+00,5.000000000000000000e+00,5.000000000000000000e+00,5.000000000000000000e+00,5.000000000000000000e+00,5.000000000000000000e+00,5.000000000000000000e+00,5.000000000000000000e+00,5.000000000000000000e+00,5.000000000000000000e+00,5.000000000000000000e+00,5.000000000000000000e+00,5.000000000000000000e+00,5.000000000000000000e+00,5.000000000000000000e+00,5.000000000000000000e+00,5.000000000000000000e+00,5.000000000000000000e+00,5.000000000000000000e+00,5.000000000000000000e+00,5.000000000000000000e+00,5.000000000000000000e+00,5.000000000000000000e+00,5.000000000000000000e+00,5.000000000000000000e+00,5.000000000000000000e+00,5.000000000000000000e+00,5.000000000000000000e+00,5.000000000000000000e+00,5.000000000000000000e+00,5.000000000000000000e+00,5.000000000000000000e+00,5.000000000000000000e+00,5.000000000000000000e+00,5.000000000000000000e+00,4.846654415130615234e+00,4.687630653381347656e+00,4.538710594177246094e+00,4.398961067199707031e+00,4.267560482025146484e+00,4.143782615661621094e+00,4.026982307434082031e+00,3.916585683822631836e+00,3.812077999114990234e+00,3.713002681732177734e+00
3.101284265518188477e+00,3.179754972457885742e+00,3.262300014495849609e+00,3.349245071411132812e+00,3.440951108932495117e+00,3.537820577621459961e+00,3.640302419662475586e+00,3.748898267745971680e+00,3.864168167114257812e+00,3.986746549606323242e+00,4.117356777191162109e+00,4.256814479827880859e+00,4.406050682067871094e+00,4.566131114959716797e+00,4.738281726837158203e+00,4.923922061920166016e+00,5.000000000000000000e+00,5.000000000000000000e+00,5.000000000000000000e+00,5.000000000000000000e+00,5.000000000000000000e+00,5.000000000000000000e+00,5.000000000000000000e+00,3.804359674453735352e+00,3.828606843948364258e+00,5.000000000000000000e+00,5.000000000000000000e+00,5.000000000000000000e+00,5.000000000000000000e+00,5.000000000000000000e+00,5.000000000000000000e+00,5.000000000000000000e+00,5.000000000000000000e+00,5.000000000000000000e+00,5.000000000000000000e+00,5.000000000000000000e+00,5.000000000000000000e+00,5.000000000000000000e+00,5.000000000000000000e+00,5.000000000000000000e+00,5.000000000000000000e+00,5.000000000000000000e+00,5.000000000000000000e+00,5.000000000000000000e+00,5.000000000000000000e+00,5.000000000000000000e+00,5.000000000000000000e+00,5.000000000000000000e+00,5.000000000000000000e+00,5.000000000000000000e+00,5.000000000000000000e+00,5.000000000000000000e+00,5.000000000000000000e+00,5.000000000000000000e+00,5.000000000000000000e+00,5.000000000000000000e+00,5.000000000000000000e+00,5.000000000000000000e+00,5.000000000000000000e+00,5.000000000000000000e+00,5.000000000000000000e+00,5.000000000000000000e+00,5.000000000000000000e+00,5.000000000000000000e+00,5.000000000000000000e+00,5.000000000000000000e+00,5.000000000000000000e+00,5.000000000000000000e+00,5.000000000000000000e+00,5.000000000000000000e+00,4.846796035766601562e+00,4.687763214111328125e+00,4.538835048675537109e+00,4.399077892303466797e+00,4.267670631408691406e+00,4.143883228302001953e+00,4.027074337005615234e+00,3.916670322418212891e+00,3.812158107757568359e+00,3.713078737258911133e+00
3.101218223571777344e+00,3.179685354232788086e+00,3.262226819992065430e+00,3.349167585372924805e+00,3.440869569778442383e+00,3.537734508514404297e+00,3.640211105346679688e+00,3.748801469802856445e+00,3.864069938659667969e+00,3.986646890640258789e+00,4.117249965667724609e+00,4.256700992584228516e+00,4.405928611755371094e+00,4.565999984741210938e+00,4.738140583038330078e+00,4.923769950866699219e+00,5.000000000000000000e+00,5.000000000000000000e+00,5.000000000000000000e+00,5.000000000000000000e+00,5.000000000000000000e+00,5.000000000000000000e+00,5.000000000000000000e+00,3.810895442962646484e+00,3.843093156814575195e+00,5.000000000000000000e+00,5.000000000000000000e+00,5.000000000000000000e+00,5.000000000000000000e+00,5.000000000000000000e+00,5.000000000000000000e+00,5.000000000000000000e+00,5.000000000000000000e+00,5.000000000000000000e+00,5.000000000000000000e+00,5.000000000000000000e+00,5.000000000000000000e+00,5.000000000000000000e+00,5.000000000000000000e+00,5.000000000000000000e+00,5.000000000000000000e+00,5.000000000000000000e+00,5.000000000000000000e+00,5.000000000000000000e+00,5.000000000000000000e+00,5.000000000000000000e+00,5.000000000000000000e+00,5.000000000000000000e+00,5.000000000000000000e+00,5.000000000000000000e+00,5.000000000000000000e+00,5.000000000000000000e+00,5.000000000000000000e+00,5.000000000000000000e+00,5.000000000000000000e+00,5.000000000000000000e+00,5.000000000000000000e+00,5.000000000000000000e+00,5.000000000000000000e+00,5.000000000000000000e+00,5.000000000000000000e+00,5.000000000000000000e+00,5.000000000000000000e+00,5.000000000000000000e+00,5.000000000000000000e+00,5.000000000000000000e+00,5.000000000000000000e+00,5.000000000000000000e+00,5.000000000000000000e+00,5.000000000000000000e+00,4.846938133239746094e+00,4.687895774841308594e+00,4.538956642150878906e+00,4.399188995361328125e+00,4.267771244049072266e+00,4.143977642059326172e+00,4.027163982391357422e+00,3.916754961013793945e+00,3.812238216400146484e+00,3.713154792785644531e+00
3.101151943206787109e+00,3.179615974426269531e+00,3.262153387069702148e+00,3.349090337753295898e+00,3.440787792205810547e+00,3.537648200988769531e+00,3.640119791030883789e+00,3.748704671859741211e+00,3.863967180252075195e+00,3.986542701721191406e+00,4.117143630981445312e+00,4.256587028503417969e+00,4.405806541442871094e+00,4.565868854522705078e+00,4.737999439239501953e+00,4.923617362976074219e+00,5.000000000000000000e+00,5.000000000000000000e+00,5.000000000000000000e+00,5.000000000000000000e+00,5.000000000000000000e+00,5.000000000000000000e+00,5.000000000000000000e+00,5.000000000000000000e+00,3.889388561248779297e+00,3.876184225082397461e+00,3.850794076919555664e+00,5.000000000000000000e+00,5.000000000000000000e+00,5.000000000000000000e+00,5.000000000000000000e+00,5.000000000000000000e+00,5.000000000000000000e+00,5.000000000000000000e+00,5.000000000000000000e+00,5.000000000000000000e+00,5.000000000000000000e+00,5.000000000000000000e+00,5.000000000000000000e+00,5.000000000000000000e+00,5.000000000000000000e+00,5.000000000000000000e+00,5.000000000000000000e+00,5.000000000000000000e+00,5.000000000000000000e+00,5.000000000000000000e+00,5.000000000000000000e+00,5.000000000000000000e+00,5.000000000000000000e+00,5.000000000000000000e+00,5.000000000000000000e+00,5.000000000000000000e+00,5.000000000000000000e+00,5.000000000000000000e+00,5.000000000000000000e+00,5.000000000000000000e+00,5.000000000000000000e+00,5.000000000000000000e+00,5.000000000000000000e+00,5.000000000000000000e+00,5.000000000000000000e+00,5.000000000000000000e+00,5.000000000000000000e+00,5.000000000000000000e+00,5.000000000000000000e+00,5.000000000000000000e+00,5.000000000000000000e+00,5.000000000000000000e+00,5.000000000000000000e+00,5.000000000000000000e+00,4.847073554992675781e+00,4.688018321990966797e+00,4.539070129394531250e+00,4.399295330047607422e+00,4.267871856689453125e+00,4.144072532653808594e+00,4.027253150939941406e+00,3.916839361190795898e+00,3.812318325042724609e+00,3.713230848312377930e+00
3.101085424423217773e+00,3.179546356201171875e+00,3.262080192565917969e+00,3.349013090133666992e+00,3.440706253051757812e+00,3.537562131881713867e+00,3.640028715133666992e+00,3.748608112335205078e+00,3.863864421844482422e+00,3.986432790756225586e+00,4.117032527923583984e+00,4.256473064422607422e+00,4.405684471130371094e+00,4.565737724304199219e+00,4.737858295440673828e+00,4.923465251922607422e+00,5.000000000000000000e+00,5.000000000000000000e+00,5.000000000000000000e+00,5.000000000000000000e+00,5.000000000000000000e+00,3.917625665664672852e+00,3.867736577987670898e+00,3.841835498809814453e+00,3.814546823501586914e+00,3.807510375976562500e+00,3.831537246704101562e+00,3.832044601440429688e+00,5.000000000000000000e+00,5.000000000000000000e+00,5.000000000000000000e+00,5.000000000000000000e+00,5.000000000000000000e+00,5.000000000000000000e+00,5.000000000000000000e+00,5.000000000000000000e+00,5.000000000000000000e+00,5.000000000000000000e+00,5.000000000000000000e+00,5.000000000000000000e+00,5.000000000000000000e+00,5.000000000000000000e+00,5.000000000000000000e+00,5.000000000000000000e+00,5.000000000000000000e+00,5.000000000000000000e+00,5.000000000000000000e+00,5.000000000000000000e+00,5.000000000000000000e+00,5.000000000000000000e+00,5.000000000000000000e+00,5.000000000000000000e+00,5.000000000000000000e+00,5.000000000000000000e+00,5.000000000000000000e+00,5.000000000000000000e+00,5.000000000000000000e+00,5.000000000000000000e+00,5.000000000000000000e+00,5.000000000000000000e+00,5.000000000000000000e+00,5.000000000000000000e+00,5.000000000000000000e+00,5.000000000000000000e+00,5.000000000000000000e+00,5.000000000000000000e+00,5.000000000000000000e+00,5.000000000000000000e+00,5.000000000000000000e+00,5.000000000000000000e+00,4.847202777862548828e+00,4.688139438629150391e+00,4.539184093475341797e+00,4.399402141571044922e+00,4.267971992492675781e+00,4.144167423248291016e+00,4.027342319488525391e+00,3.916923999786376953e+00,3.812398433685302734e+00,3.713306427001953125e+00
3.101019144058227539e+00,3.179476737976074219e+00,3.262006998062133789e+00,3.348935842514038086e+00,3.440624713897705078e+00,3.537475585937500000e+00,3.639937400817871094e+00,3.748511314392089844e+00,3.863761663436889648e+00,3.986323595046997070e+00,4.116915702819824219e+00,4.256354331970214844e+00,4.405562400817871094e+00,4.565607070922851562e+00,4.737717151641845703e+00,4.923312664031982422e+00,5.000000000000000000e+00,5.000000000000000000e+00,5.000000000000000000e+00,5.000000000000000000e+00,5.000000000000000000e+00,3.893126010894775391e+00,3.798601627349853516e+00,3.784008979797363281e+00,3.778709173202514648e+00,3.801492929458618164e+00,3.845815896987915039e+00,3.834697961807250977e+00,5.000000000000000000e+00,5.000000000000000000e+00,5.000000000000000000e+00,5.000000000000000000e+00,5.000000000000000000e+00,5.000000000000000000e+00,5.000000000000000000e+00,5.000000000000000000e+00,5.000000000000000000e+00,5.000000000000000000e+00,5.000000000000000000e+00,5.000000000000000000e+00,5.000000000000000000e+00,5.000000000000000000e+00,5.000000000000000000e+00,5.000000000000000000e+00,5.000000000000000000e+00,5.000000000000000000e+00,5.000000000000000000e+00,5.000000000000000000e+00,5.000000000000000000e+00,5.000000000000000000e+00,5.000000000000000000e+00,5.000000000000000000e+00,5.000000000000000000e+00,5.000000000000000000e+00,5.000000000000000000e+00,5.000000000000000000e+00,5.000000000000000000e+00,5.000000000000000000e+00,5.000000000000000000e+00,5.000000000000000000e+00,5.000000000000000000e+00,5.000000000000000000e+00,5.000000000000000000e+00,5.000000000000000000e+00,5.000000000000000000e+00,5.000000000000000000e+00,5.000000000000000000e+00,5.000000000000000000e+00,5.000000000000000000e+00,5.000000000000000000e+00,4.847332477569580078e+00,4.688260555267333984e+00,4.539297103881835938e+00,4.399508476257324219e+00,4.268072605133056641e+00,4.144261837005615234e+00,4.027431964874267578e+00,3.917008638381958008e+00,3.812478542327880859e+00,3.713382482528686523e+00
3.100953102111816406e+00,3.179406881332397461e+00,3.261933803558349609e+00,3.348858594894409180e+00,3.440543413162231445e+00,3.537389516830444336e+00,3.639845848083496094e+00,3.748414516448974609e+00,3.863658905029296875e+00,3.986214160919189453e+00,4.116798877716064453e+00,4.256229877471923828e+00,4.405436038970947266e+00,4.565475940704345703e+00,4.737576007843017578e+00,4.923160076141357422e+00,5.000000000000000000e+00,5.000000000000000000e+00,5.000000000000000000e+00,5.000000000000000000e+00,5.000000000000000000e+00,3.925285100936889648e+00,3.808003902435302734e+00,3.783258199691772461e+00,3.786332368850708008e+00,3.804939270019531250e+00,3.848578214645385742e+00,3.828068256378173828e+00,5.000000000000000000e+00,5.000000000000000000e+00,5.000000000000000000e+00,5.000000000000000000e+00,5.000000000000000000e+00,5.000000000000000000e+00,5.000000000000000000e+00,5.000000000000000000e+00,5.000000000000000000e+00,5.000000000000000000e+00,5.000000000000000000e+00,5.000000000000000000e+00,5.000000000000000000e+00,5.000000000000000000e+00,5.000000000000000000e+00,5.000000000000000000e+00,5.000000000000000000e+00,5.000000000000000000e+00,5.000000000000000000e+00,5.000000000000000000e+00,5.000000000000000000e+00,5.000000000000000000e+00,5.000000000000000000e+00,5.000000000000000000e+00,5.000000000000000000e+00,5.000000000000000000e+00,5.000000000000000000e+00,5.000000000000000000e+00,5.000000000000000000e+00,5.000000000000000000e+00,5.000000000000000000e+00,5.000000000000000000e+00,5.000000000000000000e+00,5.000000000000000000e+00,5.000000000000000000e+00,5.000000000000000000e+00,5.000000000000000000e+00,5.000000000000000000e+00,5.000000000000000000e+00,5.000000000000000000e+00,5.000000000000000000e+00,5.000000000000000000e+00,4.847462177276611328e+00,4.688381671905517578e+00,4.539410591125488281e+00,4.399615287780761719e+00,4.268172740936279297e+00,4.144356250762939453e+00,4.027521133422851562e+00,3.917093276977539062e+00,3.812558889389038086e+00,3.713458538055419922e+00
3.100886821746826172e+00,3.179337263107299805e+00,3.261860132217407227e+00,3.348781347274780273e+00,3.440461874008178711e+00,3.537303209304809570e+00,3.639754533767700195e+00,3.748317956924438477e+00,3.863556146621704102e+00,3.986104726791381836e+00,4.116682529449462891e+00,4.256104946136474609e+00,4.405302524566650391e+00,4.565339565277099609e+00,4.737434864044189453e+00,4.923007488250732422e+00,5.000000000000000000e+00,5.000000000000000000e+00,5.000000000000000000e+00,5.000000000000000000e+00,5.000000000000000000e+00,3.955300092697143555e+00,3.799647092819213867e+00,3.777242898941040039e+00,3.780965328216552734e+00,3.813909530639648438e+00,3.918147563934326172e+00,3.824001550674438477e+00,5.000000000000000000e+00,5.000000000000000000e+00,5.000000000000000000e+00,5.000000000000000000e+00,5.000000000000000000e+00,5.000000000000000000e+00,5.000000000000000000e+00,5.000000000000000000e+00,5.000000000000000000e+00,5.000000000000000000e+00,5.000000000000000000e+00,5.000000000000000000e+00,5.000000000000000000e+00,5.000000000000000000e+00,5.000000000000000000e+00,5.000000000000000000e+00,5.000000000000000000e+00,5.000000000000000000e+00,5.000000000000000000e+00,5.000000000000000000e+00,5.000000000000000000e+00,5.000000000000000000e+00,5.000000000000000000e+00,5.000000000000000000e+00,5.000000000000000000e+00,5.000000000000000000e+00,5.000000000000000000e+00,5.000000000000000000e+00,5.000000000000000000e+00,5.000000000000000000e+00,5.000000000000000000e+00,5.000000000000000000e+00,5.000000000000000000e+00,5.000000000000000000e+00,5.000000000000000000e+00,5.000000000000000000e+00,5.000000000000000000e+00,5.000000000000000000e+00,5.000000000000000000e+00,5.000000000000000000e+00,5.000000000000000000e+00,5.000000000000000000e+00,4.847591876983642578e+00,4.688502788543701172e+00,4.539524555206298828e+00,4.399722099304199219e+00,4.268273353576660156e+00,4.144451141357421875e+00,4.027610778808593750e+00,3.917177915573120117e+00,3.812638998031616211e+00,3.713534593582153320e+00
3.100793600082397461e+00,3.179255247116088867e+00,3.261786937713623047e+00,3.348703861236572266e+00,3.440380334854125977e+00,3.537217140197753906e+00,3.639663457870483398e+00,3.748220682144165039e+00,3.863453388214111328e+00,3.985995292663574219e+00,4.116565704345703125e+00,4.255980014801025391e+00,4.405168533325195312e+00,4.565196514129638672e+00,4.737288951873779297e+00,4.922855377197265625e+00,5.000000000000000000e+00,5.000000000000000000e+00,5.000000000000000000e+00,5.000000000000000000e+00,5.000000000000000000e+00,5.000000000000000000e+00,3.794247627258300781e+00,3.785268783569335938e+00,3.781978845596313477e+00,3.825277566909790039e+00,5.000000000000000000e+00,3.829257249832153320e+00,5.000000000000000000e+00,5.000000000000000000e+00,5.000000000000000000e+00,5.000000000000000000e+00,5.000000000000000000e+00,5.000000000000000000e+00,5.000000000000000000e+00,5.000000000000000000e+00,5.000000000000000000e+00,5.000000000000000000e+00,5.000000000000000000e+00,5.000000000000000000e+00,5.000000000000000000e+00,5.000000000000000000e+00,5.000000000000000000e+00,5.000000000000000000e+00,5.000000000000000000e+00,5.000000000000000000e+00,5.000000000000000000e+00,5.000000000000000000e+00,5.000000000000000000e+00,5.000000000000000000e+00,5.000000000000000000e+00,5.000000000000000000e+00,5.000000000000000000e+00,5.000000000000000000e+00,5.000000000000000000e+00,5.000000000000000000e+00,5.000000000000000000e+00,5.000000000000000000e+00,5.000000000000000000e+00,5.000000000000000000e+00,5.000000000000000000e+00,5.000000000000000000e+00,5.000000000000000000e+00,5.000000000000000000e+00,5.000000000000000000e+00,5.000000000000000000e+00,5.000000000000000000e+00,5.000000000000000000e+00,5.000000000000000000e+00,5.000000000000000000e+00,4.847721099853515625e+00,4.688623905181884766e+00,4.539638042449951172e+00,4.399828910827636719e+00,4.268373489379882812e+00,4.144545555114746094e+00,4.027699947357177734e+00,3.917262077331542969e+00,3.812719106674194336e+00,3.713610410690307617e+00
3.100694179534912109e+00,3.179150819778442383e+00,3.261681079864501953e+00,3.348609924316406250e+00,3.440298795700073242e+00,3.537131071090698242e+00,3.639572143554687500e+00,3.748123884201049805e+00,3.863350152969360352e+00,3.985885858535766602e+00,4.116448879241943359e+00,4.255855560302734375e+00,4.405035018920898438e+00,4.565052986145019531e+00,4.737134456634521484e+00,4.922697544097900391e+00,5.000000000000000000e+00,5.000000000000000000e+00,5.000000000000000000e+00,5.000000000000000000e+00,5.000000000000000000e+00,5.000000000000000000e+00,3.782544612884521484e+00,3.770796775817871094e+00,3.790161132812500000e+00,3.811872243881225586e+00,5.000000000000000000e+00,3.770549058914184570e+00,5.000000000000000000e+00,5.000000000000000000e+00,5.000000000000000000e+00,5.000000000000000000e+00,5.000000000000000000e+00,5.000000000000000000e+00,5.000000000000000000e+00,5.000000000000000000e+00,5.000000000000000000e+00,5.000000000000000000e+00,5.000000000000000000e+00,5.000000000000000000e+00,5.000000000000000000e+00,5.000000000000000000e+00,5.000000000000000000e+00,5.000000000000000000e+00,5.000000000000000000e+00,5.000000000000000000e+00,5.000000000000000000e+00,5.000000000000000000e+00,5.000000000000000000e+00,5.000000000000000000e+00,5.000000000000000000e+00,5.000000000000000000e+00,5.000000000000000000e+00,5.000000000000000000e+00,5.000000000000000000e+00,5.000000000000000000e+00,5.000000000000000000e+00,5.000000000000000000e+00,5.000000000000000000e+00,5.000000000000000000e+00,5.000000000000000000e+00,5.000000000000000000e+00,5.000000000000000000e+00,5.000000000000000000e+00,5.000000000000000000e+00,5.000000000000000000e+00,5.000000000000000000e+00,5.000000000000000000e+00,5.000000000000000000e+00,5.000000000000000000e+00,4.847850322723388672e+00,4.688745021820068359e+00,4.539751529693603516e+00,4.399935245513916016e+00,4.268474102020263672e+00,4.144640445709228516e+00,4.027789592742919922e+00,3.917346477508544922e+00,3.812799215316772461e+00,3.713686466217041016e+00
3.100594758987426758e+00,3.179046392440795898e+00,3.261570930480957031e+00,3.348494291305541992e+00,3.440177440643310547e+00,3.537022829055786133e+00,3.639478683471679688e+00,3.748027324676513672e+00,3.863247394561767578e+00,3.985776662826538086e+00,4.116332054138183594e+00,4.255730628967285156e+00,4.404901027679443359e+00,4.564908981323242188e+00,4.736979961395263672e+00,4.922530651092529297e+00,5.000000000000000000e+00,5.000000000000000000e+00,5.000000000000000000e+00,5.000000000000000000e+00,5.000000000000000000e+00,5.000000000000000000e+00,3.807389020919799805e+00,3.776909351348876953e+00,3.788853645324707031e+00,3.811411857604980469e+00,3.933627843856811523e+00,3.727251291275024414e+00,5.000000000000000000e+00,5.000000000000000000e+00,5.000000000000000000e+00,5.000000000000000000e+00,5.000000000000000000e+00,5.000000000000000000e+00,5.000000000000000000e+00,5.000000000000000000e+00,5.000000000000000000e+00,5.000000000000000000e+00,5.000000000000000000e+00,5.000000000000000000e+00,5.000000000000000000e+00,5.000000000000000000e+00,5.000000000000000000e+00,5.000000000000000000e+00,5.000000000000000000e+00,5.000000000000000000e+00,5.000000000000000000e+00,5.000000000000000000e+00,5.000000000000000000e+00,5.000000000000000000e+00,5.000000000000000000e+00,5.000000000000000000e+00,5.000000000000000000e+00,5.000000000000000000e+00,5.000000000000000000e+00,5.000000000000000000e+00,5.000000000000000000e+00,5.000000000000000000e+00,5.000000000000000000e+00,5.000000000000000000e+00,5.000000000000000000e+00,5.000000000000000000e+00,5.000000000000000000e+00,5.000000000000000000e+00,5.000000000000000000e+00,5.000000000000000000e+00,5.000000000000000000e+00,5.000000000000000000e+00,5.000000000000000000e+00,5.000000000000000000e+00,4.847980022430419922e+00,4.688866138458251953e+00,4.539865493774414062e+00,4.400042057037353516e+00,4.268574714660644531e+00,4.144735336303710938e+00,4.027878761291503906e+00,3.917431116104125977e+00,3.812879323959350586e+00,3.713762521743774414e+00
3.100524902343750000e+00,3.178956508636474609e+00,3.261461257934570312e+00,3.348378419876098633e+00,3.440055370330810547e+00,3.536893606185913086e+00,3.639341592788696289e+00,3.747902154922485352e+00,3.863137960433959961e+00,3.985666751861572266e+00,4.116215705871582031e+00,4.255605697631835938e+00,4.404767513275146484e+00,4.564765453338623047e+00,4.736824989318847656e+00,4.922363758087158203e+00,5.000000000000000000e+00,5.000000000000000000e+00,5.000000000000000000e+00,5.000000000000000000e+00,5.000000000000000000e+00,3.797909975051879883e+00,3.769224405288696289e+00,3.816381216049194336e+00,3.818441390991210938e+00,3.815483331680297852e+00,3.885234594345092773e+00,3.690519332885742188e+00,5.000000000000000000e+00,5.000000000000000000e+00,5.000000000000000000e+00,5.000000000000000000e+00,5.000000000000000000e+00,5.000000000000000000e+00,5.000000000000000000e+00,5.000000000000000000e+00,5.000000000000000000e+00,5.000000000000000000e+00,5.000000000000000000e+00,5.000000000000000000e+00,5.000000000000000000e+00,5.000000000000000000e+00,5.000000000000000000e+00,5.000000000000000000e+00,5.000000000000000000e+00,5.000000000000000000e+00,5.000000000000000000e+00,5.000000000000000000e+00,5.000000000000000000e+00,5.000000000000000000e+00,5.000000000000000000e+00,5.000000000000000000e+00,5.000000000000000000e+00,5.000000000000000000e+00,5.000000000000000000e+00,5.000000000000000000e+00,5.000000000000000000e+00,5.000000000000000000e+00,5.000000000000000000e+00,5.000000000000000000e+00,5.000000000000000000e+00,5.000000000000000000e+00,5.000000000000000000e+00,5.000000000000000000e+00,5.000000000000000000e+00,5.000000000000000000e+00,5.000000000000000000e+00,5.000000000000000000e+00,5.000000000000000000e+00,5.000000000000000000e+00,4.848109722137451172e+00,4.688987731933593750e+00,4.539978504180908203e+00,4.400148868560791016e+00,4.268674850463867188e+00,4.144829750061035156e+00,4.027968406677246094e+00,3.917515754699707031e+00,3.812959432601928711e+00,3.713838577270507812e+00
3.100458621978759766e+00,3.178887128829956055e+00,3.261386156082153320e+00,3.348281621932983398e+00,3.439933776855468750e+00,3.536764144897460938e+00,3.639205217361450195e+00,3.747756719589233398e+00,3.862983942031860352e+00,3.985520839691162109e+00,4.116086483001708984e+00,4.255481243133544922e+00,4.404633998870849609e+00,4.564621925354003906e+00,4.736670494079589844e+00,4.922196865081787109e+00,5.000000000000000000e+00,5.000000000000000000e+00,5.000000000000000000e+00,5.000000000000000000e+00,5.000000000000000000e+00,3.749433994293212891e+00,3.733995676040649414e+00,3.789790630340576172e+00,3.821891546249389648e+00,3.819865226745605469e+00,3.880640506744384766e+00,3.663872241973876953e+00,5.000000000000000000e+00,5.000000000000000000e+00,5.000000000000000000e+00,5.000000000000000000e+00,5.000000000000000000e+00,5.000000000000000000e+00,5.000000000000000000e+00,5.000000000000000000e+00,5.000000000000000000e+00,5.000000000000000000e+00,5.000000000000000000e+00,5.000000000000000000e+00,5.000000000000000000e+00,5.000000000000000000e+00,5.000000000000000000e+00,5.000000000000000000e+00,5.000000000000000000e+00,5.000000000000000000e+00,5.000000000000000000e+00,5.000000000000000000e+00,5.000000000000000000e+00,5.000000000000000000e+00,5.000000000000000000e+00,5.000000000000000000e+00,5.000000000000000000e+00,5.000000000000000000e+00,5.000000000000000000e+00,5.000000000000000000e+00,5.000000000000000000e+00,5.000000000000000000e+00,5.000000000000000000e+00,5.000000000000000000e+00,5.000000000000000000e+00,5.000000000000000000e+00,5.000000000000000000e+00,5.000000000000000000e+00,5.000000000000000000e+00,5.000000000000000000e+00,5.000000000000000000e+00,5.000000000000000000e+00,5.000000000000000000e+00,5.000000000000000000e+00,4.848239421844482422e+00,4.689108848571777344e+00,4.540092468261718750e+00,4.400255680084228516e+00,4.268775463104248047e+00,4.144924163818359375e+00,4.028057575225830078e+00,3.917600393295288086e+00,3.813039302825927734e+00,3.713914632797241211e+00
3.100392818450927734e+00,3.178817749023437500e+00,3.261313199996948242e+00,3.348204374313354492e+00,3.439852714538574219e+00,3.536659479141235352e+00,3.639072418212890625e+00,3.747611999511718750e+00,3.862829685211181641e+00,3.985356569290161133e+00,4.115911483764648438e+00,4.255309581756591797e+00,4.404480934143066406e+00,4.564478397369384766e+00,4.736515998840332031e+00,4.922029972076416016e+00,5.000000000000000000e+00,5.000000000000000000e+00,5.000000000000000000e+00,5.000000000000000000e+00,5.000000000000000000e+00,3.711985826492309570e+00,3.711994409561157227e+00,3.782401800155639648e+00,3.836004972457885742e+00,3.834057569503784180e+00,3.891302347183227539e+00,5.000000000000000000e+00,5.000000000000000000e+00,5.000000000000000000e+00,5.000000000000000000e+00,5.000000000000000000e+00,5.000000000000000000e+00,5.000000000000000000e+00,5.000000000000000000e+00,5.000000000000000000e+00,5.000000000000000000e+00,5.000000000000000000e+00,5.000000000000000000e+00,5.000000000000000000e+00,5.000000000000000000e+00,5.000000000000000000e+00,5.000000000000000000e+00,5.000000000000000000e+00,5.000000000000000000e+00,5.000000000000000000e+00,5.000000000000000000e+00,5.000000000000000000e+00,5.000000000000000000e+00,5.000000000000000000e+00,5.000000000000000000e+00,5.000000000000000000e+00,5.000000000000000000e+00,5.000000000000000000e+00,5.000000000000000000e+00,5.000000000000000000e+00,5.000000000000000000e+00,5.000000000000000000e+00,5.000000000000000000e+00,5.000000000000000000e+00,5.000000000000000000e+00,5.000000000000000000e+00,5.000000000000000000e+00,5.000000000000000000e+00,5.000000000000000000e+00,5.000000000000000000e+00,5.000000000000000000e+00,5.000000000000000000e+00,5.000000000000000000e+00,5.000000000000000000e+00,4.848368644714355469e+00,4.689229488372802734e+00,4.540205955505371094e+00,4.400362014770507812e+00,4.268875598907470703e+00,4.145019054412841797e+00,4.028147220611572266e+00,3.917685031890869141e+00,3.813119411468505859e+00,3.713990688323974609e+00
3.100326776504516602e+00,3.178748369216918945e+00,3.261240005493164062e+00,3.348127603530883789e+00,3.439771652221679688e+00,3.536573410034179688e+00,3.638981819152832031e+00,3.747497320175170898e+00,3.862684249877929688e+00,3.985193014144897461e+00,4.115736484527587891e+00,4.255122661590576172e+00,4.404280662536621094e+00,4.564276218414306641e+00,4.736333370208740234e+00,4.921863079071044922e+00,5.000000000000000000e+00,5.000000000000000000e+00,5.000000000000000000e+00,5.000000000000000000e+00,5.000000000000000000e+00,3.668691873550415039e+00,3.686594247817993164e+00,3.787504196166992188e+00,3.868460416793823242e+00,3.854635715484619141e+00,3.923520326614379883e+00,5.000000000000000000e+00,5.000000000000000000e+00,5.000000000000000000e+00,5.000000000000000000e+00,5.000000000000000000e+00,5.000000000000000000e+00,5.000000000000000000e+00,5.000000000000000000e+00,5.000000000000000000e+00,5.000000000000000000e+00,5.000000000000000000e+00,5.000000000000000000e+00,5.000000000000000000e+00,5.000000000000000000e+00,5.000000000000000000e+00,5.000000000000000000e+00,5.000000000000000000e+00,5.000000000000000000e+00,5.000000000000000000e+00,5.000000000000000000e+00,5.000000000000000000e+00,5.000000000000000000e+00,5.000000000000000000e+00,5.000000000000000000e+00,5.000000000000000000e+00,5.000000000000000000e+00,5.000000000000000000e+00,5.000000000000000000e+00,5.000000000000000000e+00,5.000000000000000000e+00,5.000000000000000000e+00,5.000000000000000000e+00,5.000000000000000000e+00,5.000000000000000000e+00,5.000000000000000000e+00,5.000000000000000000e+00,5.000000000000000000e+00,5.000000000000000000e+00,5.000000000000000000e+00,5.000000000000000000e+00,5.000000000000000000e+00,5.000000000000000000e+00,5.000000000000000000e+00,4.848498344421386719e+00,4.689351081848144531e+00,4.540319442749023438e+00,4.400468826293945312e+00,4.268976211547851562e+00,4.145113945007324219e+00,4.028236389160156250e+00,3.917769670486450195e+00,3.813199520111083984e+00,3.714067220687866211e+00
3.100260734558105469e+00,3.178678750991821289e+00,3.261167049407958984e+00,3.348050594329833984e+00,3.439690113067626953e+00,3.536487579345703125e+00,3.638890504837036133e+00,3.747400999069213867e+00,3.862581968307495117e+00,3.985067367553710938e+00,4.115575790405273438e+00,4.254935741424560547e+00,4.404080390930175781e+00,4.564060688018798828e+00,4.736101627349853516e+00,4.921620845794677734e+00,5.000000000000000000e+00,5.000000000000000000e+00,5.000000000000000000e+00,5.000000000000000000e+00,5.000000000000000000e+00,3.644054651260375977e+00,3.672199249267578125e+00,5.000000000000000000e+00,3.895851373672485352e+00,3.876309633255004883e+00,3.965472459793090820e+00,5.000000000000000000e+00,5.000000000000000000e+00,5.000000000000000000e+00,5.000000000000000000e+00,5.000000000000000000e+00,5.000000000000000000e+00,5.000000000000000000e+00,5.000000000000000000e+00,5.000000000000000000e+00,5.000000000000000000e+00,5.000000000000000000e+00,5.000000000000000000e+00,5.000000000000000000e+00,5.000000000000000000e+00,5.000000000000000000e+00,5.000000000000000000e+00,5.000000000000000000e+00,5.000000000000000000e+00,5.000000000000000000e+00,5.000000000000000000e+00,5.000000000000000000e+00,5.000000000000000000e+00,5.000000000000000000e+00,5.000000000000000000e+00,5.000000000000000000e+00,5.000000000000000000e+00,5.000000000000000000e+00,5.000000000000000000e+00,5.000000000000000000e+00,5.000000000000000000e+00,5.000000000000000000e+00,5.000000000000000000e+00,5.000000000000000000e+00,5.000000000000000000e+00,5.000000000000000000e+00,5.000000000000000000e+00,5.000000000000000000e+00,5.000000000000000000e+00,5.000000000000000000e+00,5.000000000000000000e+00,5.000000000000000000e+00,5.000000000000000000e+00,5.000000000000000000e+00,4.848627567291259766e+00,4.689472198486328125e+00,4.540433406829833984e+00,4.400575637817382812e+00,4.269076347351074219e+00,4.145208358764648438e+00,4.028326034545898438e+00,3.917856931686401367e+00,3.813285350799560547e+00,3.714150667190551758e+00
3.100194692611694336e+00,3.178609609603881836e+00,3.261094093322753906e+00,3.347973585128784180e+00,3.439609050750732422e+00,3.536401510238647461e+00,3.638799905776977539e+00,3.747304439544677734e+00,3.862479448318481445e+00,3.984958648681640625e+00,4.115459442138671875e+00,4.254797458648681641e+00,4.403901100158691406e+00,4.563845634460449219e+00,4.735869884490966797e+00,4.921370506286621094e+00,5.000000000000000000e+00,5.000000000000000000e+00,5.000000000000000000e+00,5.000000000000000000e+00,5.000000000000000000e+00,3.632487773895263672e+00,3.664443969726562500e+00,5.000000000000000000e+00,5.000000000000000000e+00,3.892085313796997070e+00,3.998571634292602539e+00,5.000000000000000000e+00,5.000000000000000000e+00,5.000000000000000000e+00,5.000000000000000000e+00,5.000000000000000000e+00,5.000000000000000000e+00,5.000000000000000000e+00,5.000000000000000000e+00,5.000000000000000000e+00,5.000000000000000000e+00,5.000000000000000000e+00,5.000000000000000000e+00,5.000000000000000000e+00,5.000000000000000000e+00,5.000000000000000000e+00,5.000000000000000000e+00,5.000000000000000000e+00,5.000000000000000000e+00,5.000000000000000000e+00,5.000000000000000000e+00,5.000000000000000000e+00,5.000000000000000000e+00,5.000000000000000000e+00,5.000000000000000000e+00,5.000000000000000000e+00,5.000000000000000000e+00,5.000000000000000000e+00,5.000000000000000000e+00,5.000000000000000000e+00,5.000000000000000000e+00,5.000000000000000000e+00,5.000000000000000000e+00,5.000000000000000000e+00,5.000000000000000000e+00,5.000000000000000000e+00,5.000000000000000000e+00,5.000000000000000000e+00,5.000000000000000000e+00,5.000000000000000000e+00,5.000000000000000000e+00,5.000000000000000000e+00,5.000000000000000000e+00,5.000000000000000000e+00,4.848757266998291016e+00,4.689593315124511719e+00,4.540546894073486328e+00,4.400682449340820312e+00,4.269179344177246094e+00,4.145308494567871094e+00,4.028423786163330078e+00,3.917949914932250977e+00,3.813373327255249023e+00,3.714234113693237305e+00
3.100128650665283203e+00,3.178539991378784180e+00,3.261020898818969727e+00,3.347896575927734375e+00,3.439527511596679688e+00,3.536315679550170898e+00,3.638708591461181641e+00,3.747208118438720703e+00,3.862377166748046875e+00,3.984849214553833008e+00,4.115343093872070312e+00,4.254673004150390625e+00,4.403768062591552734e+00,4.563691616058349609e+00,4.735668659210205078e+00,4.921120643615722656e+00,5.000000000000000000e+00,5.000000000000000000e+00,5.000000000000000000e+00,5.000000000000000000e+00,5.000000000000000000e+00,3.644257068634033203e+00,3.674513339996337891e+00,5.000000000000000000e+00,5.000000000000000000e+00,3.911475419998168945e+00,4.021126270294189453e+00,5.000000000000000000e+00,5.000000000000000000e+00,5.000000000000000000e+00,5.000000000000000000e+00,5.000000000000000000e+00,5.000000000000000000e+00,5.000000000000000000e+00,5.000000000000000000e+00,5.000000000000000000e+00,5.000000000000000000e+00,5.000000000000000000e+00,5.000000000000000000e+00,5.000000000000000000e+00,5.000000000000000000e+00,5.000000000000000000e+00,5.000000000000000000e+00,5.000000000000000000e+00,5.000000000000000000e+00,5.000000000000000000e+00,5.000000000000000000e+00,5.000000000000000000e+00,5.000000000000000000e+00,5.000000000000000000e+00,5.000000000000000000e+00,5.000000000000000000e+00,5.000000000000000000e+00,5.000000000000000000e+00,5.000000000000000000e+00,5.000000000000000000e+00,5.000000000000000000e+00,5.000000000000000000e+00,5.000000000000000000e+00,5.000000000000000000e+00,5.000000000000000000e+00,5.000000000000000000e+00,5.000000000000000000e+00,5.000000000000000000e+00,5.000000000000000000e+00,5.000000000000000000e+00,5.000000000000000000e+00,5.000000000000000000e+00,5.000000000000000000e+00,5.000000000000000000e+00,4.848886966705322266e+00,4.689715862274169922e+00,4.540665626525878906e+00,4.400797843933105469e+00,4.269289493560791016e+00,4.145412445068359375e+00,4.028522014617919922e+00,3.918042659759521484e+00,3.813461303710937500e+00,3.714317560195922852e+00
3.100062608718872070e+00,3.178470849990844727e+00,3.260948181152343750e+00,3.347819566726684570e+00,3.439446449279785156e+00,3.536229610443115234e+00,3.638617992401123047e+00,3.747111797332763672e+00,3.862274408340454102e+00,3.984740495681762695e+00,4.115226745605468750e+00,4.254549026489257812e+00,4.403635025024414062e+00,4.563548564910888672e+00,4.735514640808105469e+00,4.920947551727294922e+00,5.000000000000000000e+00,5.000000000000000000e+00,5.000000000000000000e+00,5.000000000000000000e+00,5.000000000000000000e+00,3.658872127532958984e+00,3.677810668945312500e+00,5.000000000000000000e+00,5.000000000000000000e+00,3.992970466613769531e+00,4.033792972564697266e+00,5.000000000000000000e+00,5.000000000000000000e+00,5.000000000000000000e+00,5.000000000000000000e+00,5.000000000000000000e+00,5.000000000000000000e+00,5.000000000000000000e+00,5.000000000000000000e+00,5.000000000000000000e+00,5.000000000000000000e+00,5.000000000000000000e+00,5.000000000000000000e+00,5.000000000000000000e+00,5.000000000000000000e+00,5.000000000000000000e+00,5.000000000000000000e+00,5.000000000000000000e+00,5.000000000000000000e+00,5.000000000000000000e+00,5.000000000000000000e+00,5.000000000000000000e+00,5.000000000000000000e+00,5.000000000000000000e+00,5.000000000000000000e+00,5.000000000000000000e+00,5.000000000000000000e+00,5.000000000000000000e+00,5.000000000000000000e+00,5.000000000000000000e+00,5.000000000000000000e+00,5.000000000000000000e+00,5.000000000000000000e+00,5.000000000000000000e+00,5.000000000000000000e+00,5.000000000000000000e+00,5.000000000000000000e+00,5.000000000000000000e+00,5.000000000000000000e+00,5.000000000000000000e+00,5.000000000000000000e+00,5.000000000000000000e+00,5.000000000000000000e+00,5.000000000000000000e+00,4.849025726318359375e+00,4.689848899841308594e+00,4.540790557861328125e+00,4.400915145874023438e+00,4.269399642944335938e+00,4.145516872406005859e+00,4.028620243072509766e+00,3.918135643005371094e+00,3.813549280166625977e+00,3.714401006698608398e+00
3.099996805191040039e+00,3.178401470184326172e+00,3.260874986648559570e+00,3.347742795944213867e+00,3.439365148544311523e+00,3.536144018173217773e+00,3.638527154922485352e+00,3.747015237808227539e+00,3.862172126770019531e+00,3.984631061553955078e+00,4.115110397338867188e+00,4.254424571990966797e+00,4.403501510620117188e+00,4.563405513763427734e+00,4.735360622406005859e+00,4.920781612396240234e+00,5.000000000000000000e+00,5.000000000000000000e+00,5.000000000000000000e+00,5.000000000000000000e+00,5.000000000000000000e+00,3.648764371871948242e+00,3.671065568923950195e+00,5.000000000000000000e+00,5.000000000000000000e+00,5.000000000000000000e+00,4.076209545135498047e+00,5.000000000000000000e+00,5.000000000000000000e+00,5.000000000000000000e+00,5.000000000000000000e+00,5.000000000000000000e+00,5.000000000000000000e+00,5.000000000000000000e+00,5.000000000000000000e+00,5.000000000000000000e+00,5.000000000000000000e+00,5.000000000000000000e+00,5.000000000000000000e+00,5.000000000000000000e+00,5.000000000000000000e+00,5.000000000000000000e+00,5.000000000000000000e+00,5.000000000000000000e+00,5.000000000000000000e+00,5.000000000000000000e+00,5.000000000000000000e+00,5.000000000000000000e+00,5.000000000000000000e+00,5.000000000000000000e+00,5.000000000000000000e+00,5.000000000000000000e+00,5.000000000000000000e+00,5.000000000000000000e+00,5.000000000000000000e+00,5.000000000000000000e+00,5.000000000000000000e+00,5.000000000000000000e+00,5.000000000000000000e+00,5.000000000000000000e+00,5.000000000000000000e+00,5.000000000000000000e+00,5.000000000000000000e+00,5.000000000000000000e+00,5.000000000000000000e+00,5.000000000000000000e+00,5.000000000000000000e+00,5.000000000000000000e+00,5.000000000000000000e+00,5.000000000000000000e+00,4.849168300628662109e+00,4.689981937408447266e+00,4.540915489196777344e+00,4.401032447814941406e+00,4.269510269165039062e+00,4.145620822906494141e+00,4.028718471527099609e+00,3.918228387832641602e+00,3.813637256622314453e+00,3.714484930038452148e+00
3.099930763244628906e+00,3.178331851959228516e+00,3.260802030563354492e+00,3.347665548324584961e+00,3.439284086227416992e+00,3.536058187484741211e+00,3.638436079025268555e+00,3.746918916702270508e+00,3.862069368362426758e+00,3.984522342681884766e+00,4.114994525909423828e+00,4.254300117492675781e+00,4.403368473052978516e+00,4.563262462615966797e+00,4.735206127166748047e+00,4.920615673065185547e+00,5.000000000000000000e+00,5.000000000000000000e+00,5.000000000000000000e+00,5.000000000000000000e+00,5.000000000000000000e+00,3.642064809799194336e+00,3.666329622268676758e+00,5.000000000000000000e+00,5.000000000000000000e+00,5.000000000000000000e+00,4.119809150695800781e+00,5.000000000000000000e+00,5.000000000000000000e+00,5.000000000000000000e+00,5.000000000000000000e+00,5.000000000000000000e+00,5.000000000000000000e+00,5.000000000000000000e+00,5.000000000000000000e+00,5.000000000000000000e+00,5.000000000000000000e+00,5.000000000000000000e+00,5.000000000000000000e+00,5.000000000000000000e+00,5.000000000000000000e+00,5.000000000000000000e+00,5.000000000000000000e+00,5.000000000000000000e+00,5.000000000000000000e+00,5.000000000000000000e+00,5.000000000000000000e+00,5.000000000000000000e+00,5.000000000000000000e+00,5.000000000000000000e+00,5.000000000000000000e+00,5.000000000000000000e+00,5.000000000000000000e+00,5.000000000000000000e+00,5.000000000000000000e+00,5.000000000000000000e+00,5.000000000000000000e+00,5.000000000000000000e+00,5.000000000000000000e+00,5.000000000000000000e+00,5.000000000000000000e+00,5.000000000000000000e+00,5.000000000000000000e+00,5.000000000000000000e+00,5.000000000000000000e+00,5.000000000000000000e+00,5.000000000000000000e+00,5.000000000000000000e+00,5.000000000000000000e+00,5.000000000000000000e+00,4.849310398101806641e+00,4.690114974975585938e+00,4.541039943695068359e+00,4.401149272918701172e+00,4.269620418548583984e+00,4.145724773406982422e+00,4.028816699981689453e+00,3.918321371078491211e+00,3.813725233078002930e+00,3.714568376541137695e+00
3.099864721298217773e+00,3.178262710571289062e+00,3.260728836059570312e+00,3.347588777542114258e+00,3.439203023910522461e+00,3.535972118377685547e+00,3.638345241546630859e+00,3.746822357177734375e+00,3.861967325210571289e+00,3.984413623809814453e+00,4.114878177642822266e+00,4.254176139831542969e+00,4.403235435485839844e+00,4.563119411468505859e+00,4.735052108764648438e+00,4.920449256896972656e+00,5.000000000000000000e+00,5.000000000000000000e+00,5.000000000000000000e+00,5.000000000000000000e+00,5.000000000000000000e+00,3.653290748596191406e+00,3.665718078613281250e+00,5.000000000000000000e+00,5.000000000000000000e+00,5.000000000000000000e+00,4.177659034729003906e+00,5.000000000000000000e+00,5.000000000000000000e+00,5.000000000000000000e+00,5.000000000000000000e+00,5.000000000000000000e+00,5.000000000000000000e+00,5.000000000000000000e+00,5.000000000000000000e+00,5.000000000000000000e+00,5.000000000000000000e+00,5.000000000000000000e+00,5.000000000000000000e+00,5.000000000000000000e+00,5.000000000000000000e+00,5.000000000000000000e+00,5.000000000000000000e+00,5.000000000000000000e+00,5.000000000000000000e+00,5.000000000000000000e+00,5.000000000000000000e+00,5.000000000000000000e+00,5.000000000000000000e+00,5.000000000000000000e+00,5.000000000000000000e+00,5.000000000000000000e+00,5.000000000000000000e+00,5.000000000000000000e+00,5.000000000000000000e+00,5.000000000000000000e+00,5.000000000000000000e+00,5.000000000000000000e+00,5.000000000000000000e+00,5.000000000000000000e+00,5.000000000000000000e+00,5.000000000000000000e+00,5.000000000000000000e+00,5.000000000000000000e+00,5.000000000000000000e+00,5.000000000000000000e+00,5.000000000000000000e+00,5.000000000000000000e+00,5.000000000000000000e+00,5.000000000000000000e+00,4.849452972412109375e+00,4.690248489379882812e+00,4.541164875030517578e+00,4.401266574859619141e+00,4.269731044769287109e+00,4.145828723907470703e+00,4.028914928436279297e+00,3.918414354324340820e+00,3.813813686370849609e+00,3.714651823043823242e+00
3.099798917770385742e+00,3.178193092346191406e+00,3.260655879974365234e+00,3.347512006759643555e+00,3.439121484756469727e+00,3.535886526107788086e+00,3.638254165649414062e+00,3.746726036071777344e+00,3.861864566802978516e+00,3.984304189682006836e+00,4.114761829376220703e+00,4.254051685333251953e+00,4.403101921081542969e+00,4.562976360321044922e+00,4.734898567199707031e+00,4.920282840728759766e+00,5.000000000000000000e+00,5.000000000000000000e+00,5.000000000000000000e+00,5.000000000000000000e+00,5.000000000000000000e+00,5.000000000000000000e+00,3.664946794509887695e+00,5.000000000000000000e+00,5.000000000000000000e+00,5.000000000000000000e+00,4.217465877532958984e+00,5.000000000000000000e+00,5.000000000000000000e+00,5.000000000000000000e+00,5.000000000000000000e+00,5.000000000000000000e+00,5.000000000000000000e+00,5.000000000000000000e+00,5.000000000000000000e+00,5.000000000000000000e+00,5.000000000000000000e+00,5.000000000000000000e+00,5.000000000000000000e+00,5.000000000000000000e+00,5.000000000000000000e+00,5.000000000000000000e+00,5.000000000000000000e+00,5.000000000000000000e+00,5.000000000000000000e+00,5.000000000000000000e+00,5.000000000000000000e+00,5.000000000000000000e+00,5.000000000000000000e+00,5.000000000000000000e+00,5.000000000000000000e+00,5.000000000000000000e+00,5.000000000000000000e+00,5.000000000000000000e+00,5.000000000000000000e+00,5.000000000000000000e+00,5.000000000000000000e+00,5.000000000000000000e+00,5.000000000000000000e+00,5.000000000000000000e+00,5.000000000000000000e+00,5.000000000000000000e+00,5.000000000000000000e+00,5.000000000000000000e+00,5.000000000000000000e+00,5.000000000000000000e+00,5.000000000000000000e+00,5.000000000000000000e+00,5.000000000000000000e+00,5.000000000000000000e+00,4.849595069885253906e+00,4.690381526947021484e+00,4.541289329528808594e+00,4.401384353637695312e+00,4.269841194152832031e+00,4.145932674407958984e+00,4.029013156890869141e+00,3.918507099151611328e+00,3.813901662826538086e+00,3.714735269546508789e+00
3.099732637405395508e+00,3.178123950958251953e+00,3.260582685470581055e+00,3.347434759140014648e+00,3.439040422439575195e+00,3.535800457000732422e+00,3.638163328170776367e+00,3.746629476547241211e+00,3.861762285232543945e+00,3.984195470809936523e+00,4.114645481109619141e+00,4.253927230834960938e+00,4.402968883514404297e+00,4.562833786010742188e+00,4.734744548797607422e+00,4.854112148284912109e+00,4.852908134460449219e+00,4.851705074310302734e+00,4.850502014160156250e+00,4.849300384521484375e+00,4.848098754882812500e+00,4.846898078918457031e+00,3.654977083206176758e+00,4.844498157501220703e+00,4.843298912048339844e+00,4.147200107574462891e+00,4.181426525115966797e+00,4.839705467224121094e+00,4.838508605957031250e+00,4.837312698364257812e+00,4.836116790771484375e+00,4.834922313690185547e+00,4.833727836608886719e+00,4.832533836364746094e+00,4.831340789794921875e+00,4.830148220062255859e+00,4.828956127166748047e+00,4.827764987945556641e+00,4.826574325561523438e+00,4.825384140014648438e+00,4.824194431304931641e+00,4.823005199432373047e+00,4.821816921234130859e+00,4.820629119873046875e+00,4.819441795349121094e+00,4.818254947662353516e+00,4.817069053649902344e+00,4.815883636474609375e+00,4.814698219299316406e+00,4.813514232635498047e+00,4.812330245971679688e+00,4.811147212982177734e+00,4.809964179992675781e+00,4.808782577514648438e+00,4.807600975036621094e+00,4.806420326232910156e+00,4.805239677429199219e+00,4.804059982299804688e+00,4.802880764007568359e+00,4.801702499389648438e+00,4.800524234771728516e+00,4.799346923828125000e+00,4.798170089721679688e+00,4.796994209289550781e+00,4.795818328857421875e+00,4.794643402099609375e+00,4.793468475341796875e+00,4.792294979095458984e+00,4.791121482849121094e+00,4.789948940277099609e+00,4.788776397705078125e+00,4.690514564514160156e+00,4.541414260864257812e+00,4.401501178741455078e+00,4.269951343536376953e+00,4.146036624908447266e+00,4.029111385345458984e+00,3.918600559234619141e+00,3.813989639282226562e+00,3.714818716049194336e+00
3.099666833877563477e+00,3.178054332733154297e+00,3.260509967803955078e+00,3.347357988357543945e+00,3.438959121704101562e+00,3.535714626312255859e+00,3.638072252273559570e+00,3.746533155441284180e+00,3.770670413970947266e+00,3.769943952560424805e+00,3.769217729568481445e+00,3.768491744995117188e+00,3.767766475677490234e+00,3.767040967941284180e+00,3.766315937042236328e+00,3.765590906143188477e+00,3.764866828918457031e+00,3.764142513275146484e+00,3.763418436050415039e+00,3.762694597244262695e+00,3.761971473693847656e+00,3.507775306701660156e+00,3.760525465011596680e+00,3.759802818298339844e+00,3.759080886840820312e+00,3.758358716964721680e+00,3.757637023925781250e+00,3.756915330886840820e+00,3.756194591522216797e+00,3.755473613739013672e+00,3.754752874374389648e+00,3.754032373428344727e+00,3.753312587738037109e+00,3.752592802047729492e+00,3.751873254776000977e+00,3.751153945922851562e+00,3.750435352325439453e+00,3.749716520309448242e+00,3.748997926712036133e+00,3.748279809951782227e+00,3.747562170028686523e+00,3.746844530105590820e+00,3.746127128601074219e+00,3.745409965515136719e+00,3.744693517684936523e+00,3.743977069854736328e+00,3.743260622024536133e+00,3.742544651031494141e+00,3.741829395294189453e+00,3.741113901138305664e+00,3.740398645401000977e+00,3.739683866500854492e+00,3.738969564437866211e+00,3.738255262374877930e+00,3.737540960311889648e+00,3.736827135086059570e+00,3.736114025115966797e+00,3.735400676727294922e+00,3.734687566757202148e+00,3.733974933624267578e+00,3.733262777328491211e+00,3.732550621032714844e+00,3.731838703155517578e+00,3.731127023696899414e+00,3.730416059494018555e+00,3.729704856872558594e+00,3.728994131088256836e+00,3.728283405303955078e+00,3.727573633193969727e+00,3.726863622665405273e+00,3.726153850555419922e+00,3.725444316864013672e+00,3.724735498428344727e+00,3.724026441574096680e+00,3.723317861557006836e+00,3.722609281539916992e+00,3.721901178359985352e+00,3.721193790435791016e+00,3.720486164093017578e+00,3.714902400970458984e+00
3.083110809326171875e+00,3.082625389099121094e+00,3.082139730453491211e+00,3.081654548645019531e+00,3.081169366836547852e+00,3.080684423446655273e+00,3.080199480056762695e+00,3.079714775085449219e+00,3.079230070114135742e+00,3.078745841979980469e+00,3.078261613845825195e+00,3.077777624130249023e+00,3.077293395996093750e+00,3.076809406280517578e+00,3.076325654983520508e+00,3.075842380523681641e+00,3.075358867645263672e+00,3.074875593185424805e+00,3.074392318725585938e+00,3.073909759521484375e+00,3.073426723480224609e+00,3.072944164276123047e+00,3.072461605072021484e+00,3.071979284286499023e+00,3.071497201919555664e+00,3.071014881134033203e+00,3.070533037185668945e+00,3.070051431655883789e+00,3.069569826126098633e+00,3.069088220596313477e+00,3.068607091903686523e+00,3.068125963211059570e+00,3.067645072937011719e+00,3.067164182662963867e+00,3.066683292388916016e+00,3.066203117370605469e+00,3.065722703933715820e+00,3.065242290496826172e+00,3.064762115478515625e+00,3.064282417297363281e+00,3.063802719116210938e+00,3.063323020935058594e+00,3.062843322753906250e+00,3.062364339828491211e+00,3.061885118484497070e+00,3.061405897140502930e+00,3.060926914215087891e+00,3.060448408126831055e+00,3.059969902038574219e+00,3.059491395950317383e+00,3.059012889862060547e+00,3.058535099029541016e+00,3.058057069778442383e+00,3.057579040527343750e+00,3.057101249694824219e+00,3.056623935699462891e+00,3.056146621704101562e+00,3.055669307708740234e+00,3.055191993713378906e+00,3.054715394973754883e+00,3.054238557815551758e+00,3.053761720657348633e+00,3.053285121917724609e+00,3.052809000015258789e+00,3.052332878112792969e+00,3.051856756210327148e+00,3.051380634307861328e+00,3.050905227661132812e+00,3.050429582595825195e+00,3.049953937530517578e+00,3.049478530883789062e+00,3.049003601074218750e+00,3.048528671264648438e+00,3.048053741455078125e+00,3.047578811645507812e+00,3.047104358673095703e+00,3.046630144119262695e+00,3.046155691146850586e+00,3.045681476593017578e+00,3.045207500457763672e+00
2.604848861694335938e+00,2.604502439498901367e+00,2.604155778884887695e+00,2.603809356689453125e+00,2.603462934494018555e+00,2.603116750717163086e+00,2.602770328521728516e+00,2.602424383163452148e+00,2.602078199386596680e+00,2.601732492446899414e+00,2.601386547088623047e+00,2.601040840148925781e+00,2.600695133209228516e+00,2.600349664688110352e+00,2.600004196166992188e+00,2.599658966064453125e+00,2.599313497543334961e+00,2.598968505859375000e+00,2.598623275756835938e+00,2.598278284072875977e+00,2.597933053970336914e+00,2.597588300704956055e+00,2.597243547439575195e+00,2.596898794174194336e+00,2.596554279327392578e+00,2.596209764480590820e+00,2.595865488052368164e+00,2.595520973205566406e+00,2.595176696777343750e+00,2.594832658767700195e+00,2.594488620758056641e+00,2.594144821166992188e+00,2.593800783157348633e+00,2.593456983566284180e+00,2.593113422393798828e+00,2.592769861221313477e+00,2.592426300048828125e+00,2.592082738876342773e+00,2.591739654541015625e+00,2.591396331787109375e+00,2.591053247451782227e+00,2.590710163116455078e+00,2.590367317199707031e+00,2.590024471282958984e+00,2.589681625366210938e+00,2.589338779449462891e+00,2.588996410369873047e+00,2.588653802871704102e+00,2.588311433792114258e+00,2.587969064712524414e+00,2.587626934051513672e+00,2.587284803390502930e+00,2.586942672729492188e+00,2.586600780487060547e+00,2.586258888244628906e+00,2.585917234420776367e+00,2.585575342178344727e+00,2.585233926773071289e+00,2.584892511367797852e+00,2.584551095962524414e+00,2.584209680557250977e+00,2.583868265151977539e+00,2.583527326583862305e+00,2.583186388015747070e+00,2.582845211029052734e+00,2.582504272460937500e+00,2.582163810729980469e+00,2.581822872161865234e+00,2.581482410430908203e+00,2.581141710281372070e+00,2.580801486968994141e+00,2.580461025238037109e+00,2.580120801925659180e+00,2.579780578613281250e+00,2.579440593719482422e+00,2.579100608825683594e+00,2.578760623931884766e+00,2.578420877456665039e+00,2.578081130981445312e+00,2.577741622924804688e+00
2.255039930343627930e+00,2.254780292510986328e+00,2.254520416259765625e+00,2.254260778427124023e+00,2.254001140594482422e+00,2.253741741180419922e+00,2.253482103347778320e+00,2.253222703933715820e+00,2.252963304519653320e+00,2.252704143524169922e+00,2.252444744110107422e+00,2.252185583114624023e+00,2.251926422119140625e+00,2.251667261123657227e+00,2.251408338546752930e+00,2.251149415969848633e+00,2.250890493392944336e+00,2.250631570816040039e+00,2.250372648239135742e+00,2.250114202499389648e+00,2.249855279922485352e+00,2.249596834182739258e+00,2.249338150024414062e+00,2.249079704284667969e+00,2.248821258544921875e+00,2.248562812805175781e+00,2.248304367065429688e+00,2.248046159744262695e+00,2.247787952423095703e+00,2.247529745101928711e+00,2.247271537780761719e+00,2.247013568878173828e+00,2.246755599975585938e+00,2.246497631072998047e+00,2.246239662170410156e+00,2.245981931686401367e+00,2.245724201202392578e+00,2.245466470718383789e+00,2.245208740234375000e+00,2.244951248168945312e+00,2.244693756103515625e+00,2.244436264038085938e+00,2.244178771972656250e+00,2.243921518325805664e+00,2.243664264678955078e+00,2.243407011032104492e+00,2.243149757385253906e+00,2.242892742156982422e+00,2.242635488510131836e+00,2.242378711700439453e+00,2.242121696472167969e+00,2.241864919662475586e+00,2.241607904434204102e+00,2.241351366043090820e+00,2.241094589233398438e+00,2.240837812423706055e+00,2.240581274032592773e+00,2.240324974060058594e+00,2.240068435668945312e+00,2.239811897277832031e+00,2.239555597305297852e+00,2.239299297332763672e+00,2.239043235778808594e+00,2.238786935806274414e+00,2.238530874252319336e+00,2.238274812698364258e+00,2.238018751144409180e+00,2.237762928009033203e+00,2.237506866455078125e+00,2.237251281738281250e+00,2.236995458602905273e+00,2.236739635467529297e+00,2.236484050750732422e+00,2.236228466033935547e+00,2.235972881317138672e+00,2.235717535018920898e+00,2.235461950302124023e+00,2.235206604003906250e+00,2.234951496124267578e+00,2.234696149826049805e+00
1.988060593605041504e+00,1.987858772277832031e+00,1.987656950950622559e+00,1.987454891204833984e+00,1.987253189086914062e+00,1.987051486968994141e+00,1.986849546432495117e+00,1.986647963523864746e+00,1.986446380615234375e+00,1.986244797706604004e+00,1.986043095588684082e+00,1.985841631889343262e+00,1.985640168190002441e+00,1.985438823699951172e+00,1.985237240791320801e+00,1.985036015510559082e+00,1.984834671020507812e+00,1.984633445739746094e+00,1.984432101249694824e+00,1.984230875968933105e+00,1.984029769897460938e+00,1.983828783035278320e+00,1.983627557754516602e+00,1.983426570892333984e+00,1.983225584030151367e+00,1.983024716377258301e+00,1.982823610305786133e+00,1.982622861862182617e+00,1.982422113418579102e+00,1.982221364974975586e+00,1.982020378112792969e+00,1.981819510459899902e+00,1.981618881225585938e+00,1.981418371200561523e+00,1.981217622756958008e+00,1.981017112731933594e+00,1.980816721916198730e+00,1.980616092681884766e+00,1.980415701866149902e+00,1.980215072631835938e+00,1.980014801025390625e+00,1.979814648628234863e+00,1.979614138603210449e+00,1.979413986206054688e+00,1.979213833808898926e+00,1.979013562202453613e+00,1.978813529014587402e+00,1.978613257408142090e+00,1.978413343429565430e+00,1.978213429450988770e+00,1.978013277053833008e+00,1.977813482284545898e+00,1.977613687515258789e+00,1.977413654327392578e+00,1.977213978767395020e+00,1.977014064788818359e+00,1.976814389228820801e+00,1.976614832878112793e+00,1.976415038108825684e+00,1.976215481758117676e+00,1.976016044616699219e+00,1.975816369056701660e+00,1.975616931915283203e+00,1.975417375564575195e+00,1.975218057632446289e+00,1.975018739700317383e+00,1.974819302558898926e+00,1.974620103836059570e+00,1.974421024322509766e+00,1.974221587181091309e+00,1.974022507667541504e+00,1.973823308944702148e+00,1.973624229431152344e+00,1.973425388336181641e+00,1.973226189613342285e+00,1.973027348518371582e+00,1.972828269004821777e+00,1.972629427909851074e+00,1.972430706024169922e+00,1.972231745719909668e+00
1.777605772018432617e+00,1.777444243431091309e+00,1.777282834053039551e+00,1.777121543884277344e+00,1.776960253715515137e+00,1.776798725128173828e+00,1.776637554168701172e+00,1.776476263999938965e+00,1.776315093040466309e+00,1.776153802871704102e+00,1.775992631912231445e+00,1.775831460952758789e+00,1.775670289993286133e+00,1.775509238243103027e+00,1.775348186492919922e+00,1.775187253952026367e+00,1.775026082992553711e+00,1.774865150451660156e+00,1.774704217910766602e+00,1.774543404579162598e+00,1.774382352828979492e+00,1.774221539497375488e+00,1.774060726165771484e+00,1.773900032043457031e+00,1.773739099502563477e+00,1.773578405380249023e+00,1.773417711257934570e+00,1.773257017135620117e+00,1.773096323013305664e+00,1.772935748100280762e+00,1.772775173187255859e+00,1.772614598274230957e+00,1.772453904151916504e+00,1.772293448448181152e+00,1.772133111953735352e+00,1.771972656250000000e+00,1.771812081336975098e+00,1.771651506423950195e+00,1.771491289138793945e+00,1.771330952644348145e+00,1.771170496940612793e+00,1.771010279655456543e+00,1.770849823951721191e+00,1.770689725875854492e+00,1.770529508590698242e+00,1.770369291305541992e+00,1.770209193229675293e+00,1.770049095153808594e+00,1.769888877868652344e+00,1.769728899002075195e+00,1.769568681716918945e+00,1.769408822059631348e+00,1.769248843193054199e+00,1.769088864326477051e+00,1.768929004669189453e+00,1.768769145011901855e+00,1.768609166145324707e+00,1.768449425697326660e+00,1.768289446830749512e+00,1.768129706382751465e+00,1.767970085144042969e+00,1.767810225486755371e+00,1.767650604248046875e+00,1.767490983009338379e+00,1.767331242561340332e+00,1.767171740531921387e+00,1.767012000083923340e+00,1.766852498054504395e+00,1.766693115234375000e+00,1.766533493995666504e+00,1.766374111175537109e+00,1.766214728355407715e+00,1.766055226325988770e+00,1.765895962715148926e+00,1.765736460685729980e+00,1.765577197074890137e+00,1.765418052673339844e+00,1.765258669853210449e+00,1.765099525451660156e+00,1.764940142631530762e+00
1.607442736625671387e+00,1.607310771942138672e+00,1.607178807258605957e+00,1.607046723365783691e+00,1.606914877891540527e+00,1.606782913208007812e+00,1.606651067733764648e+00,1.606519103050231934e+00,1.606387257575988770e+00,1.606255412101745605e+00,1.606123685836791992e+00,1.605991721153259277e+00,1.605859994888305664e+00,1.605728268623352051e+00,1.605596661567687988e+00,1.605464816093444824e+00,1.605333089828491211e+00,1.605201482772827148e+00,1.605069875717163086e+00,1.604938149452209473e+00,1.604806542396545410e+00,1.604675054550170898e+00,1.604543328285217285e+00,1.604411840438842773e+00,1.604280352592468262e+00,1.604148983955383301e+00,1.604017376899719238e+00,1.603885889053344727e+00,1.603754520416259766e+00,1.603623151779174805e+00,1.603491663932800293e+00,1.603360295295715332e+00,1.603229045867919922e+00,1.603097796440124512e+00,1.602966308593750000e+00,1.602835059165954590e+00,1.602703809738159180e+00,1.602572679519653320e+00,1.602441310882568359e+00,1.602310180664062500e+00,1.602179050445556641e+00,1.602047801017761230e+00,1.601916670799255371e+00,1.601785421371459961e+00,1.601654410362243652e+00,1.601523280143737793e+00,1.601392269134521484e+00,1.601261258125305176e+00,1.601130127906799316e+00,1.600999236106872559e+00,1.600868225097656250e+00,1.600737214088439941e+00,1.600606322288513184e+00,1.600475311279296875e+00,1.600344538688659668e+00,1.600213646888732910e+00,1.600082755088806152e+00,1.599951982498168945e+00,1.599821209907531738e+00,1.599690318107604980e+00,1.599559664726257324e+00,1.599428772926330566e+00,1.599298119544982910e+00,1.599167466163635254e+00,1.599036693572998047e+00,1.598906159400939941e+00,1.598775506019592285e+00,1.598644852638244629e+00,1.598514318466186523e+00,1.598383665084838867e+00,1.598253130912780762e+00,1.598122596740722656e+00,1.597992062568664551e+00,1.597861647605895996e+00,1.597731113433837891e+00,1.597600698471069336e+00,1.597470283508300781e+00,1.597339868545532227e+00,1.597209453582763672e+00,1.597079157829284668e+00
1.467011809349060059e+00,1.466901779174804688e+00,1.466791868209838867e+00,1.466681957244873047e+00,1.466572046279907227e+00,1.466462016105651855e+00,1.466352224349975586e+00,1.466242432594299316e+00,1.466132640838623047e+00,1.466022610664367676e+00,1.465912938117980957e+00,1.465803146362304688e+00,1.465693354606628418e+00,1.465583562850952148e+00,1.465473771095275879e+00,1.465364098548889160e+00,1.465254426002502441e+00,1.465144634246826172e+00,1.465034961700439453e+00,1.464925408363342285e+00,1.464815735816955566e+00,1.464706063270568848e+00,1.464596509933471680e+00,1.464486837387084961e+00,1.464377284049987793e+00,1.464267730712890625e+00,1.464158177375793457e+00,1.464048624038696289e+00,1.463939189910888672e+00,1.463829636573791504e+00,1.463720202445983887e+00,1.463610768318176270e+00,1.463501214981079102e+00,1.463391780853271484e+00,1.463282346725463867e+00,1.463173031806945801e+00,1.463063478469848633e+00,1.462954163551330566e+00,1.462844848632812500e+00,1.462735533714294434e+00,1.462626218795776367e+00,1.462516903877258301e+00,1.462407708168029785e+00,1.462298393249511719e+00,1.462189078330993652e+00,1.462079882621765137e+00,1.461970686912536621e+00,1.461861371994018555e+00,1.461752176284790039e+00,1.461642980575561523e+00,1.461533904075622559e+00,1.461424589157104492e+00,1.461315512657165527e+00,1.461206436157226562e+00,1.461097240447998047e+00,1.460988283157348633e+00,1.460879087448120117e+00,1.460770130157470703e+00,1.460661053657531738e+00,1.460551977157592773e+00,1.460443019866943359e+00,1.460334062576293945e+00,1.460225105285644531e+00,1.460116147994995117e+00,1.460007071495056152e+00,1.459898233413696289e+00,1.459789395332336426e+00,1.459680438041687012e+00,1.459571599960327148e+00,1.459462761878967285e+00,1.459353804588317871e+00,1.459245085716247559e+00,1.459136128425598145e+00,1.459027409553527832e+00,1.458918690681457520e+00,1.458809852600097656e+00,1.458701133728027344e+00,1.458592295646667480e+00,1.458483695983886719e+00,1.458374977111816406e+00
1.349146246910095215e+00,1.349053263664245605e+00,1.348960280418395996e+00,1.348867297172546387e+00,1.348774313926696777e+00,1.348681330680847168e+00,1.348588466644287109e+00,1.348495483398437500e+00,1.348402619361877441e+00,1.348309755325317383e+00,1.348216891288757324e+00,1.348123908042907715e+00,1.348031044006347656e+00,1.347938299179077148e+00,1.347845435142517090e+00,1.347752571105957031e+00,1.347659826278686523e+00,1.347566962242126465e+00,1.347474217414855957e+00,1.347381353378295898e+00,1.347288727760314941e+00,1.347195982933044434e+00,1.347103238105773926e+00,1.347010493278503418e+00,1.346917867660522461e+00,1.346825122833251953e+00,1.346732497215270996e+00,1.346639752388000488e+00,1.346547126770019531e+00,1.346454501152038574e+00,1.346361875534057617e+00,1.346269249916076660e+00,1.346176624298095703e+00,1.346084117889404297e+00,1.345991492271423340e+00,1.345898866653442383e+00,1.345806360244750977e+00,1.345713853836059570e+00,1.345621228218078613e+00,1.345528721809387207e+00,1.345436334609985352e+00,1.345343828201293945e+00,1.345251321792602539e+00,1.345158815383911133e+00,1.345066428184509277e+00,1.344974040985107422e+00,1.344881534576416016e+00,1.344789147377014160e+00,1.344696760177612305e+00,1.344604372978210449e+00,1.344511985778808594e+00,1.344419598579406738e+00,1.344327211380004883e+00,1.344234824180603027e+00,1.344142436981201172e+00,1.344050168991088867e+00,1.343957901000976562e+00,1.343865513801574707e+00,1.343773245811462402e+00,1.343680977821350098e+00,1.343588709831237793e+00,1.343496561050415039e+00,1.343404173851013184e+00,1.343312025070190430e+00,1.343219876289367676e+00,1.343127608299255371e+00,1.343035459518432617e+00,1.342943191528320312e+00,1.342851042747497559e+00,1.342759013175964355e+00,1.342666745185852051e+00,1.342574715614318848e+00,1.342482566833496094e+00,1.342390418052673340e+00,1.342298388481140137e+00,1.342206239700317383e+00,1.342114210128784180e+00,1.342022299766540527e+00,1.341930150985717773e+00,1.341838121414184570e+00
1.248811841011047363e+00,1.248732209205627441e+00,1.248652458190917969e+00,1.248572826385498047e+00,1.248493194580078125e+00,1.248413562774658203e+00,1.248333811759948730e+00,1.248254299163818359e+00,1.248174667358398438e+00,1.248095035552978516e+00,1.248015403747558594e+00,1.247935891151428223e+00,1.247856378555297852e+00,1.247776746749877930e+00,1.247697114944458008e+00,1.247617602348327637e+00,1.247538089752197266e+00,1.247458577156066895e+00,1.247379064559936523e+00,1.247299551963806152e+00,1.247220158576965332e+00,1.247140526771545410e+00,1.247061133384704590e+00,1.246981739997863770e+00,1.246902227401733398e+00,1.246822714805603027e+00,1.246743321418762207e+00,1.246663928031921387e+00,1.246584534645080566e+00,1.246505141258239746e+00,1.246425747871398926e+00,1.246346354484558105e+00,1.246267080307006836e+00,1.246187686920166016e+00,1.246108293533325195e+00,1.246029019355773926e+00,1.245949745178222656e+00,1.245870351791381836e+00,1.245791077613830566e+00,1.245711803436279297e+00,1.245632529258728027e+00,1.245553135871887207e+00,1.245473861694335938e+00,1.245394706726074219e+00,1.245315432548522949e+00,1.245236158370971680e+00,1.245156884193420410e+00,1.245077729225158691e+00,1.244998455047607422e+00,1.244919300079345703e+00,1.244840145111083984e+00,1.244760990142822266e+00,1.244681715965270996e+00,1.244602560997009277e+00,1.244523525238037109e+00,1.244444370269775391e+00,1.244365215301513672e+00,1.244286060333251953e+00,1.244206905364990234e+00,1.244127869606018066e+00,1.244048714637756348e+00,1.243969678878784180e+00,1.243890523910522461e+00,1.243811488151550293e+00,1.243732452392578125e+00,1.243653416633605957e+00,1.243574380874633789e+00,1.243495345115661621e+00,1.243416309356689453e+00,1.243337392807006836e+00,1.243258237838745117e+00,1.243179321289062500e+00,1.243100404739379883e+00,1.243021368980407715e+00,1.242942452430725098e+00,1.242863416671752930e+00,1.242784500122070312e+00,1.242705702781677246e+00,1.242626667022705078e+00,1.242547869682312012e+00
1.162367820739746094e+00,1.162298798561096191e+00,1.162229776382446289e+00,1.162160873413085938e+00,1.162091732025146484e+00,1.162022829055786133e+00,1.161953806877136230e+00,1.161884903907775879e+00,1.161815762519836426e+00,1.161746859550476074e+00,1.161677956581115723e+00,1.161609053611755371e+00,1.161540031433105469e+00,1.161471128463745117e+00,1.161402225494384766e+00,1.161333322525024414e+00,1.161264300346374512e+00,1.161195397377014160e+00,1.161126613616943359e+00,1.161057710647583008e+00,1.160988807678222656e+00,1.160919904708862305e+00,1.160851120948791504e+00,1.160782098770141602e+00,1.160713315010070801e+00,1.160644531250000000e+00,1.160575747489929199e+00,1.160506844520568848e+00,1.160438060760498047e+00,1.160369277000427246e+00,1.160300493240356445e+00,1.160231590270996094e+00,1.160162806510925293e+00,1.160094141960144043e+00,1.160025358200073242e+00,1.159956574440002441e+00,1.159887790679931641e+00,1.159819126129150391e+00,1.159750342369079590e+00,1.159681558609008789e+00,1.159612894058227539e+00,1.159544229507446289e+00,1.159475564956665039e+00,1.159406781196594238e+00,1.159338116645812988e+00,1.159269452095031738e+00,1.159200787544250488e+00,1.159132122993469238e+00,1.159063458442687988e+00,1.158994913101196289e+00,1.158926248550415039e+00,1.158857583999633789e+00,1.158788919448852539e+00,1.158720374107360840e+00,1.158651828765869141e+00,1.158583164215087891e+00,1.158514618873596191e+00,1.158446073532104492e+00,1.158377408981323242e+00,1.158308863639831543e+00,1.158240318298339844e+00,1.158171892166137695e+00,1.158103227615356445e+00,1.158034682273864746e+00,1.157966136932373047e+00,1.157897591590881348e+00,1.157829165458679199e+00,1.157760620117187500e+00,1.157692074775695801e+00,1.157623648643493652e+00,1.157555222511291504e+00,1.157486677169799805e+00,1.157418251037597656e+00,1.157349705696105957e+00,1.157281279563903809e+00,1.157212972640991211e+00,1.157144427299499512e+00,1.157076001167297363e+00,1.157007575035095215e+00,1.156939148902893066e+00
1.087116599082946777e+00,1.087056279182434082e+00,1.086995840072631836e+00,1.086935400962829590e+00,1.086875081062316895e+00,1.086814761161804199e+00,1.086754322052001953e+00,1.086694002151489258e+00,1.086633682250976562e+00,1.086573362350463867e+00,1.086513042449951172e+00,1.086452722549438477e+00,1.086392402648925781e+00,1.086332201957702637e+00,1.086271762847900391e+00,1.086211562156677246e+00,1.086151242256164551e+00,1.086091041564941406e+00,1.086030721664428711e+00,1.085970401763916016e+00,1.085910201072692871e+00,1.085850000381469727e+00,1.085789680480957031e+00,1.085729479789733887e+00,1.085669279098510742e+00,1.085609078407287598e+00,1.085548758506774902e+00,1.085488557815551758e+00,1.085428476333618164e+00,1.085368275642395020e+00,1.085307955741882324e+00,1.085247874259948730e+00,1.085187673568725586e+00,1.085127472877502441e+00,1.085067272186279297e+00,1.085007190704345703e+00,1.084946990013122559e+00,1.084886908531188965e+00,1.084826707839965820e+00,1.084766626358032227e+00,1.084706544876098633e+00,1.084646344184875488e+00,1.084586262702941895e+00,1.084526181221008301e+00,1.084466099739074707e+00,1.084405899047851562e+00,1.084345936775207520e+00,1.084285855293273926e+00,1.084225773811340332e+00,1.084165692329406738e+00,1.084105610847473145e+00,1.084045648574829102e+00,1.083985567092895508e+00,1.083925485610961914e+00,1.083865523338317871e+00,1.083805441856384277e+00,1.083745479583740234e+00,1.083685398101806641e+00,1.083625435829162598e+00,1.083565473556518555e+00,1.083505511283874512e+00,1.083445429801940918e+00,1.083385467529296875e+00,1.083325505256652832e+00,1.083265542984008789e+00,1.083205580711364746e+00,1.083145618438720703e+00,1.083085656166076660e+00,1.083025693893432617e+00,1.082965731620788574e+00,1.082905888557434082e+00,1.082845807075500488e+00,1.082785964012145996e+00,1.082726120948791504e+00,1.082666158676147461e+00,1.082606315612792969e+00,1.082546353340148926e+00,1.082486510276794434e+00,1.082426667213439941e+00,1.082366704940795898e+00
1.021016359329223633e+00,1.020963072776794434e+00,1.020909905433654785e+00,1.020856618881225586e+00,1.020803332328796387e+00,1.020750045776367188e+00,1.020696878433227539e+00,1.020643711090087891e+00,1.020590424537658691e+00,1.020537137985229492e+00,1.020483970642089844e+00,1.020430803298950195e+00,1.020377516746520996e+00,1.020324349403381348e+00,1.020271182060241699e+00,1.020218014717102051e+00,1.020164847373962402e+00,1.020111680030822754e+00,1.020058512687683105e+00,1.020005345344543457e+00,1.019952178001403809e+00,1.019899010658264160e+00,1.019845843315124512e+00,1.019792795181274414e+00,1.019739508628845215e+00,1.019686460494995117e+00,1.019633293151855469e+00,1.019580245018005371e+00,1.019527077674865723e+00,1.019474029541015625e+00,1.019420862197875977e+00,1.019367814064025879e+00,1.019314646720886230e+00,1.019261598587036133e+00,1.019208550453186035e+00,1.019155502319335938e+00,1.019102334976196289e+00,1.019049286842346191e+00,1.018996238708496094e+00,1.018943190574645996e+00,1.018890142440795898e+00,1.018837094306945801e+00,1.018784046173095703e+00,1.018730998039245605e+00,1.018678069114685059e+00,1.018625020980834961e+00,1.018571972846984863e+00,1.018518924713134766e+00,1.018465995788574219e+00,1.018412947654724121e+00,1.018360018730163574e+00,1.018306970596313477e+00,1.018254041671752930e+00,1.018200993537902832e+00,1.018148064613342285e+00,1.018095135688781738e+00,1.018042087554931641e+00,1.017989158630371094e+00,1.017936229705810547e+00,1.017883300781250000e+00,1.017830371856689453e+00,1.017777442932128906e+00,1.017724514007568359e+00,1.017671585083007812e+00,1.017618656158447266e+00,1.017565727233886719e+00,1.017512917518615723e+00,1.017459988594055176e+00,1.017407059669494629e+00,1.017354130744934082e+00,1.017301321029663086e+00,1.017248392105102539e+00,1.017195582389831543e+00,1.017142653465270996e+00,1.017089724540710449e+00,1.017036914825439453e+00,1.016983985900878906e+00,1.016931176185607910e+00,1.016878366470336914e+00,1.016825437545776367e+00
9.624937176704406738e-01,9.624463319778442383e-01,9.623990654945373535e-01,9.623516798019409180e-01,9.623043537139892578e-01,9.622570872306823730e-01,9.622097611427307129e-01,9.621623754501342773e-01,9.621151685714721680e-01,9.620678424835205078e-01,9.620206356048583984e-01,9.619733095169067383e-01,9.619259834289550781e-01,9.618787765502929688e-01,9.618314504623413086e-01,9.617841243743896484e-01,9.617369174957275391e-01,9.616896510124206543e-01,9.616423249244689941e-01,9.615951776504516602e-01,9.615479111671447754e-01,9.615007042884826660e-01,9.614534378051757812e-01,9.614061713218688965e-01,9.613590240478515625e-01,9.613117575645446777e-01,9.612644910812377930e-01,9.612173438072204590e-01,9.611700773239135742e-01,9.611229896545410156e-01,9.610757231712341309e-01,9.610285162925720215e-01,9.609813690185546875e-01,9.609341621398925781e-01,9.608868956565856934e-01,9.608398079872131348e-01,9.607926011085510254e-01,9.607455134391784668e-01,9.606983065605163574e-01,9.606510996818542480e-01,9.606040120124816895e-01,9.605568647384643555e-01,9.605096578598022461e-01,9.604625701904296875e-01,9.604154229164123535e-01,9.603683352470397949e-01,9.603211879730224609e-01,9.602740406990051270e-01,9.602269530296325684e-01,9.601798057556152344e-01,9.601326584815979004e-01,9.600856304168701172e-01,9.600384831428527832e-01,9.599913954734802246e-01,9.599443674087524414e-01,9.598972201347351074e-01,9.598502516746520996e-01,9.598031044006347656e-01,9.597560167312622070e-01,9.597089886665344238e-01,9.596619009971618652e-01,9.596148133277893066e-01,9.595678448677062988e-01,9.595207571983337402e-01,9.594737887382507324e-01,9.594267010688781738e-01,9.593796133995056152e-01,9.593326449394226074e-01,9.592856168746948242e-01,9.592385292053222656e-01,9.591915607452392578e-01,9.591445326805114746e-01,9.590976238250732422e-01,9.590505361557006836e-01,9.590035080909729004e-01,9.589565992355346680e-01,9.589095711708068848e-01,9.588625431060791016e-01,9.588156342506408691e-01,9.587685465812683105e-01
9.103160500526428223e-01,9.102736711502075195e-01,9.102314114570617676e-01,9.101890325546264648e-01,9.101467728614807129e-01,9.101043939590454102e-01,9.100620746612548828e-01,9.100198149681091309e-01,9.099774360656738281e-01,9.099351167678833008e-01,9.098928570747375488e-01,9.098505377769470215e-01,9.098082780838012695e-01,9.097659587860107422e-01,9.097236394882202148e-01,9.096813797950744629e-01,9.096390604972839355e-01,9.095968008041381836e-01,9.095545411109924316e-01,9.095122814178466797e-01,9.094700217247009277e-01,9.094277620315551758e-01,9.093854427337646484e-01,9.093432426452636719e-01,9.093009829521179199e-01,9.092587232589721680e-01,9.092165231704711914e-01,9.091742634773254395e-01,9.091319441795349121e-01,9.090898036956787109e-01,9.090475440025329590e-01,9.090054035186767578e-01,9.089631438255310059e-01,9.089208841323852539e-01,9.088787436485290527e-01,9.088364839553833008e-01,9.087942242622375488e-01,9.087520837783813477e-01,9.087098836898803711e-01,9.086677432060241699e-01,9.086255431175231934e-01,9.085832834243774414e-01,9.085412025451660156e-01,9.084990024566650391e-01,9.084567427635192871e-01,9.084146618843078613e-01,9.083724617958068848e-01,9.083303809165954590e-01,9.082881808280944824e-01,9.082459807395935059e-01,9.082038998603820801e-01,9.081616997718811035e-01,9.081195592880249023e-01,9.080774784088134766e-01,9.080352783203125000e-01,9.079932570457458496e-01,9.079510569572448730e-01,9.079089164733886719e-01,9.078668355941772461e-01,9.078246951103210449e-01,9.077825546264648438e-01,9.077405333518981934e-01,9.076983928680419922e-01,9.076562523841857910e-01,9.076142311096191406e-01,9.075720906257629395e-01,9.075300693511962891e-01,9.074879288673400879e-01,9.074458479881286621e-01,9.074038267135620117e-01,9.073617458343505859e-01,9.073196053504943848e-01,9.072776436805725098e-01,9.072355031967163086e-01,9.071935415267944336e-01,9.071514606475830078e-01,9.071093797683715820e-01,9.070673584938049316e-01,9.070253372192382812e-01,9.069832563400268555e-01
8.635047078132629395e-01,8.634666800498962402e-01,8.634285330772399902e-01,8.633903861045837402e-01,8.633523583412170410e-01,8.633142709732055664e-01,8.632762432098388672e-01,8.632380962371826172e-01,8.632000088691711426e-01,8.631619811058044434e-01,8.631238937377929688e-01,8.630858063697814941e-01,8.630477786064147949e-01,8.630096912384033203e-01,8.629717230796813965e-01,8.629336357116699219e-01,8.628955483436584473e-01,8.628575801849365234e-01,8.628194928169250488e-01,8.627814054489135742e-01,8.627434372901916504e-01,8.627053499221801758e-01,8.626673817634582520e-01,8.626293540000915527e-01,8.625912666320800781e-01,8.625532984733581543e-01,8.625152707099914551e-01,8.624772429466247559e-01,8.624392747879028320e-01,8.624012470245361328e-01,8.623632192611694336e-01,8.623252511024475098e-01,8.622872233390808105e-01,8.622493147850036621e-01,8.622112870216369629e-01,8.621732592582702637e-01,8.621353507041931152e-01,8.620973229408264160e-01,8.620593547821044922e-01,8.620213866233825684e-01,8.619834184646606445e-01,8.619455099105834961e-01,8.619075417518615723e-01,8.618695139884948730e-01,8.618316054344177246e-01,8.617936372756958008e-01,8.617556691169738770e-01,8.617177605628967285e-01,8.616797924041748047e-01,8.616419434547424316e-01,8.616039752960205078e-01,8.615660071372985840e-01,8.615280985832214355e-01,8.614901304244995117e-01,8.614522218704223633e-01,8.614143729209899902e-01,8.613764047622680664e-01,8.613385558128356934e-01,8.613005876541137695e-01,8.612626791000366211e-01,8.612248301506042480e-01,8.611869215965270996e-01,8.611489534378051758e-01,8.611111044883728027e-01,8.610731959342956543e-01,8.610352873802185059e-01,8.609974980354309082e-01,8.609595298767089844e-01,8.609217405319213867e-01,8.608838319778442383e-01,8.608459234237670898e-01,8.608081340789794922e-01,8.607702255249023438e-01,8.607323169708251953e-01,8.606945276260375977e-01,8.606566786766052246e-01,8.606188893318176270e-01,8.605809807777404785e-01,8.605431318283081055e-01,8.605053424835205078e-01
8.212723135948181152e-01,8.212378621101379395e-01,8.212033510208129883e-01,8.211689591407775879e-01,8.211344480514526367e-01,8.210999965667724609e-01,8.210656046867370605e-01,8.210310935974121094e-01,8.209967017173767090e-01,8.209622502326965332e-01,8.209277987480163574e-01,8.208934068679809570e-01,8.208589553833007812e-01,8.208245038986206055e-01,8.207901120185852051e-01,8.207556605339050293e-01,8.207213282585144043e-01,8.206868767738342285e-01,8.206524252891540527e-01,8.206180334091186523e-01,8.205836415290832520e-01,8.205491900444030762e-01,8.205148577690124512e-01,8.204804062843322754e-01,8.204460740089416504e-01,8.204116225242614746e-01,8.203772306442260742e-01,8.203428983688354492e-01,8.203084468841552734e-01,8.202740550041198730e-01,8.202397227287292480e-01,8.202053308486938477e-01,8.201709985733032227e-01,8.201366066932678223e-01,8.201022148132324219e-01,8.200678825378417969e-01,8.200334906578063965e-01,8.199990987777709961e-01,8.199648261070251465e-01,8.199304342269897461e-01,8.198960423469543457e-01,8.198617696762084961e-01,8.198273777961730957e-01,8.197931051254272461e-01,8.197587132453918457e-01,8.197243809700012207e-01,8.196900486946105957e-01,8.196557164192199707e-01,8.196213245391845703e-01,8.195870518684387207e-01,8.195527195930480957e-01,8.195184469223022461e-01,8.194841146469116211e-01,8.194497823715209961e-01,8.194155097007751465e-01,8.193811774253845215e-01,8.193468451499938965e-01,8.193125724792480469e-01,8.192782402038574219e-01,8.192440271377563477e-01,8.192096948623657227e-01,8.191753625869750977e-01,8.191411495208740234e-01,8.191068172454833984e-01,8.190724849700927734e-01,8.190382719039916992e-01,8.190039992332458496e-01,8.189697861671447754e-01,8.189354538917541504e-01,8.189011812210083008e-01,8.188669681549072266e-01,8.188326358795166016e-01,8.187983632087707520e-01,8.187641501426696777e-01,8.187298774719238281e-01,8.186956048011779785e-01,8.186613917350769043e-01,8.186271190643310547e-01,8.185929656028747559e-01,8.185586929321289062e-01
7.829782962799072266e-01,7.829469442367553711e-01,7.829157114028930664e-01,7.828843593597412109e-01,7.828530073165893555e-01,7.828217148780822754e-01,7.827904224395751953e-01,7.827591300010681152e-01,7.827277779579162598e-01,7.826964855194091797e-01,7.826651930809020996e-01,7.826339006423950195e-01,7.826025485992431641e-01,7.825713157653808594e-01,7.825400233268737793e-01,7.825086712837219238e-01,7.824774384498596191e-01,7.824461460113525391e-01,7.824149131774902344e-01,7.823835611343383789e-01,7.823522686958312988e-01,7.823210358619689941e-01,7.822897434234619141e-01,7.822584509849548340e-01,7.822272181510925293e-01,7.821959257125854492e-01,7.821647524833679199e-01,7.821334600448608398e-01,7.821021676063537598e-01,7.820709347724914551e-01,7.820397019386291504e-01,7.820084095001220703e-01,7.819771766662597656e-01,7.819459438323974609e-01,7.819147109985351562e-01,7.818834781646728516e-01,7.818521857261657715e-01,7.818210124969482422e-01,7.817897796630859375e-01,7.817584872245788574e-01,7.817273139953613281e-01,7.816960811614990234e-01,7.816649079322814941e-01,7.816336750984191895e-01,7.816023826599121094e-01,7.815712094306945801e-01,7.815399765968322754e-01,7.815087437629699707e-01,7.814775705337524414e-01,7.814463973045349121e-01,7.814151644706726074e-01,7.813839912414550781e-01,7.813527584075927734e-01,7.813215851783752441e-01,7.812904119491577148e-01,7.812591791152954102e-01,7.812280654907226562e-01,7.811968326568603516e-01,7.811655998229980469e-01,7.811344861984252930e-01,7.811032533645629883e-01,7.810721397399902344e-01,7.810409665107727051e-01,7.810097336769104004e-01,7.809786200523376465e-01,7.809474468231201172e-01,7.809162735939025879e-01,7.808851599693298340e-01,7.808539867401123047e-01,7.808228731155395508e-01,7.807916402816772461e-01,7.807604670524597168e-01,7.807294130325317383e-01,7.806982398033142090e-01,7.806670665740966797e-01,7.806359529495239258e-01,7.806047797203063965e-01,7.805737257003784180e-01,7.805425524711608887e-01,7.805113792419433594e-01
7.480962872505187988e-01,7.480677366256713867e-01,7.480391263961791992e-01,7.480105161666870117e-01,7.479819655418395996e-01,7.479533553123474121e-01,7.479247450828552246e-01,7.478961944580078125e-01,7.478675842285156250e-01,7.478390932083129883e-01,7.478104829788208008e-01,7.477818727493286133e-01,7.477533221244812012e-01,7.477247714996337891e-01,7.476961612701416016e-01,7.476676106452941895e-01,7.476390600204467773e-01,7.476105093955993652e-01,7.475819587707519531e-01,7.475533485412597656e-01,7.475248575210571289e-01,7.474963068962097168e-01,7.474676966667175293e-01,7.474392056465148926e-01,7.474106550216674805e-01,7.473820447921752930e-01,7.473535537719726562e-01,7.473250031471252441e-01,7.472965121269226074e-01,7.472679615020751953e-01,7.472394108772277832e-01,7.472109198570251465e-01,7.471823692321777344e-01,7.471538186073303223e-01,7.471253275871276855e-01,7.470967769622802734e-01,7.470682859420776367e-01,7.470397353172302246e-01,7.470112442970275879e-01,7.469827532768249512e-01,7.469542026519775391e-01,7.469256520271301270e-01,7.468972206115722656e-01,7.468686699867248535e-01,7.468402385711669922e-01,7.468116879463195801e-01,7.467831969261169434e-01,7.467547059059143066e-01,7.467262148857116699e-01,7.466977238655090332e-01,7.466692328453063965e-01,7.466407418251037598e-01,7.466123104095458984e-01,7.465838193893432617e-01,7.465552687644958496e-01,7.465268373489379883e-01,7.464983463287353516e-01,7.464698553085327148e-01,7.464414238929748535e-01,7.464129328727722168e-01,7.463844418525695801e-01,7.463560104370117188e-01,7.463275194168090820e-01,7.462990880012512207e-01,7.462706565856933594e-01,7.462421655654907227e-01,7.462137341499328613e-01,7.461852431297302246e-01,7.461568117141723633e-01,7.461283802986145020e-01,7.460998892784118652e-01,7.460715174674987793e-01,7.460430264472961426e-01,7.460145950317382812e-01,7.459861636161804199e-01,7.459577322006225586e-01,7.459292411804199219e-01,7.459008693695068359e-01,7.458724379539489746e-01,7.458440661430358887e-01
7.161897420883178711e-01,7.161635756492614746e-01,7.161373496055603027e-01,7.161111831665039062e-01,7.160849571228027344e-01,7.160587310791015625e-01,7.160325646400451660e-01,7.160063385963439941e-01,7.159801125526428223e-01,7.159540057182312012e-01,7.159277796745300293e-01,7.159016132354736328e-01,7.158753871917724609e-01,7.158492207527160645e-01,7.158230543136596680e-01,7.157968878746032715e-01,7.157706618309020996e-01,7.157444953918457031e-01,7.157183289527893066e-01,7.156921625137329102e-01,7.156659960746765137e-01,7.156397700309753418e-01,7.156136631965637207e-01,7.155874967575073242e-01,7.155612707138061523e-01,7.155351638793945312e-01,7.155089974403381348e-01,7.154828906059265137e-01,7.154566645622253418e-01,7.154304981231689453e-01,7.154043912887573242e-01,7.153782248497009277e-01,7.153520584106445312e-01,7.153259515762329102e-01,7.152997851371765137e-01,7.152736186981201172e-01,7.152475118637084961e-01,7.152213454246520996e-01,7.151952385902404785e-01,7.151690721511840820e-01,7.151429653167724609e-01,7.151168584823608398e-01,7.150906920433044434e-01,7.150645256042480469e-01,7.150384783744812012e-01,7.150123119354248047e-01,7.149862051010131836e-01,7.149600982666015625e-01,7.149339318275451660e-01,7.149078845977783203e-01,7.148817181587219238e-01,7.148556113243103027e-01,7.148295044898986816e-01,7.148033976554870605e-01,7.147773504257202148e-01,7.147511839866638184e-01,7.147250771522521973e-01,7.146990299224853516e-01,7.146729230880737305e-01,7.146467566490173340e-01,7.146207094192504883e-01,7.145946025848388672e-01,7.145685553550720215e-01,7.145424485206604004e-01,7.145163416862487793e-01,7.144902944564819336e-01,7.144641876220703125e-01,7.144380807876586914e-01,7.144120335578918457e-01,7.143859267234802246e-01,7.143598198890686035e-01,7.143337726593017578e-01,7.143077254295349121e-01,7.142816781997680664e-01,7.142555713653564453e-01,7.142294645309448242e-01,7.142034769058227539e-01,7.141773700714111328e-01,7.141512632369995117e-01,7.141252756118774414e-01
6.868935823440551758e-01,6.868694424629211426e-01,6.868453621864318848e-01,6.868212819099426270e-01,6.867971420288085938e-01,6.867730617523193359e-01,6.867489218711853027e-01,6.867248415946960449e-01,6.867007613182067871e-01,6.866766214370727539e-01,6.866525411605834961e-01,6.866284608840942383e-01,6.866043806076049805e-01,6.865803003311157227e-01,6.865562200546264648e-01,6.865320801734924316e-01,6.865080595016479492e-01,6.864839792251586914e-01,6.864598393440246582e-01,6.864358186721801758e-01,6.864117383956909180e-01,6.863876581192016602e-01,6.863635778427124023e-01,6.863394975662231445e-01,6.863154768943786621e-01,6.862913966178894043e-01,6.862673163414001465e-01,6.862432360649108887e-01,6.862191557884216309e-01,6.861951351165771484e-01,6.861710548400878906e-01,6.861469745635986328e-01,6.861229538917541504e-01,6.860988736152648926e-01,6.860748529434204102e-01,6.860508322715759277e-01,6.860267519950866699e-01,6.860027313232421875e-01,6.859786510467529297e-01,6.859545707702636719e-01,6.859306097030639648e-01,6.859065294265747070e-01,6.858824491500854492e-01,6.858584880828857422e-01,6.858344078063964844e-01,6.858103871345520020e-01,6.857863664627075195e-01,6.857622861862182617e-01,6.857383251190185547e-01,6.857143044471740723e-01,6.856902241706848145e-01,6.856662631034851074e-01,6.856421828269958496e-01,6.856181621551513672e-01,6.855942010879516602e-01,6.855701208114624023e-01,6.855461597442626953e-01,6.855221390724182129e-01,6.854981184005737305e-01,6.854740977287292480e-01,6.854500770568847656e-01,6.854260563850402832e-01,6.854020953178405762e-01,6.853780746459960938e-01,6.853541135787963867e-01,6.853300929069519043e-01,6.853060722351074219e-01,6.852821111679077148e-01,6.852580904960632324e-01,6.852340698242187500e-01,6.852101087570190430e-01,6.851860880851745605e-01,6.851621270179748535e-01,6.851381659507751465e-01,6.851141452789306641e-01,6.850901842117309570e-01,6.850661635398864746e-01,6.850422024726867676e-01,6.850182414054870605e-01,6.849942803382873535e-01
