3.101792097091674805e+00,3.180288553237915039e+00,3.262861251831054688e+00,3.349835634231567383e+00,3.441574096679687500e+00,3.538475036621093750e+00,3.640986919403076172e+00,3.749615430831909180e+00,3.864925384521484375e+00,3.987552404403686523e+00,4.118215560913085938e+00,4.257731914520263672e+00,4.407032966613769531e+00,4.567185401916503906e+00,4.739417076110839844e+00,4.925147056579589844e+00,5.000000000000000000e+00,5.000000000000000000e+00,5.000000000000000000e+00,5.000000000000000000e+00,5.000000000000000000e+00,5.000000000000000000e+00,5.000000000000000000e+00,5.000000000000000000e+00,5.000000000000000000e+00,5.000000000000000000e+00,5.000000000000000000e+00,5.000000000000000000e+00,5.000000000000000000e+00,5.000000000000000000e+00,5.000000000000000000e+00,5.000000000000000000e+00,5.000000000000000000e+00,5.000000000000000000e+00,5.000000000000000000e+00,5.000000000000000000e+00,5.000000000000000000e+00,5.000000000000000000e+00,5.000000000000000000e+00,5.000000000000000000e+00,5.000000000000000000e+00,5.000000000000000000e+00,5.000000000000000000e+00,5.000000000000000000e+00,5.000000000000000000e+00,5.000000000000000000e+00,5.000000000000000000e+00,5.000000000000000000e+00,5.000000000000000000e+00,5.000000000000000000e+00,5.000000000000000000e+00,5.000000000000000000e+00,5.000000000000000000e+00,5.000000000000000000e+00,5.000000000000000000e+00,5.000000000000000000e+00,5.000000000000000000e+00,5.000000000000000000e+00,5.000000000000000000e+00,5.000000000000000000e+00,5.000000000000000000e+00,5.000000000000000000e+00,5.000000000000000000e+00,5.000000000000000000e+00,5.000000000000000000e+00,5.000000000000000000e+00,5.000000000000000000e+00,5.000000000000000000e+00,5.000000000000000000e+00,5.000000000000000000e+00,4.845729827880859375e+00,4.686764717102050781e+00,4.537897586822509766e+00,4.398197174072265625e+00,4.266840934753417969e+00,4.143103122711181641e+00,4.026340007781982422e+00,3.915978193283081055e+00,3.811504602432250977e+00,3.712460994720458984e+00
3.101725816726684570e+00,3.180218935012817383e+00,3.262787818908691406e+00,3.349758625030517578e+00,3.441492795944213867e+00,3.538393020629882812e+00,3.640903949737548828e+00,3.749527454376220703e+00,3.864831447601318359e+00,3.987452268600463867e+00,4.118109226226806641e+00,4.257618427276611328e+00,4.406911373138427734e+00,4.567054748535156250e+00,4.739275932312011719e+00,4.924994945526123047e+00,5.000000000000000000e+00,5.000000000000000000e+00,5.000000000000000000e+00,5.000000000000000000e+00,5.000000000000000000e+00,5.000000000000000000e+00,5.000000000000000000e+00,5.000000000000000000e+00,5.000000000000000000e+00,5.000000000000000000e+00,5.000000000000000000e+00,5.000000000000000000e+00,5.000000000000000000e+00,5.000000000000000000e+00,5.000000000000000000e+00,5.000000000000000000e+00,5.000000000000000000e+00,5.000000000000000000e+00,5.000000000000000000e+00,5.000000000000000000e+00,5.000000000000000000e+00,5.000000000000000000e+00,5.000000000000000000e+00,5.000000000000000000e+00,5.000000000000000000e+00,5.000000000000000000e+00,5.000000000000000000e+00,5.000000000000000000e+00,5.000000000000000000e+00,5.000000000000000000e+00,5.000000000000000000e+00,5.000000000000000000e+00,5.000000000000000000e+00,5.000000000000000000e+00,5.000000000000000000e+00,5.000000000000000000e+00,5.000000000000000000e+00,5.000000000000000000e+00,5.000000000000000000e+00,5.000000000000000000e+00,5.000000000000000000e+00,5.000000000000000000e+00,5.000000000000000000e+00,5.000000000000000000e+00,5.000000000000000000e+00,5.000000000000000000e+00,5.000000000000000000e+00,5.000000000000000000e+00,5.000000000000000000e+00,5.000000000000000000e+00,5.000000000000000000e+00,5.000000000000000000e+00,5.000000000000000000e+00,5.000000000000000000e+00,4.845871925354003906e+00,4.686897277832031250e+00,4.538022518157958984e+00,4.398313999176025391e+00,4.266951084136962891e+00,4.143207073211669922e+00,4.026438236236572266e+00,3.916070938110351562e+00,3.811592578887939453e+00,6.369152665138244629e-01
3.101659774780273438e+00,3.180149555206298828e+00,3.262714862823486328e+00,3.349681615829467773e+00,3.441411733627319336e+00,3.538307189941406250e+00,3.640816926956176758e+00,3.749439001083374023e+00,3.864737987518310547e+00,3.987352848052978516e+00,4.118002891540527344e+00,4.257504463195800781e+00,4.406789302825927734e+00,4.566924095153808594e+00,4.739135265350341797e+00,4.924842834472656250e+00,5.000000000000000000e+00,5.000000000000000000e+00,5.000000000000000000e+00,5.000000000000000000e+00,5.000000000000000000e+00,5.000000000000000000e+00,5.000000000000000000e+00,5.000000000000000000e+00,5.000000000000000000e+00,5.000000000000000000e+00,5.000000000000000000e+00,5.000000000000000000e+00,5.000000000000000000e+00,5.000000000000000000e+00,5.000000000000000000e+00,5.000000000000000000e+00,5.000000000000000000e+00,5.000000000000000000e+00,5.000000000000000000e+00,5.000000000000000000e+00,5.000000000000000000e+00,5.000000000000000000e+00,5.000000000000000000e+00,5.000000000000000000e+00,5.000000000000000000e+00,5.000000000000000000e+00,5.000000000000000000e+00,5.000000000000000000e+00,5.000000000000000000e+00,5.000000000000000000e+00,5.000000000000000000e+00,5.000000000000000000e+00,5.000000000000000000e+00,5.000000000000000000e+00,5.000000000000000000e+00,5.000000000000000000e+00,5.000000000000000000e+00,5.000000000000000000e+00,5.000000000000000000e+00,5.000000000000000000e+00,5.000000000000000000e+00,5.000000000000000000e+00,5.000000000000000000e+00,5.000000000000000000e+00,5.000000000000000000e+00,5.000000000000000000e+00,5.000000000000000000e+00,5.000000000000000000e+00,5.000000000000000000e+00,5.000000000000000000e+00,5.000000000000000000e+00,5.000000000000000000e+00,5.000000000000000000e+00,5.000000000000000000e+00,4.846013545989990234e+00,4.687030315399169922e+00,4.538146972656250000e+00,4.398430824279785156e+00,4.267061233520507812e+00,4.143311023712158203e+00,4.026536464691162109e+00,3.916162490844726562e+00,6.224417686462402344e-01,6.122458577156066895e-01
3.101593971252441406e+00,3.180080175399780273e+00,3.262641906738281250e+00,3.349604368209838867e+00,3.441330194473266602e+00,3.538220882415771484e+00,3.640725851058959961e+00,3.749346971511840820e+00,3.864644050598144531e+00,3.987252950668334961e+00,4.117896556854248047e+00,4.257390975952148438e+00,4.406667709350585938e+00,4.566792964935302734e+00,4.738994121551513672e+00,4.924690723419189453e+00,5.000000000000000000e+00,5.000000000000000000e+00,5.000000000000000000e+00,5.000000000000000000e+00,5.000000000000000000e+00,5.000000000000000000e+00,5.000000000000000000e+00,5.000000000000000000e+00,5.000000000000000000e+00,5.000000000000000000e+00,5.000000000000000000e+00,5.000000000000000000e+00,5.000000000000000000e+00,5.000000000000000000e+00,5.000000000000000000e+00,5.000000000000000000e+00,5.000000000000000000e+00,5.000000000000000000e+00,5.000000000000000000e+00,5.000000000000000000e+00,5.000000000000000000e+00,5.000000000000000000e+00,5.000000000000000000e+00,5.000000000000000000e+00,5.000000000000000000e+00,5.000000000000000000e+00,5.000000000000000000e+00,5.000000000000000000e+00,5.000000000000000000e+00,5.000000000000000000e+00,5.000000000000000000e+00,5.000000000000000000e+00,5.000000000000000000e+00,5.000000000000000000e+00,5.000000000000000000e+00,5.000000000000000000e+00,5.000000000000000000e+00,5.000000000000000000e+00,5.000000000000000000e+00,5.000000000000000000e+00,5.000000000000000000e+00,5.000000000000000000e+00,5.000000000000000000e+00,5.000000000000000000e+00,5.000000000000000000e+00,5.000000000000000000e+00,5.000000000000000000e+00,5.000000000000000000e+00,5.000000000000000000e+00,5.000000000000000000e+00,5.000000000000000000e+00,5.000000000000000000e+00,5.000000000000000000e+00,5.000000000000000000e+00,4.846155643463134766e+00,4.687162876129150391e+00,4.538271427154541016e+00,4.398548126220703125e+00,4.267171382904052734e+00,4.143410682678222656e+00,6.436604857444763184e-01,6.299995779991149902e-01,6.197890043258666992e-01,6.101990938186645508e-01
3.101527690887451172e+00,3.180010557174682617e+00,3.262568712234497070e+00,3.349527597427368164e+00,3.441248893737792969e+00,3.538135051727294922e+00,3.640634775161743164e+00,3.749250650405883789e+00,3.864546537399291992e+00,3.987153291702270508e+00,4.117790222167968750e+00,4.257277011871337891e+00,4.406545639038085938e+00,4.566662311553955078e+00,4.738853454589843750e+00,4.924538612365722656e+00,5.000000000000000000e+00,5.000000000000000000e+00,5.000000000000000000e+00,5.000000000000000000e+00,5.000000000000000000e+00,5.000000000000000000e+00,5.000000000000000000e+00,5.000000000000000000e+00,5.000000000000000000e+00,5.000000000000000000e+00,5.000000000000000000e+00,5.000000000000000000e+00,5.000000000000000000e+00,5.000000000000000000e+00,5.000000000000000000e+00,5.000000000000000000e+00,5.000000000000000000e+00,5.000000000000000000e+00,5.000000000000000000e+00,5.000000000000000000e+00,5.000000000000000000e+00,5.000000000000000000e+00,5.000000000000000000e+00,5.000000000000000000e+00,5.000000000000000000e+00,5.000000000000000000e+00,5.000000000000000000e+00,5.000000000000000000e+00,5.000000000000000000e+00,5.000000000000000000e+00,5.000000000000000000e+00,5.000000000000000000e+00,5.000000000000000000e+00,5.000000000000000000e+00,5.000000000000000000e+00,5.000000000000000000e+00,5.000000000000000000e+00,5.000000000000000000e+00,5.000000000000000000e+00,5.000000000000000000e+00,5.000000000000000000e+00,5.000000000000000000e+00,5.000000000000000000e+00,5.000000000000000000e+00,5.000000000000000000e+00,5.000000000000000000e+00,5.000000000000000000e+00,5.000000000000000000e+00,5.000000000000000000e+00,5.000000000000000000e+00,5.000000000000000000e+00,5.000000000000000000e+00,5.000000000000000000e+00,5.000000000000000000e+00,4.846297740936279297e+00,4.687295913696289062e+00,4.538393020629882812e+00,4.398658275604248047e+00,6.663768887519836426e-01,6.517457365989685059e-01,6.377432346343994141e-01,6.275203824043273926e-01,6.176915764808654785e-01,6.081659197807312012e-01
3.101461648941040039e+00,3.179941415786743164e+00,3.262495756149291992e+00,3.349450588226318359e+00,3.441167831420898438e+00,3.538049221038818359e+00,3.640543937683105469e+00,3.749154329299926758e+00,3.864443778991699219e+00,3.987049102783203125e+00,4.117683887481689453e+00,4.257163524627685547e+00,4.406424045562744141e+00,4.566531658172607422e+00,4.738712310791015625e+00,4.924386501312255859e+00,5.000000000000000000e+00,5.000000000000000000e+00,5.000000000000000000e+00,5.000000000000000000e+00,5.000000000000000000e+00,5.000000000000000000e+00,5.000000000000000000e+00,5.000000000000000000e+00,5.000000000000000000e+00,5.000000000000000000e+00,5.000000000000000000e+00,5.000000000000000000e+00,5.000000000000000000e+00,5.000000000000000000e+00,5.000000000000000000e+00,5.000000000000000000e+00,5.000000000000000000e+00,5.000000000000000000e+00,5.000000000000000000e+00,5.000000000000000000e+00,5.000000000000000000e+00,5.000000000000000000e+00,5.000000000000000000e+00,5.000000000000000000e+00,5.000000000000000000e+00,5.000000000000000000e+00,5.000000000000000000e+00,5.000000000000000000e+00,5.000000000000000000e+00,5.000000000000000000e+00,5.000000000000000000e+00,5.000000000000000000e+00,5.000000000000000000e+00,5.000000000000000000e+00,5.000000000000000000e+00,5.000000000000000000e+00,5.000000000000000000e+00,5.000000000000000000e+00,5.000000000000000000e+00,5.000000000000000000e+00,5.000000000000000000e+00,5.000000000000000000e+00,5.000000000000000000e+00,5.000000000000000000e+00,5.000000000000000000e+00,5.000000000000000000e+00,5.000000000000000000e+00,5.000000000000000000e+00,5.000000000000000000e+00,5.000000000000000000e+00,5.000000000000000000e+00,5.000000000000000000e+00,5.000000000000000000e+00,5.000000000000000000e+00,4.846432685852050781e+00,4.687417984008789062e+00,6.907553672790527344e-01,6.750466823577880859e-01,6.600366830825805664e-01,6.458538174629211426e-01,6.354470252990722656e-01,6.253703832626342773e-01,6.156082749366760254e-01,6.066843271255493164e-01
3.101395845413208008e+00,3.179872035980224609e+00,3.262422323226928711e+00,3.349373340606689453e+00,3.441086292266845703e+00,3.537963151931762695e+00,3.640452861785888672e+00,3.749057531356811523e+00,3.864341497421264648e+00,3.986940145492553711e+00,4.117572784423828125e+00,4.257049560546875000e+00,4.406302452087402344e+00,4.566400527954101562e+00,4.738571643829345703e+00,4.924234390258789062e+00,5.000000000000000000e+00,5.000000000000000000e+00,5.000000000000000000e+00,5.000000000000000000e+00,5.000000000000000000e+00,5.000000000000000000e+00,5.000000000000000000e+00,5.000000000000000000e+00,5.000000000000000000e+00,5.000000000000000000e+00,5.000000000000000000e+00,5.000000000000000000e+00,5.000000000000000000e+00,5.000000000000000000e+00,5.000000000000000000e+00,5.000000000000000000e+00,5.000000000000000000e+00,5.000000000000000000e+00,5.000000000000000000e+00,5.000000000000000000e+00,5.000000000000000000e+00,5.000000000000000000e+00,5.000000000000000000e+00,5.000000000000000000e+00,5.000000000000000000e+00,5.000000000000000000e+00,5.000000000000000000e+00,5.000000000000000000e+00,5.000000000000000000e+00,5.000000000000000000e+00,5.000000000000000000e+00,5.000000000000000000e+00,5.000000000000000000e+00,5.000000000000000000e+00,5.000000000000000000e+00,5.000000000000000000e+00,5.000000000000000000e+00,5.000000000000000000e+00,5.000000000000000000e+00,5.000000000000000000e+00,5.000000000000000000e+00,5.000000000000000000e+00,5.000000000000000000e+00,5.000000000000000000e+00,5.000000000000000000e+00,5.000000000000000000e+00,5.000000000000000000e+00,5.000000000000000000e+00,5.000000000000000000e+00,5.000000000000000000e+00,5.000000000000000000e+00,5.000000000000000000e+00,5.000000000000000000e+00,5.000000000000000000e+00,4.846561908721923828e+00,7.026209831237792969e-01,6.839451193809509277e-01,6.685412526130676270e-01,6.542534828186035156e-01,6.435765027999877930e-01,6.332424879074096680e-01,6.241845488548278809e-01,6.158694624900817871e-01,6.077730059623718262e-01
3.101329565048217773e+00,3.179802417755126953e+00,3.262349367141723633e+00,3.349296569824218750e+00,3.441005229949951172e+00,3.537877321243286133e+00,3.640362024307250977e+00,3.748961210250854492e+00,3.864238977432250977e+00,3.986831188201904297e+00,4.117456436157226562e+00,4.256931781768798828e+00,4.406180381774902344e+00,4.566269874572753906e+00,4.738430976867675781e+00,4.924082279205322266e+00,5.000000000000000000e+00,5.000000000000000000e+00,5.000000000000000000e+00,5.000000000000000000e+00,5.000000000000000000e+00,5.000000000000000000e+00,5.000000000000000000e+00,5.000000000000000000e+00,5.000000000000000000e+00,5.000000000000000000e+00,5.000000000000000000e+00,5.000000000000000000e+00,5.000000000000000000e+00,5.000000000000000000e+00,5.000000000000000000e+00,5.000000000000000000e+00,5.000000000000000000e+00,5.000000000000000000e+00,5.000000000000000000e+00,5.000000000000000000e+00,5.000000000000000000e+00,5.000000000000000000e+00,5.000000000000000000e+00,5.000000000000000000e+00,5.000000000000000000e+00,5.000000000000000000e+00,5.000000000000000000e+00,5.000000000000000000e+00,5.000000000000000000e+00,5.000000000000000000e+00,5.000000000000000000e+00,5.000000000000000000e+00,5.000000000000000000e+00,5.000000000000000000e+00,5.000000000000000000e+00,5.000000000000000000e+00,5.000000000000000000e+00,5.000000000000000000e+00,5.000000000000000000e+00,5.000000000000000000e+00,5.000000000000000000e+00,5.000000000000000000e+00,5.000000000000000000e+00,5.000000000000000000e+00,5.000000000000000000e+00,5.000000000000000000e+00,5.000000000000000000e+00,5.000000000000000000e+00,5.000000000000000000e+00,5.000000000000000000e+00,5.000000000000000000e+00,5.000000000000000000e+00,5.000000000000000000e+00,5.000000000000000000e+00,7.175567746162414551e-01,6.960872411727905273e-01,6.772678494453430176e-01,6.628745794296264648e-01,6.519167423248291016e-01,6.427244544029235840e-01,6.339115500450134277e-01,6.258964538574218750e-01,6.180959939956665039e-01,6.104875802993774414e-01
3.101263761520385742e+00,3.179733037948608398e+00,3.262276411056518555e+00,3.349219560623168945e+00,3.440923929214477539e+00,3.537791490554809570e+00,3.640271186828613281e+00,3.748864650726318359e+00,3.864136219024658203e+00,3.986721754074096680e+00,4.117340087890625000e+00,4.256807327270507812e+00,4.406054019927978516e+00,4.566139221191406250e+00,4.738289833068847656e+00,4.923930168151855469e+00,5.000000000000000000e+00,5.000000000000000000e+00,5.000000000000000000e+00,5.000000000000000000e+00,5.000000000000000000e+00,5.000000000000000000e+00,5.000000000000000000e+00,5.000000000000000000e+00,5.000000000000000000e+00,5.000000000000000000e+00,5.000000000000000000e+00,5.000000000000000000e+00,5.000000000000000000e+00,5.000000000000000000e+00,5.000000000000000000e+00,5.000000000000000000e+00,5.000000000000000000e+00,5.000000000000000000e+00,5.000000000000000000e+00,5.000000000000000000e+00,5.000000000000000000e+00,5.000000000000000000e+00,5.000000000000000000e+00,5.000000000000000000e+00,5.000000000000000000e+00,5.000000000000000000e+00,5.000000000000000000e+00,5.000000000000000000e+00,5.000000000000000000e+00,5.000000000000000000e+00,5.000000000000000000e+00,5.000000000000000000e+00,5.000000000000000000e+00,5.000000000000000000e+00,5.000000000000000000e+00,5.000000000000000000e+00,5.000000000000000000e+00,5.000000000000000000e+00,5.000000000000000000e+00,5.000000000000000000e+00,5.000000000000000000e+00,5.000000000000000000e+00,5.000000000000000000e+00,5.000000000000000000e+00,5.000000000000000000e+00,5.000000000000000000e+00,5.000000000000000000e+00,5.000000000000000000e+00,5.000000000000000000e+00,5.000000000000000000e+00,5.000000000000000000e+00,5.000000000000000000e+00,5.000000000000000000e+00,7.327433228492736816e-01,7.117530107498168945e-01,6.896739602088928223e-01,6.720584034919738770e-01,6.630731821060180664e-01,6.543250083923339844e-01,6.458046436309814453e-01,6.375033259391784668e-01,6.294127702713012695e-01,6.215249896049499512e-01,6.138324141502380371e-01
3.101197719573974609e+00,3.179663658142089844e+00,3.262203216552734375e+00,3.349142313003540039e+00,3.440842390060424805e+00,3.537705421447753906e+00,3.640179872512817383e+00,3.748768091201782227e+00,3.864033937454223633e+00,3.986612796783447266e+00,4.117223739624023438e+00,4.256682872772216797e+00,4.405920505523681641e+00,4.566003322601318359e+00,4.738149166107177734e+00,4.923778057098388672e+00,5.000000000000000000e+00,5.000000000000000000e+00,5.000000000000000000e+00,5.000000000000000000e+00,5.000000000000000000e+00,5.000000000000000000e+00,5.000000000000000000e+00,5.000000000000000000e+00,5.000000000000000000e+00,5.000000000000000000e+00,5.000000000000000000e+00,5.000000000000000000e+00,5.000000000000000000e+00,5.000000000000000000e+00,5.000000000000000000e+00,5.000000000000000000e+00,5.000000000000000000e+00,5.000000000000000000e+00,5.000000000000000000e+00,5.000000000000000000e+00,5.000000000000000000e+00,5.000000000000000000e+00,5.000000000000000000e+00,5.000000000000000000e+00,5.000000000000000000e+00,5.000000000000000000e+00,5.000000000000000000e+00,5.000000000000000000e+00,5.000000000000000000e+00,5.000000000000000000e+00,5.000000000000000000e+00,5.000000000000000000e+00,5.000000000000000000e+00,5.000000000000000000e+00,5.000000000000000000e+00,5.000000000000000000e+00,5.000000000000000000e+00,5.000000000000000000e+00,5.000000000000000000e+00,5.000000000000000000e+00,5.000000000000000000e+00,5.000000000000000000e+00,5.000000000000000000e+00,5.000000000000000000e+00,5.000000000000000000e+00,5.000000000000000000e+00,5.000000000000000000e+00,5.000000000000000000e+00,5.000000000000000000e+00,5.000000000000000000e+00,5.000000000000000000e+00,5.000000000000000000e+00,5.000000000000000000e+00,7.281401753425598145e-01,7.050492167472839355e-01,6.855229735374450684e-01,6.761434674263000488e-01,6.670208573341369629e-01,6.581689119338989258e-01,6.495488286018371582e-01,6.411516070365905762e-01,6.329687833786010742e-01,6.249921321868896484e-01,6.184118390083312988e-01
3.101104259490966797e+00,3.179581880569458008e+00,3.262130260467529297e+00,3.349065542221069336e+00,3.440761327743530273e+00,3.537619590759277344e+00,3.640089035034179688e+00,3.748671770095825195e+00,3.863931655883789062e+00,3.986503839492797852e+00,4.117107391357421875e+00,4.256558418273925781e+00,4.405787467956542969e+00,4.565860271453857422e+00,4.738002777099609375e+00,4.923625946044921875e+00,5.000000000000000000e+00,5.000000000000000000e+00,5.000000000000000000e+00,5.000000000000000000e+00,5.000000000000000000e+00,5.000000000000000000e+00,5.000000000000000000e+00,5.000000000000000000e+00,5.000000000000000000e+00,5.000000000000000000e+00,5.000000000000000000e+00,5.000000000000000000e+00,5.000000000000000000e+00,5.000000000000000000e+00,5.000000000000000000e+00,5.000000000000000000e+00,5.000000000000000000e+00,5.000000000000000000e+00,5.000000000000000000e+00,5.000000000000000000e+00,5.000000000000000000e+00,5.000000000000000000e+00,5.000000000000000000e+00,5.000000000000000000e+00,5.000000000000000000e+00,5.000000000000000000e+00,5.000000000000000000e+00,5.000000000000000000e+00,5.000000000000000000e+00,5.000000000000000000e+00,5.000000000000000000e+00,5.000000000000000000e+00,5.000000000000000000e+00,5.000000000000000000e+00,5.000000000000000000e+00,5.000000000000000000e+00,5.000000000000000000e+00,5.000000000000000000e+00,5.000000000000000000e+00,5.000000000000000000e+00,5.000000000000000000e+00,5.000000000000000000e+00,5.000000000000000000e+00,5.000000000000000000e+00,5.000000000000000000e+00,5.000000000000000000e+00,5.000000000000000000e+00,5.000000000000000000e+00,5.000000000000000000e+00,5.000000000000000000e+00,5.000000000000000000e+00,5.000000000000000000e+00,7.437919974327087402e-01,7.211256623268127441e-01,6.995539069175720215e-01,6.897892951965332031e-01,6.802935600280761719e-01,6.710556745529174805e-01,6.620653867721557617e-01,6.533367037773132324e-01,6.448418498039245605e-01,6.368912458419799805e-01,6.317871809005737305e-01,6.267643570899963379e-01
3.101004600524902344e+00,3.179476976394653320e+00,3.262024164199829102e+00,3.348971605300903320e+00,3.440680265426635742e+00,3.537533760070800781e+00,3.639998197555541992e+00,3.748575448989868164e+00,3.863828897476196289e+00,3.986394405364990234e+00,4.116991043090820312e+00,4.256433963775634766e+00,4.405654430389404297e+00,4.565717220306396484e+00,4.737849235534667969e+00,4.923468589782714844e+00,5.000000000000000000e+00,5.000000000000000000e+00,5.000000000000000000e+00,5.000000000000000000e+00,5.000000000000000000e+00,5.000000000000000000e+00,5.000000000000000000e+00,5.000000000000000000e+00,5.000000000000000000e+00,5.000000000000000000e+00,5.000000000000000000e+00,5.000000000000000000e+00,5.000000000000000000e+00,5.000000000000000000e+00,5.000000000000000000e+00,5.000000000000000000e+00,5.000000000000000000e+00,5.000000000000000000e+00,5.000000000000000000e+00,5.000000000000000000e+00,5.000000000000000000e+00,5.000000000000000000e+00,5.000000000000000000e+00,5.000000000000000000e+00,5.000000000000000000e+00,5.000000000000000000e+00,5.000000000000000000e+00,5.000000000000000000e+00,5.000000000000000000e+00,5.000000000000000000e+00,5.000000000000000000e+00,5.000000000000000000e+00,5.000000000000000000e+00,5.000000000000000000e+00,5.000000000000000000e+00,5.000000000000000000e+00,5.000000000000000000e+00,5.000000000000000000e+00,5.000000000000000000e+00,5.000000000000000000e+00,5.000000000000000000e+00,5.000000000000000000e+00,5.000000000000000000e+00,5.000000000000000000e+00,5.000000000000000000e+00,5.000000000000000000e+00,5.000000000000000000e+00,5.000000000000000000e+00,5.000000000000000000e+00,5.000000000000000000e+00,5.000000000000000000e+00,7.601219415664672852e-01,7.379522323608398438e-01,7.142449617385864258e-01,7.039971947669982910e-01,6.941090226173400879e-01,6.844948530197143555e-01,6.751433014869689941e-01,6.660438776016235352e-01,6.571863889694213867e-01,6.510870456695556641e-01,6.457538604736328125e-01,6.405074000358581543e-01,6.353453993797302246e-01
3.100904941558837891e+00,3.179372072219848633e+00,3.261913776397705078e+00,3.348855257034301758e+00,3.440558433532714844e+00,3.537425518035888672e+00,3.639904975891113281e+00,3.748478651046752930e+00,3.863726377487182617e+00,3.986285686492919922e+00,4.116874694824218750e+00,4.256309509277343750e+00,4.405520915985107422e+00,4.565574169158935547e+00,4.737694740295410156e+00,4.923302173614501953e+00,5.000000000000000000e+00,5.000000000000000000e+00,5.000000000000000000e+00,5.000000000000000000e+00,5.000000000000000000e+00,5.000000000000000000e+00,5.000000000000000000e+00,5.000000000000000000e+00,5.000000000000000000e+00,5.000000000000000000e+00,5.000000000000000000e+00,5.000000000000000000e+00,5.000000000000000000e+00,5.000000000000000000e+00,5.000000000000000000e+00,5.000000000000000000e+00,5.000000000000000000e+00,5.000000000000000000e+00,5.000000000000000000e+00,5.000000000000000000e+00,5.000000000000000000e+00,5.000000000000000000e+00,5.000000000000000000e+00,5.000000000000000000e+00,5.000000000000000000e+00,5.000000000000000000e+00,5.000000000000000000e+00,5.000000000000000000e+00,5.000000000000000000e+00,5.000000000000000000e+00,5.000000000000000000e+00,5.000000000000000000e+00,5.000000000000000000e+00,5.000000000000000000e+00,5.000000000000000000e+00,5.000000000000000000e+00,5.000000000000000000e+00,5.000000000000000000e+00,5.000000000000000000e+00,5.000000000000000000e+00,5.000000000000000000e+00,5.000000000000000000e+00,5.000000000000000000e+00,5.000000000000000000e+00,5.000000000000000000e+00,5.000000000000000000e+00,5.000000000000000000e+00,5.000000000000000000e+00,5.000000000000000000e+00,5.000000000000000000e+00,7.771850228309631348e-01,7.551789879798889160e-01,7.307483553886413574e-01,7.188026309013366699e-01,7.084972858428955078e-01,6.984832286834716797e-01,6.887483000755310059e-01,6.792864799499511719e-01,6.701673269271850586e-01,6.633242964744567871e-01,6.588205695152282715e-01,6.543775796890258789e-01,6.494716405868530273e-01,6.441647410392761230e-01
3.100834369659423828e+00,3.179281711578369141e+00,3.261803388595581055e+00,3.348739385604858398e+00,3.440436124801635742e+00,3.537295818328857422e+00,3.639767646789550781e+00,3.748353481292724609e+00,3.863617420196533203e+00,3.986176729202270508e+00,4.116758346557617188e+00,4.256185531616210938e+00,4.405387878417968750e+00,4.565430641174316406e+00,4.737540721893310547e+00,4.923135757446289062e+00,5.000000000000000000e+00,5.000000000000000000e+00,5.000000000000000000e+00,5.000000000000000000e+00,5.000000000000000000e+00,5.000000000000000000e+00,5.000000000000000000e+00,5.000000000000000000e+00,5.000000000000000000e+00,5.000000000000000000e+00,5.000000000000000000e+00,5.000000000000000000e+00,5.000000000000000000e+00,5.000000000000000000e+00,5.000000000000000000e+00,5.000000000000000000e+00,5.000000000000000000e+00,5.000000000000000000e+00,5.000000000000000000e+00,5.000000000000000000e+00,5.000000000000000000e+00,5.000000000000000000e+00,5.000000000000000000e+00,5.000000000000000000e+00,5.000000000000000000e+00,5.000000000000000000e+00,5.000000000000000000e+00,5.000000000000000000e+00,5.000000000000000000e+00,5.000000000000000000e+00,5.000000000000000000e+00,5.000000000000000000e+00,5.000000000000000000e+00,5.000000000000000000e+00,5.000000000000000000e+00,5.000000000000000000e+00,5.000000000000000000e+00,5.000000000000000000e+00,5.000000000000000000e+00,5.000000000000000000e+00,5.000000000000000000e+00,5.000000000000000000e+00,5.000000000000000000e+00,5.000000000000000000e+00,5.000000000000000000e+00,5.000000000000000000e+00,5.000000000000000000e+00,5.000000000000000000e+00,5.000000000000000000e+00,7.950317859649658203e-01,7.720184326171875000e-01,7.480324506759643555e-01,7.342442870140075684e-01,7.234946489334106445e-01,7.130553126335144043e-01,7.029392719268798828e-01,6.931785941123962402e-01,6.836853027343750000e-01,6.759738326072692871e-01,6.709461212158203125e-01,6.663386821746826172e-01,6.617940664291381836e-01,6.573110222816467285e-01,3.713454008102416992e+00
3.100768089294433594e+00,3.179212093353271484e+00,3.261728286743164062e+00,3.348641633987426758e+00,3.440314054489135742e+00,3.537166118621826172e+00,3.639630317687988281e+00,3.748207807540893555e+00,3.863462686538696289e+00,3.986030340194702148e+00,4.116630077362060547e+00,4.256061077117919922e+00,4.405254364013671875e+00,4.565288066864013672e+00,4.737386703491210938e+00,4.922969341278076172e+00,5.000000000000000000e+00,5.000000000000000000e+00,5.000000000000000000e+00,5.000000000000000000e+00,5.000000000000000000e+00,5.000000000000000000e+00,5.000000000000000000e+00,5.000000000000000000e+00,5.000000000000000000e+00,5.000000000000000000e+00,5.000000000000000000e+00,5.000000000000000000e+00,5.000000000000000000e+00,5.000000000000000000e+00,5.000000000000000000e+00,5.000000000000000000e+00,5.000000000000000000e+00,5.000000000000000000e+00,5.000000000000000000e+00,5.000000000000000000e+00,5.000000000000000000e+00,5.000000000000000000e+00,5.000000000000000000e+00,5.000000000000000000e+00,5.000000000000000000e+00,5.000000000000000000e+00,5.000000000000000000e+00,5.000000000000000000e+00,5.000000000000000000e+00,5.000000000000000000e+00,5.000000000000000000e+00,5.000000000000000000e+00,5.000000000000000000e+00,5.000000000000000000e+00,5.000000000000000000e+00,5.000000000000000000e+00,5.000000000000000000e+00,5.000000000000000000e+00,5.000000000000000000e+00,5.000000000000000000e+00,5.000000000000000000e+00,5.000000000000000000e+00,5.000000000000000000e+00,5.000000000000000000e+00,5.000000000000000000e+00,5.000000000000000000e+00,5.000000000000000000e+00,5.000000000000000000e+00,8.153864145278930664e-01,7.896260023117065430e-01,7.661539316177368164e-01,7.503639459609985352e-01,7.391407489776611328e-01,7.282986640930175781e-01,7.178262472152709961e-01,7.076507806777954102e-01,6.977597475051879883e-01,6.895250678062438965e-01,6.835264563560485840e-01,6.787452101707458496e-01,6.740303635597229004e-01,6.693806052207946777e-01,3.812634706497192383e+00,3.713530063629150391e+00
3.100702047348022461e+00,3.179142713546752930e+00,3.261655092239379883e+00,3.348564624786376953e+00,3.440232515335083008e+00,3.537060499191284180e+00,3.639497280120849609e+00,3.748061895370483398e+00,3.863307952880859375e+00,3.985865592956542969e+00,4.116454124450683594e+00,4.255889892578125000e+00,4.405102252960205078e+00,4.565144538879394531e+00,4.737232685089111328e+00,4.922802925109863281e+00,5.000000000000000000e+00,5.000000000000000000e+00,5.000000000000000000e+00,5.000000000000000000e+00,5.000000000000000000e+00,5.000000000000000000e+00,5.000000000000000000e+00,5.000000000000000000e+00,5.000000000000000000e+00,5.000000000000000000e+00,5.000000000000000000e+00,5.000000000000000000e+00,5.000000000000000000e+00,5.000000000000000000e+00,5.000000000000000000e+00,5.000000000000000000e+00,5.000000000000000000e+00,5.000000000000000000e+00,5.000000000000000000e+00,5.000000000000000000e+00,5.000000000000000000e+00,5.000000000000000000e+00,5.000000000000000000e+00,5.000000000000000000e+00,5.000000000000000000e+00,5.000000000000000000e+00,5.000000000000000000e+00,5.000000000000000000e+00,5.000000000000000000e+00,5.000000000000000000e+00,5.000000000000000000e+00,5.000000000000000000e+00,5.000000000000000000e+00,5.000000000000000000e+00,5.000000000000000000e+00,5.000000000000000000e+00,5.000000000000000000e+00,5.000000000000000000e+00,5.000000000000000000e+00,5.000000000000000000e+00,5.000000000000000000e+00,5.000000000000000000e+00,5.000000000000000000e+00,5.000000000000000000e+00,5.000000000000000000e+00,5.000000000000000000e+00,5.000000000000000000e+00,8.368936777114868164e-01,8.099001049995422363e-01,7.842932343482971191e-01,7.672071456909179688e-01,7.555562853813171387e-01,7.442913651466369629e-01,7.333574295043945312e-01,7.227401733398437500e-01,7.124258875846862793e-01,7.036306858062744141e-01,6.967286467552185059e-01,6.916224956512451172e-01,6.867277026176452637e-01,6.819016933441162109e-01,3.917258262634277344e+00,3.812714338302612305e+00,3.713605642318725586e+00
3.100635528564453125e+00,3.179072618484497070e+00,3.261581420898437500e+00,3.348486900329589844e+00,3.440150976181030273e+00,3.536974430084228516e+00,3.639405965805053711e+00,3.747947216033935547e+00,3.863162040710449219e+00,3.985700845718383789e+00,4.116278648376464844e+00,4.255702018737792969e+00,4.404901027679443359e+00,4.564941883087158203e+00,4.737050056457519531e+00,4.922636508941650391e+00,5.000000000000000000e+00,5.000000000000000000e+00,5.000000000000000000e+00,5.000000000000000000e+00,5.000000000000000000e+00,5.000000000000000000e+00,5.000000000000000000e+00,5.000000000000000000e+00,5.000000000000000000e+00,5.000000000000000000e+00,5.000000000000000000e+00,5.000000000000000000e+00,5.000000000000000000e+00,5.000000000000000000e+00,5.000000000000000000e+00,5.000000000000000000e+00,5.000000000000000000e+00,5.000000000000000000e+00,5.000000000000000000e+00,5.000000000000000000e+00,5.000000000000000000e+00,5.000000000000000000e+00,5.000000000000000000e+00,5.000000000000000000e+00,5.000000000000000000e+00,5.000000000000000000e+00,5.000000000000000000e+00,5.000000000000000000e+00,5.000000000000000000e+00,5.000000000000000000e+00,5.000000000000000000e+00,5.000000000000000000e+00,5.000000000000000000e+00,5.000000000000000000e+00,5.000000000000000000e+00,5.000000000000000000e+00,5.000000000000000000e+00,5.000000000000000000e+00,5.000000000000000000e+00,5.000000000000000000e+00,5.000000000000000000e+00,5.000000000000000000e+00,5.000000000000000000e+00,5.000000000000000000e+00,5.000000000000000000e+00,5.000000000000000000e+00,8.683094382286071777e-01,8.323807120323181152e-01,8.044871091842651367e-01,7.849715948104858398e-01,7.727826237678527832e-01,7.610022425651550293e-01,7.495756149291992188e-01,7.384870648384094238e-01,7.277218103408813477e-01,7.183256149291992188e-01,7.111336588859558105e-01,7.049978375434875488e-01,6.999126076698303223e-01,6.949002146720886230e-01,4.027785778045654297e+00,3.917342424392700195e+00,3.812794446945190430e+00,3.713681936264038086e+00
3.100569248199462891e+00,3.179003238677978516e+00,3.261508226394653320e+00,3.348409891128540039e+00,3.440069198608398438e+00,3.536887884140014648e+00,3.639314413070678711e+00,3.747850179672241211e+00,3.863058805465698242e+00,3.985574960708618164e+00,4.116117000579833984e+00,4.255514144897460938e+00,4.404699802398681641e+00,4.564725399017333984e+00,4.736817836761474609e+00,4.922393798828125000e+00,5.000000000000000000e+00,5.000000000000000000e+00,5.000000000000000000e+00,5.000000000000000000e+00,5.000000000000000000e+00,5.000000000000000000e+00,5.000000000000000000e+00,5.000000000000000000e+00,5.000000000000000000e+00,5.000000000000000000e+00,5.000000000000000000e+00,5.000000000000000000e+00,5.000000000000000000e+00,5.000000000000000000e+00,5.000000000000000000e+00,5.000000000000000000e+00,5.000000000000000000e+00,5.000000000000000000e+00,5.000000000000000000e+00,5.000000000000000000e+00,5.000000000000000000e+00,5.000000000000000000e+00,5.000000000000000000e+00,5.000000000000000000e+00,5.000000000000000000e+00,5.000000000000000000e+00,5.000000000000000000e+00,5.000000000000000000e+00,5.000000000000000000e+00,5.000000000000000000e+00,5.000000000000000000e+00,5.000000000000000000e+00,5.000000000000000000e+00,5.000000000000000000e+00,5.000000000000000000e+00,5.000000000000000000e+00,5.000000000000000000e+00,5.000000000000000000e+00,5.000000000000000000e+00,5.000000000000000000e+00,5.000000000000000000e+00,5.000000000000000000e+00,5.000000000000000000e+00,5.000000000000000000e+00,5.000000000000000000e+00,5.000000000000000000e+00,8.551468849182128906e-01,8.266642093658447266e-01,8.043870329856872559e-01,7.913096547126770020e-01,7.786507010459899902e-01,7.665272951126098633e-01,7.549353837966918945e-01,7.436889410018920898e-01,7.336473464965820312e-01,7.261469960212707520e-01,7.189006805419921875e-01,7.136136889457702637e-01,4.268571853637695312e+00,4.144731998443603516e+00,4.027874946594238281e+00,3.917429685592651367e+00,3.812880277633666992e+00,3.713765382766723633e+00
3.100503206253051758e+00,3.178933620452880859e+00,3.261435031890869141e+00,3.348332643508911133e+00,3.439987659454345703e+00,3.536801815032958984e+00,3.639223337173461914e+00,3.747753381729125977e+00,3.862956047058105469e+00,3.985465526580810547e+00,4.116000175476074219e+00,4.255374908447265625e+00,4.404519557952880859e+00,4.564509868621826172e+00,4.736585140228271484e+00,4.922142505645751953e+00,5.000000000000000000e+00,5.000000000000000000e+00,5.000000000000000000e+00,5.000000000000000000e+00,5.000000000000000000e+00,5.000000000000000000e+00,5.000000000000000000e+00,5.000000000000000000e+00,5.000000000000000000e+00,5.000000000000000000e+00,5.000000000000000000e+00,5.000000000000000000e+00,5.000000000000000000e+00,5.000000000000000000e+00,5.000000000000000000e+00,5.000000000000000000e+00,5.000000000000000000e+00,5.000000000000000000e+00,5.000000000000000000e+00,5.000000000000000000e+00,5.000000000000000000e+00,5.000000000000000000e+00,5.000000000000000000e+00,5.000000000000000000e+00,5.000000000000000000e+00,5.000000000000000000e+00,5.000000000000000000e+00,5.000000000000000000e+00,5.000000000000000000e+00,5.000000000000000000e+00,5.000000000000000000e+00,5.000000000000000000e+00,5.000000000000000000e+00,5.000000000000000000e+00,5.000000000000000000e+00,5.000000000000000000e+00,5.000000000000000000e+00,5.000000000000000000e+00,5.000000000000000000e+00,5.000000000000000000e+00,5.000000000000000000e+00,5.000000000000000000e+00,5.000000000000000000e+00,5.000000000000000000e+00,5.000000000000000000e+00,8.785055279731750488e-01,8.500985503196716309e-01,8.247873187065124512e-01,8.110438585281372070e-01,7.977508902549743652e-01,7.848866581916809082e-01,7.724307775497436523e-01,7.603724002838134766e-01,7.496368288993835449e-01,7.418078184127807617e-01,7.341405153274536133e-01,7.278618812561035156e-01,4.400146484375000000e+00,4.268674373626708984e+00,4.144832134246826172e+00,4.027972698211669922e+00,3.917522668838500977e+00,3.812968254089355469e+00,3.713848829269409180e+00
3.100436925888061523e+00,3.178864002227783203e+00,3.261361837387084961e+00,3.348255395889282227e+00,3.439906358718872070e+00,3.536715745925903320e+00,3.639132022857666016e+00,3.747656822204589844e+00,3.862853288650512695e+00,3.985356092453002930e+00,4.115883350372314453e+00,4.255250453948974609e+00,4.404386043548583984e+00,4.564355373382568359e+00,4.736382484436035156e+00,4.921891212463378906e+00,5.000000000000000000e+00,5.000000000000000000e+00,5.000000000000000000e+00,5.000000000000000000e+00,5.000000000000000000e+00,5.000000000000000000e+00,5.000000000000000000e+00,5.000000000000000000e+00,5.000000000000000000e+00,5.000000000000000000e+00,5.000000000000000000e+00,5.000000000000000000e+00,5.000000000000000000e+00,5.000000000000000000e+00,5.000000000000000000e+00,5.000000000000000000e+00,5.000000000000000000e+00,5.000000000000000000e+00,5.000000000000000000e+00,5.000000000000000000e+00,5.000000000000000000e+00,5.000000000000000000e+00,5.000000000000000000e+00,5.000000000000000000e+00,5.000000000000000000e+00,5.000000000000000000e+00,5.000000000000000000e+00,5.000000000000000000e+00,5.000000000000000000e+00,5.000000000000000000e+00,5.000000000000000000e+00,5.000000000000000000e+00,5.000000000000000000e+00,5.000000000000000000e+00,5.000000000000000000e+00,5.000000000000000000e+00,5.000000000000000000e+00,5.000000000000000000e+00,5.000000000000000000e+00,5.000000000000000000e+00,5.000000000000000000e+00,5.000000000000000000e+00,5.000000000000000000e+00,5.000000000000000000e+00,9.031762480735778809e-01,8.742140531539916992e-01,8.462492823600769043e-01,8.317874670028686523e-01,8.178117275238037109e-01,8.042978644371032715e-01,7.912233471870422363e-01,7.786164879798889160e-01,7.684329152107238770e-01,7.588434815406799316e-01,7.501517534255981445e-01,7.426906228065490723e-01,4.540096282958984375e+00,4.400262355804443359e+00,4.268784523010253906e+00,4.144936084747314453e+00,4.028071403503417969e+00,3.917615413665771484e+00,3.813056230545043945e+00,3.713932275772094727e+00
3.100370883941650391e+00,3.178794384002685547e+00,3.261288642883300781e+00,3.348178386688232422e+00,3.439824819564819336e+00,3.536629676818847656e+00,3.639040946960449219e+00,3.747560024261474609e+00,3.862750530242919922e+00,3.985246896743774414e+00,4.115766525268554688e+00,4.255125522613525391e+00,4.404252529144287109e+00,4.564211845397949219e+00,4.736227989196777344e+00,4.921718120574951172e+00,5.000000000000000000e+00,5.000000000000000000e+00,5.000000000000000000e+00,5.000000000000000000e+00,5.000000000000000000e+00,5.000000000000000000e+00,5.000000000000000000e+00,5.000000000000000000e+00,5.000000000000000000e+00,5.000000000000000000e+00,5.000000000000000000e+00,5.000000000000000000e+00,5.000000000000000000e+00,5.000000000000000000e+00,5.000000000000000000e+00,5.000000000000000000e+00,5.000000000000000000e+00,5.000000000000000000e+00,5.000000000000000000e+00,5.000000000000000000e+00,5.000000000000000000e+00,5.000000000000000000e+00,5.000000000000000000e+00,5.000000000000000000e+00,5.000000000000000000e+00,5.000000000000000000e+00,5.000000000000000000e+00,5.000000000000000000e+00,5.000000000000000000e+00,5.000000000000000000e+00,5.000000000000000000e+00,5.000000000000000000e+00,5.000000000000000000e+00,5.000000000000000000e+00,5.000000000000000000e+00,5.000000000000000000e+00,5.000000000000000000e+00,5.000000000000000000e+00,5.000000000000000000e+00,5.000000000000000000e+00,5.000000000000000000e+00,5.000000000000000000e+00,5.000000000000000000e+00,5.000000000000000000e+00,8.986409306526184082e-01,8.688579797744750977e-01,8.536201119422912598e-01,8.389075398445129395e-01,8.247600197792053223e-01,8.111159205436706543e-01,7.979158163070678711e-01,7.874553799629211426e-01,7.801641225814819336e-01,7.700150609016418457e-01,7.601266503334045410e-01,4.689242362976074219e+00,4.540221214294433594e+00,4.400379657745361328e+00,4.268894672393798828e+00,4.145040035247802734e+00,4.028169155120849609e+00,3.917708396911621094e+00,3.813144207000732422e+00,3.714016199111938477e+00
3.100304365158081055e+00,3.178724527359008789e+00,3.261215209960937500e+00,3.348101139068603516e+00,3.439743280410766602e+00,3.536543607711791992e+00,3.638949871063232422e+00,3.747463464736938477e+00,3.862647771835327148e+00,3.985137462615966797e+00,4.115650177001953125e+00,4.255000591278076172e+00,4.404118537902832031e+00,4.564067840576171875e+00,4.736073017120361328e+00,4.921550750732421875e+00,5.000000000000000000e+00,5.000000000000000000e+00,5.000000000000000000e+00,5.000000000000000000e+00,5.000000000000000000e+00,5.000000000000000000e+00,5.000000000000000000e+00,5.000000000000000000e+00,5.000000000000000000e+00,5.000000000000000000e+00,5.000000000000000000e+00,5.000000000000000000e+00,5.000000000000000000e+00,5.000000000000000000e+00,5.000000000000000000e+00,5.000000000000000000e+00,5.000000000000000000e+00,5.000000000000000000e+00,5.000000000000000000e+00,5.000000000000000000e+00,5.000000000000000000e+00,5.000000000000000000e+00,5.000000000000000000e+00,5.000000000000000000e+00,5.000000000000000000e+00,5.000000000000000000e+00,5.000000000000000000e+00,5.000000000000000000e+00,5.000000000000000000e+00,5.000000000000000000e+00,5.000000000000000000e+00,5.000000000000000000e+00,5.000000000000000000e+00,5.000000000000000000e+00,5.000000000000000000e+00,5.000000000000000000e+00,5.000000000000000000e+00,5.000000000000000000e+00,5.000000000000000000e+00,5.000000000000000000e+00,5.000000000000000000e+00,5.000000000000000000e+00,9.904568791389465332e-01,9.598914980888366699e-01,9.234945178031921387e-01,8.767175078392028809e-01,8.613160252571105957e-01,8.464465737342834473e-01,8.320816159248352051e-01,8.181961774826049805e-01,8.074434995651245117e-01,8.027175664901733398e-01,7.919772267341613770e-01,5.000000000000000000e+00,4.848520755767822266e+00,4.689375400543212891e+00,4.540346145629882812e+00,4.400496482849121094e+00,4.269005298614501953e+00,4.145143985748291016e+00,4.028267383575439453e+00,3.917801141738891602e+00,3.813232183456420898e+00,3.714099645614624023e+00
3.100238084793090820e+00,3.178654909133911133e+00,3.261141777038574219e+00,3.348023653030395508e+00,3.439661502838134766e+00,3.536457061767578125e+00,3.638858318328857422e+00,3.747366428375244141e+00,3.862545251846313477e+00,3.985028266906738281e+00,4.115533351898193359e+00,4.254876136779785156e+00,4.403985023498535156e+00,4.563924789428710938e+00,4.735918998718261719e+00,4.921383857727050781e+00,5.000000000000000000e+00,5.000000000000000000e+00,5.000000000000000000e+00,5.000000000000000000e+00,5.000000000000000000e+00,5.000000000000000000e+00,5.000000000000000000e+00,5.000000000000000000e+00,5.000000000000000000e+00,5.000000000000000000e+00,5.000000000000000000e+00,5.000000000000000000e+00,5.000000000000000000e+00,5.000000000000000000e+00,5.000000000000000000e+00,5.000000000000000000e+00,5.000000000000000000e+00,5.000000000000000000e+00,5.000000000000000000e+00,5.000000000000000000e+00,5.000000000000000000e+00,5.000000000000000000e+00,5.000000000000000000e+00,5.000000000000000000e+00,5.000000000000000000e+00,5.000000000000000000e+00,5.000000000000000000e+00,5.000000000000000000e+00,5.000000000000000000e+00,5.000000000000000000e+00,5.000000000000000000e+00,5.000000000000000000e+00,5.000000000000000000e+00,5.000000000000000000e+00,5.000000000000000000e+00,5.000000000000000000e+00,5.000000000000000000e+00,5.000000000000000000e+00,5.000000000000000000e+00,5.000000000000000000e+00,5.000000000000000000e+00,5.000000000000000000e+00,9.722244739532470703e-01,9.448637366294860840e-01,9.157069325447082520e-01,8.944893479347229004e-01,8.693042397499084473e-01,8.541599512100219727e-01,8.395344018936157227e-01,8.284728527069091797e-01,8.266136646270751953e-01,8.152289390563964844e-01,5.000000000000000000e+00,5.000000000000000000e+00,4.848662853240966797e+00,4.689508438110351562e+00,4.540470600128173828e+00,4.400613784790039062e+00,4.269115447998046875e+00,4.145247936248779297e+00,4.028365612030029297e+00,3.917894124984741211e+00,3.813320159912109375e+00,3.714183092117309570e+00
3.100172042846679688e+00,3.178585529327392578e+00,3.261068582534790039e+00,3.347946405410766602e+00,3.439580202102661133e+00,3.536370992660522461e+00,3.638767004013061523e+00,3.747269630432128906e+00,3.862442016601562500e+00,3.984918355941772461e+00,4.115416526794433594e+00,4.254751205444335938e+00,4.403851509094238281e+00,4.563780784606933594e+00,4.735764503479003906e+00,4.921217441558837891e+00,5.000000000000000000e+00,5.000000000000000000e+00,5.000000000000000000e+00,5.000000000000000000e+00,5.000000000000000000e+00,5.000000000000000000e+00,5.000000000000000000e+00,5.000000000000000000e+00,5.000000000000000000e+00,5.000000000000000000e+00,5.000000000000000000e+00,5.000000000000000000e+00,5.000000000000000000e+00,5.000000000000000000e+00,5.000000000000000000e+00,5.000000000000000000e+00,5.000000000000000000e+00,5.000000000000000000e+00,5.000000000000000000e+00,5.000000000000000000e+00,5.000000000000000000e+00,5.000000000000000000e+00,5.000000000000000000e+00,5.000000000000000000e+00,5.000000000000000000e+00,5.000000000000000000e+00,5.000000000000000000e+00,5.000000000000000000e+00,5.000000000000000000e+00,5.000000000000000000e+00,5.000000000000000000e+00,5.000000000000000000e+00,5.000000000000000000e+00,5.000000000000000000e+00,5.000000000000000000e+00,5.000000000000000000e+00,5.000000000000000000e+00,5.000000000000000000e+00,5.000000000000000000e+00,5.000000000000000000e+00,5.000000000000000000e+00,5.000000000000000000e+00,9.639505147933959961e-01,9.374434351921081543e-01,9.170215725898742676e-01,9.011733531951904297e-01,8.906207084655761719e-01,8.620153665542602539e-01,8.506268262863159180e-01,8.487731218338012695e-01,8.398873209953308105e-01,5.000000000000000000e+00,5.000000000000000000e+00,5.000000000000000000e+00,4.848805427551269531e+00,4.689641952514648438e+00,4.540595531463623047e+00,4.400731086730957031e+00,4.269225597381591797e+00,4.145351886749267578e+00,4.028463840484619141e+00,3.917986869812011719e+00,3.813408136367797852e+00,3.714266538619995117e+00
3.100105762481689453e+00,3.178515911102294922e+00,3.260995388031005859e+00,3.347869157791137695e+00,3.439498662948608398e+00,3.536284923553466797e+00,3.638675928115844727e+00,3.747173070907592773e+00,3.862339258193969727e+00,3.984809160232543945e+00,4.115300178527832031e+00,4.254626750946044922e+00,4.403717994689941406e+00,4.563637733459472656e+00,4.735609531402587891e+00,4.921050071716308594e+00,5.000000000000000000e+00,5.000000000000000000e+00,5.000000000000000000e+00,5.000000000000000000e+00,5.000000000000000000e+00,5.000000000000000000e+00,5.000000000000000000e+00,5.000000000000000000e+00,5.000000000000000000e+00,5.000000000000000000e+00,5.000000000000000000e+00,5.000000000000000000e+00,5.000000000000000000e+00,5.000000000000000000e+00,5.000000000000000000e+00,5.000000000000000000e+00,5.000000000000000000e+00,5.000000000000000000e+00,5.000000000000000000e+00,5.000000000000000000e+00,5.000000000000000000e+00,5.000000000000000000e+00,5.000000000000000000e+00,5.000000000000000000e+00,5.000000000000000000e+00,5.000000000000000000e+00,5.000000000000000000e+00,5.000000000000000000e+00,5.000000000000000000e+00,5.000000000000000000e+00,5.000000000000000000e+00,5.000000000000000000e+00,5.000000000000000000e+00,5.000000000000000000e+00,5.000000000000000000e+00,5.000000000000000000e+00,5.000000000000000000e+00,5.000000000000000000e+00,5.000000000000000000e+00,5.000000000000000000e+00,5.000000000000000000e+00,5.000000000000000000e+00,9.573022127151489258e-01,9.344307184219360352e-01,9.186309576034545898e-01,9.092136621475219727e-01,8.990267515182495117e-01,8.930181860923767090e-01,8.720414042472839355e-01,5.000000000000000000e+00,5.000000000000000000e+00,5.000000000000000000e+00,5.000000000000000000e+00,5.000000000000000000e+00,4.848947525024414062e+00,4.689774990081787109e+00,4.540719985961914062e+00,4.400848388671875000e+00,4.269336223602294922e+00,4.145455837249755859e+00,4.028562068939208984e+00,3.918079853057861328e+00,3.813496112823486328e+00,3.714349985122680664e+00
3.100039720535278320e+00,3.178446292877197266e+00,3.260922193527221680e+00,3.347792148590087891e+00,3.439417362213134766e+00,3.536198854446411133e+00,3.638584852218627930e+00,3.747076272964477539e+00,3.862236499786376953e+00,3.984699726104736328e+00,4.115183353424072266e+00,4.254501819610595703e+00,4.403584480285644531e+00,4.563494205474853516e+00,4.735455513000488281e+00,4.854078769683837891e+00,4.852875709533691406e+00,4.851673603057861328e+00,4.850472450256347656e+00,4.849271297454833984e+00,4.848071098327636719e+00,4.846871376037597656e+00,4.845672130584716797e+00,4.844473838806152344e+00,4.843276023864746094e+00,4.842078208923339844e+00,4.840881824493408203e+00,4.839685440063476562e+00,4.838489532470703125e+00,4.837295055389404297e+00,4.836100578308105469e+00,4.834907054901123047e+00,4.833713531494140625e+00,4.832520961761474609e+00,4.831328868865966797e+00,4.830137252807617188e+00,4.828946590423583984e+00,4.827756404876708984e+00,4.826566219329833984e+00,4.825377464294433594e+00,4.824189186096191406e+00,4.823000907897949219e+00,4.821813583374023438e+00,4.820627212524414062e+00,4.819440841674804688e+00,4.818254947662353516e+00,4.817070007324218750e+00,4.815885543823242188e+00,4.814702033996582031e+00,4.813518524169921875e+00,4.812335968017578125e+00,4.811153888702392578e+00,4.809972286224365234e+00,4.808791637420654297e+00,4.807610988616943359e+00,4.806431293487548828e+00,4.805252075195312500e+00,4.804073333740234375e+00,9.510416984558105469e-01,9.335197806358337402e-01,9.216654300689697266e-01,9.131032228469848633e-01,9.074019193649291992e-01,9.044376015663146973e-01,4.795839309692382812e+00,4.794665336608886719e+00,4.793491840362548828e+00,4.792318820953369141e+00,4.791146755218505859e+00,4.789975166320800781e+00,4.788804054260253906e+00,4.689908027648925781e+00,4.540844917297363281e+00,4.400965213775634766e+00,4.269446372985839844e+00,4.145559787750244141e+00,4.028660297393798828e+00,3.918173074722290039e+00,3.813584089279174805e+00,3.714433431625366211e+00
3.099973440170288086e+00,3.178376913070678711e+00,3.260848999023437500e+00,3.347714900970458984e+00,3.439335823059082031e+00,3.536112546920776367e+00,3.638493537902832031e+00,3.746979713439941406e+00,3.770626068115234375e+00,3.769899845123291016e+00,3.769174575805664062e+00,3.768449306488037109e+00,3.767724514007568359e+00,3.766999959945678711e+00,3.766275644302368164e+00,3.765551567077636719e+00,3.764827489852905273e+00,3.764103889465332031e+00,3.763380765914916992e+00,3.762657880783081055e+00,3.761935234069824219e+00,3.761213064193725586e+00,3.760490417480468750e+00,3.759768724441528320e+00,3.759047269821166992e+00,3.758326053619384766e+00,3.757605075836181641e+00,3.756884336471557617e+00,3.756163358688354492e+00,3.755443334579467773e+00,3.754723548889160156e+00,3.754004001617431641e+00,3.753284692764282227e+00,3.752565622329711914e+00,3.751846790313720703e+00,3.751127958297729492e+00,3.750409603118896484e+00,3.749691724777221680e+00,3.748974084854125977e+00,3.748256683349609375e+00,3.747539520263671875e+00,3.746822357177734375e+00,3.746105670928955078e+00,3.745389461517333984e+00,3.744673490524291992e+00,3.743957757949829102e+00,3.743242263793945312e+00,3.742526769638061523e+00,3.741811752319335938e+00,3.741097211837768555e+00,3.740382909774780273e+00,3.739668846130371094e+00,3.738955020904541016e+00,3.738241434097290039e+00,3.737527847290039062e+00,3.736814737319946289e+00,3.736101865768432617e+00,3.735389471054077148e+00,9.453133344650268555e-01,9.330548644065856934e-01,9.217668175697326660e-01,9.143226742744445801e-01,9.111369848251342773e-01,3.731120109558105469e+00,3.730409383773803711e+00,3.729699134826660156e+00,3.728988647460937500e+00,3.728278875350952148e+00,3.727569341659545898e+00,3.726860284805297852e+00,3.726151227951049805e+00,3.725442647933959961e+00,3.724734306335449219e+00,3.724025726318359375e+00,3.723317861557006836e+00,3.722610235214233398e+00,3.721902847290039062e+00,3.721195697784423828e+00,3.720489025115966797e+00,3.714516878128051758e+00
3.083065986633300781e+00,3.082580804824829102e+00,3.082095623016357422e+00,3.081610679626464844e+00,3.081125974655151367e+00,3.080641031265258789e+00,3.080156803131103516e+00,3.079672098159790039e+00,3.079188108444213867e+00,3.078704118728637695e+00,3.078219890594482422e+00,3.077736377716064453e+00,3.077252626419067383e+00,3.076769113540649414e+00,3.076286077499389648e+00,3.075802803039550781e+00,3.075319766998291016e+00,3.074836969375610352e+00,3.074354410171508789e+00,3.073871850967407227e+00,3.073389530181884766e+00,3.072907447814941406e+00,3.072425127029418945e+00,3.071943283081054688e+00,3.071461677551269531e+00,3.070980072021484375e+00,3.070498704910278320e+00,3.070017576217651367e+00,3.069536209106445312e+00,3.069055318832397461e+00,3.068574428558349609e+00,3.068093776702880859e+00,3.067613363265991211e+00,3.067132949829101562e+00,3.066652774810791016e+00,3.066172599792480469e+00,3.065692663192749023e+00,3.065212965011596680e+00,3.064733505249023438e+00,3.064254045486450195e+00,3.063774585723876953e+00,3.063295364379882812e+00,3.062816381454467773e+00,3.062337398529052734e+00,3.061858892440795898e+00,3.061380147933959961e+00,3.060901880264282227e+00,3.060423374176025391e+00,3.059945344924926758e+00,3.059467315673828125e+00,3.058989524841308594e+00,3.058511972427368164e+00,3.058034420013427734e+00,3.057557106018066406e+00,3.057079553604125977e+00,3.056602478027343750e+00,3.056125640869140625e+00,3.055648803710937500e+00,9.402382969856262207e-01,9.310805797576904297e-01,9.226239323616027832e-01,9.154067635536193848e-01,9.151765704154968262e-01,3.052791357040405273e+00,3.052315473556518555e+00,3.051840066909790039e+00,3.051364421844482422e+00,3.050889015197753906e+00,3.050414085388183594e+00,3.049938917160034180e+00,3.049464225769042969e+00,3.048989534378051758e+00,3.048515081405639648e+00,3.048040390014648438e+00,3.047566175460815430e+00,3.047092199325561523e+00,3.046618223190307617e+00,3.046144485473632812e+00,3.045670747756958008e+00,3.045197010040283203e+00
2.604808330535888672e+00,2.604461669921875000e+00,2.604115486145019531e+00,2.603769063949584961e+00,2.603423118591308594e+00,2.603077173233032227e+00,2.602730989456176758e+00,2.602385282516479492e+00,2.602039337158203125e+00,2.601693868637084961e+00,2.601347923278808594e+00,2.601002693176269531e+00,2.600657224655151367e+00,2.600311756134033203e+00,2.599966764450073242e+00,2.599621534347534180e+00,2.599276542663574219e+00,2.598931550979614258e+00,2.598586559295654297e+00,2.598242044448852539e+00,2.597897291183471680e+00,2.597552776336669922e+00,2.597208261489868164e+00,2.596863985061645508e+00,2.596519708633422852e+00,2.596175432205200195e+00,2.595831394195556641e+00,2.595487594604492188e+00,2.595143556594848633e+00,2.594799757003784180e+00,2.594455957412719727e+00,2.594112396240234375e+00,2.593768835067749023e+00,2.593425512313842773e+00,2.593082189559936523e+00,2.592738866806030273e+00,2.592395544052124023e+00,2.592052459716796875e+00,2.591709613800048828e+00,2.591366767883300781e+00,2.591023921966552734e+00,2.590681076049804688e+00,2.590338468551635742e+00,2.589996099472045898e+00,2.589653491973876953e+00,2.589311361312866211e+00,2.588968992233276367e+00,2.588626623153686523e+00,2.588284730911254883e+00,2.587942600250244141e+00,2.587600708007812500e+00,2.587259054183959961e+00,2.586917400360107422e+00,2.586575746536254883e+00,2.586234092712402344e+00,2.585892677307128906e+00,2.585551261901855469e+00,2.585210084915161133e+00,9.365014433860778809e-01,9.295702576637268066e-01,9.237809777259826660e-01,9.186111092567443848e-01,9.185287356376647949e-01,2.583164453506469727e+00,2.582823753356933594e+00,2.582483291625976562e+00,2.582142591476440430e+00,2.581802368164062500e+00,2.581462144851684570e+00,2.581121921539306641e+00,2.580781936645507812e+00,2.580441951751708984e+00,2.580101966857910156e+00,2.579761981964111328e+00,2.579422235488891602e+00,2.579082727432250977e+00,2.578742980957031250e+00,2.578403711318969727e+00,2.578064203262329102e+00,2.577724933624267578e+00
2.255002975463867188e+00,2.254743337631225586e+00,2.254483699798583984e+00,2.254224300384521484e+00,2.253964662551879883e+00,2.253705263137817383e+00,2.253446102142333984e+00,2.253186702728271484e+00,2.252927541732788086e+00,2.252668380737304688e+00,2.252409458160400391e+00,2.252150297164916992e+00,2.251891374588012695e+00,2.251632452011108398e+00,2.251373529434204102e+00,2.251114845275878906e+00,2.250855922698974609e+00,2.250597476959228516e+00,2.250338554382324219e+00,2.250080108642578125e+00,2.249821662902832031e+00,2.249563217163085938e+00,2.249304771423339844e+00,2.249046564102172852e+00,2.248788356781005859e+00,2.248530149459838867e+00,2.248271942138671875e+00,2.248013973236083984e+00,2.247756004333496094e+00,2.247498035430908203e+00,2.247240066528320312e+00,2.246982336044311523e+00,2.246724605560302734e+00,2.246467113494873047e+00,2.246209383010864258e+00,2.245951652526855469e+00,2.245694160461425781e+00,2.245436668395996094e+00,2.245179414749145508e+00,2.244922161102294922e+00,2.244664907455444336e+00,2.244407415390014648e+00,2.244150400161743164e+00,2.243893146514892578e+00,2.243636131286621094e+00,2.243379354476928711e+00,2.243122339248657227e+00,2.242865324020385742e+00,2.242608547210693359e+00,2.242352008819580078e+00,2.242095232009887695e+00,2.241838693618774414e+00,2.241582155227661133e+00,2.241325616836547852e+00,2.241069078445434570e+00,2.240812540054321289e+00,2.240556240081787109e+00,2.240300178527832031e+00,9.326978325843811035e-01,9.273176193237304688e-01,9.243458509445190430e-01,9.206323623657226562e-01,9.215627312660217285e-01,2.238763570785522461e+00,2.238507747650146484e+00,2.238251924514770508e+00,2.237996101379394531e+00,2.237740516662597656e+00,2.237484931945800781e+00,2.237229347229003906e+00,2.236973762512207031e+00,2.236718416213989258e+00,2.236463069915771484e+00,2.236207485198974609e+00,2.235952377319335938e+00,2.235697031021118164e+00,2.235441923141479492e+00,2.235186815261840820e+00,2.234931707382202148e+00,2.234676599502563477e+00
1.988026499748229980e+00,1.987824797630310059e+00,1.987622976303100586e+00,1.987421274185180664e+00,1.987219691276550293e+00,1.987017989158630371e+00,1.986816406250000000e+00,1.986614942550659180e+00,1.986413478851318359e+00,1.986211895942687988e+00,1.986010432243347168e+00,1.985809206962585449e+00,1.985607743263244629e+00,1.985406398773193359e+00,1.985205292701721191e+00,1.985004067420959473e+00,1.984802722930908203e+00,1.984601616859436035e+00,1.984400629997253418e+00,1.984199523925781250e+00,1.983998417854309082e+00,1.983797550201416016e+00,1.983596563339233398e+00,1.983395576477050781e+00,1.983194708824157715e+00,1.982994079589843750e+00,1.982793211936950684e+00,1.982592344284057617e+00,1.982391834259033203e+00,1.982191085815429688e+00,1.981990456581115723e+00,1.981790065765380859e+00,1.981589436531066895e+00,1.981389164924621582e+00,1.981188654899597168e+00,1.980988144874572754e+00,1.980787873268127441e+00,1.980587482452392578e+00,1.980387449264526367e+00,1.980187058448791504e+00,1.979987025260925293e+00,1.979786753654479980e+00,1.979586601257324219e+00,1.979386687278747559e+00,1.979186534881591797e+00,1.978986740112304688e+00,1.978786706924438477e+00,1.978586673736572266e+00,1.978386998176574707e+00,1.978187084197998047e+00,1.977987408638000488e+00,1.977787613868713379e+00,1.977588057518005371e+00,1.977388262748718262e+00,1.977188587188720703e+00,1.976989150047302246e+00,1.976789474487304688e+00,1.976590156555175781e+00,9.289693832397460938e-01,9.253420829772949219e-01,9.243786931037902832e-01,9.222735762596130371e-01,9.240843057632446289e-01,1.975393891334533691e+00,1.975194811820983887e+00,1.974995493888854980e+00,1.974796295166015625e+00,1.974597334861755371e+00,1.974398255348205566e+00,1.974199295043945312e+00,1.974000215530395508e+00,1.973801493644714355e+00,1.973602414131164551e+00,1.973403573036193848e+00,1.973204851150512695e+00,1.973006010055541992e+00,1.972807407379150391e+00,1.972608566284179688e+00,1.972410082817077637e+00,1.972211360931396484e+00
1.777574300765991211e+00,1.777413010597229004e+00,1.777251839637756348e+00,1.777090430259704590e+00,1.776929140090942383e+00,1.776768088340759277e+00,1.776606798171997070e+00,1.776445627212524414e+00,1.776284456253051758e+00,1.776123523712158203e+00,1.775962352752685547e+00,1.775801301002502441e+00,1.775640368461608887e+00,1.775479316711425781e+00,1.775318384170532227e+00,1.775157332420349121e+00,1.774996638298034668e+00,1.774835705757141113e+00,1.774674773216247559e+00,1.774514079093933105e+00,1.774353265762329102e+00,1.774192452430725098e+00,1.774031639099121094e+00,1.773871064186096191e+00,1.773710370063781738e+00,1.773549675941467285e+00,1.773389220237731934e+00,1.773228645324707031e+00,1.773067951202392578e+00,1.772907614707946777e+00,1.772747039794921875e+00,1.772586584091186523e+00,1.772426009178161621e+00,1.772265791893005371e+00,1.772105336189270020e+00,1.771944999694824219e+00,1.771784782409667969e+00,1.771624445915222168e+00,1.771464347839355469e+00,1.771304011344909668e+00,1.771143913269042969e+00,1.770983695983886719e+00,1.770823478698730469e+00,1.770663499832153320e+00,1.770503401756286621e+00,1.770343422889709473e+00,1.770183444023132324e+00,1.770023345947265625e+00,1.769863486289978027e+00,1.769703507423400879e+00,1.769543766975402832e+00,1.769383788108825684e+00,1.769224047660827637e+00,1.769064188003540039e+00,1.768904328346252441e+00,1.768744707107543945e+00,1.768584847450256348e+00,1.768425345420837402e+00,9.320310950279235840e-01,9.178000688552856445e-01,9.215570092201232910e-01,9.230707883834838867e-01,9.260749816894531250e-01,9.305530190467834473e-01,1.767308354377746582e+00,1.767148852348327637e+00,1.766989350318908691e+00,1.766830086708068848e+00,1.766670584678649902e+00,1.766511321067810059e+00,1.766351938247680664e+00,1.766192793846130371e+00,1.766033530235290527e+00,1.765874147415161133e+00,1.765715122222900391e+00,1.765555858612060547e+00,1.765396833419799805e+00,1.765237689018249512e+00,1.765078663825988770e+00,1.764919638633728027e+00
1.607413768768310547e+00,1.607281804084777832e+00,1.607149958610534668e+00,1.607018113136291504e+00,1.606886267662048340e+00,1.606754302978515625e+00,1.606622576713562012e+00,1.606490850448608398e+00,1.606359004974365234e+00,1.606227159500122070e+00,1.606095552444458008e+00,1.605963826179504395e+00,1.605832099914550781e+00,1.605700492858886719e+00,1.605568766593933105e+00,1.605437159538269043e+00,1.605305552482604980e+00,1.605174064636230469e+00,1.605042457580566406e+00,1.604910850524902344e+00,1.604779481887817383e+00,1.604647874832153320e+00,1.604516386985778809e+00,1.604384899139404297e+00,1.604253530502319336e+00,1.604122042655944824e+00,1.603990674018859863e+00,1.603859424591064453e+00,1.603728055953979492e+00,1.603596687316894531e+00,1.603465318679809570e+00,1.603334188461303711e+00,1.603202819824218750e+00,1.603071570396423340e+00,1.602940440177917480e+00,1.602809190750122070e+00,1.602677941322326660e+00,1.602546811103820801e+00,1.602415800094604492e+00,1.602284669876098633e+00,1.602153539657592773e+00,1.602022528648376465e+00,1.601891398429870605e+00,1.601760506629943848e+00,1.601629495620727539e+00,1.601498603820800781e+00,1.601367592811584473e+00,1.601236701011657715e+00,1.601105809211730957e+00,1.600974917411804199e+00,1.600844144821166992e+00,1.600713253021240234e+00,1.600582480430603027e+00,1.600451707839965820e+00,1.600320816040039062e+00,1.600190162658691406e+00,1.600059390068054199e+00,1.599928736686706543e+00,1.599797964096069336e+00,9.192746281623840332e-01,9.163255095481872559e-01,9.296576380729675293e-01,9.293456077575683594e-01,9.273132085800170898e-01,1.599014401435852051e+00,1.598883867263793945e+00,1.598753333091735840e+00,1.598622918128967285e+00,1.598492383956909180e+00,1.598361968994140625e+00,1.598231554031372070e+00,1.598101139068603516e+00,1.597970724105834961e+00,1.597840309143066406e+00,1.597710013389587402e+00,1.597579717636108398e+00,1.597449421882629395e+00,1.597319126129150391e+00,1.597188949584960938e+00,1.597058653831481934e+00
1.466984868049621582e+00,1.466874957084655762e+00,1.466765046119689941e+00,1.466655135154724121e+00,1.466545343399047852e+00,1.466435551643371582e+00,1.466325759887695312e+00,1.466215968132019043e+00,1.466106176376342773e+00,1.465996384620666504e+00,1.465886592864990234e+00,1.465777039527893066e+00,1.465667247772216797e+00,1.465557575225830078e+00,1.465447902679443359e+00,1.465338230133056641e+00,1.465228557586669922e+00,1.465118885040283203e+00,1.465009450912475586e+00,1.464899778366088867e+00,1.464790225028991699e+00,1.464680671691894531e+00,1.464571118354797363e+00,1.464461565017700195e+00,1.464352011680603027e+00,1.464242577552795410e+00,1.464133143424987793e+00,1.464023590087890625e+00,1.463914275169372559e+00,1.463804841041564941e+00,1.463695406913757324e+00,1.463585972785949707e+00,1.463476657867431641e+00,1.463367223739624023e+00,1.463257908821105957e+00,1.463148593902587891e+00,1.463039278984069824e+00,1.462929964065551758e+00,1.462820649147033691e+00,1.462711453437805176e+00,1.462602257728576660e+00,1.462492942810058594e+00,1.462383866310119629e+00,1.462274551391601562e+00,1.462165355682373047e+00,1.462056159973144531e+00,1.461947083473205566e+00,1.461838006973266602e+00,1.461728930473327637e+00,1.461619853973388672e+00,1.461510777473449707e+00,1.461401700973510742e+00,1.461292743682861328e+00,1.461183667182922363e+00,1.461074590682983398e+00,1.460965752601623535e+00,1.460856676101684570e+00,1.460747838020324707e+00,1.460638880729675293e+00,9.289740324020385742e-01,9.216142296791076660e-01,9.168707728385925293e-01,9.225312471389770508e-01,9.254805445671081543e-01,1.459985613822937012e+00,1.459876775741577148e+00,1.459767937660217285e+00,1.459659218788146973e+00,1.459550380706787109e+00,1.459441661834716797e+00,1.459332942962646484e+00,1.459224224090576172e+00,1.459115505218505859e+00,1.459006786346435547e+00,1.458898186683654785e+00,1.458789467811584473e+00,1.458680868148803711e+00,1.458572149276733398e+00,1.458463668823242188e+00,1.458354949951171875e+00
1.349121093750000000e+00,1.349028229713439941e+00,1.348935246467590332e+00,1.348842263221740723e+00,1.348749399185180664e+00,1.348656535148620605e+00,1.348563671112060547e+00,1.348470687866210938e+00,1.348377943038940430e+00,1.348285079002380371e+00,1.348192214965820312e+00,1.348099470138549805e+00,1.348006725311279297e+00,1.347913861274719238e+00,1.347821116447448730e+00,1.347728371620178223e+00,1.347635626792907715e+00,1.347542881965637207e+00,1.347450137138366699e+00,1.347357511520385742e+00,1.347264766693115234e+00,1.347172141075134277e+00,1.347079515457153320e+00,1.346986770629882812e+00,1.346894145011901855e+00,1.346801519393920898e+00,1.346708893775939941e+00,1.346616268157958984e+00,1.346523642539978027e+00,1.346431136131286621e+00,1.346338629722595215e+00,1.346246004104614258e+00,1.346153378486633301e+00,1.346060991287231445e+00,1.345968484878540039e+00,1.345875859260559082e+00,1.345783472061157227e+00,1.345690965652465820e+00,1.345598459243774414e+00,1.345505952835083008e+00,1.345413684844970703e+00,1.345321178436279297e+00,1.345228791236877441e+00,1.345136404037475586e+00,1.345044016838073730e+00,1.344951629638671875e+00,1.344859242439270020e+00,1.344766855239868164e+00,1.344674587249755859e+00,1.344582200050354004e+00,1.344489932060241699e+00,1.344397664070129395e+00,1.344305396080017090e+00,1.344213128089904785e+00,1.344120860099792480e+00,1.344028592109680176e+00,1.343936324119567871e+00,1.343844175338745117e+00,1.343752026557922363e+00,1.343659877777099609e+00,9.257867336273193359e-01,9.255675673484802246e-01,9.300940036773681641e-01,9.318339824676513672e-01,1.343199133872985840e+00,1.343106985092163086e+00,1.343014836311340332e+00,1.342922806739807129e+00,1.342830657958984375e+00,1.342738628387451172e+00,1.342646598815917969e+00,1.342554569244384766e+00,1.342462539672851562e+00,1.342370510101318359e+00,1.342278599739074707e+00,1.342186570167541504e+00,1.342094659805297852e+00,1.342002630233764648e+00,1.341910719871520996e+00,1.341818690299987793e+00
1.248788118362426758e+00,1.248708605766296387e+00,1.248628854751586914e+00,1.248549342155456543e+00,1.248469710350036621e+00,1.248390078544616699e+00,1.248310565948486328e+00,1.248231053352355957e+00,1.248151421546936035e+00,1.248071908950805664e+00,1.247992396354675293e+00,1.247912883758544922e+00,1.247833251953125000e+00,1.247753858566284180e+00,1.247674345970153809e+00,1.247594833374023438e+00,1.247515439987182617e+00,1.247435927391052246e+00,1.247356414794921875e+00,1.247277021408081055e+00,1.247197628021240234e+00,1.247118115425109863e+00,1.247038722038269043e+00,1.246959328651428223e+00,1.246879935264587402e+00,1.246800541877746582e+00,1.246721148490905762e+00,1.246641874313354492e+00,1.246562480926513672e+00,1.246483087539672852e+00,1.246403813362121582e+00,1.246324419975280762e+00,1.246245145797729492e+00,1.246165752410888672e+00,1.246086597442626953e+00,1.246007204055786133e+00,1.245927929878234863e+00,1.245848774909973145e+00,1.245769500732421875e+00,1.245690226554870605e+00,1.245610952377319336e+00,1.245531797409057617e+00,1.245452523231506348e+00,1.245373368263244629e+00,1.245294213294982910e+00,1.245214939117431641e+00,1.245135784149169922e+00,1.245056629180908203e+00,1.244977474212646484e+00,1.244898319244384766e+00,1.244819164276123047e+00,1.244740128517150879e+00,1.244660973548889160e+00,1.244581818580627441e+00,1.244502782821655273e+00,1.244423747062683105e+00,1.244344592094421387e+00,1.244265556335449219e+00,1.244186520576477051e+00,1.244107604026794434e+00,1.244028449058532715e+00,1.243949413299560547e+00,9.300107955932617188e-01,1.243791460990905762e+00,1.243712544441223145e+00,1.243633508682250977e+00,1.243554592132568359e+00,1.243475675582885742e+00,1.243396639823913574e+00,1.243317842483520508e+00,1.243238806724548340e+00,1.243160009384155273e+00,1.243081092834472656e+00,1.243002176284790039e+00,1.242923259735107422e+00,1.242844343185424805e+00,1.242765545845031738e+00,1.242686748504638672e+00,1.242607951164245605e+00,1.242529034614562988e+00
1.162345647811889648e+00,1.162276625633239746e+00,1.162207722663879395e+00,1.162138700485229492e+00,1.162069797515869141e+00,1.162000775337219238e+00,1.161931872367858887e+00,1.161862969398498535e+00,1.161794066429138184e+00,1.161725044250488281e+00,1.161656141281127930e+00,1.161587238311767578e+00,1.161518335342407227e+00,1.161449432373046875e+00,1.161380648612976074e+00,1.161311745643615723e+00,1.161242842674255371e+00,1.161174058914184570e+00,1.161105155944824219e+00,1.161036372184753418e+00,1.160967469215393066e+00,1.160898685455322266e+00,1.160829901695251465e+00,1.160760998725891113e+00,1.160692334175109863e+00,1.160623431205749512e+00,1.160554647445678711e+00,1.160485863685607910e+00,1.160417199134826660e+00,1.160348415374755859e+00,1.160279631614685059e+00,1.160210967063903809e+00,1.160142183303833008e+00,1.160073399543762207e+00,1.160004734992980957e+00,1.159936070442199707e+00,1.159867286682128906e+00,1.159798622131347656e+00,1.159729957580566406e+00,1.159661293029785156e+00,1.159592509269714355e+00,1.159523844718933105e+00,1.159455299377441406e+00,1.159386634826660156e+00,1.159317970275878906e+00,1.159249424934387207e+00,1.159180760383605957e+00,1.159112095832824707e+00,1.159043431282043457e+00,1.158974885940551758e+00,1.158906340599060059e+00,1.158837676048278809e+00,1.158769249916076660e+00,1.158700585365295410e+00,1.158632040023803711e+00,1.158563494682312012e+00,1.158494949340820312e+00,1.158426403999328613e+00,1.158357977867126465e+00,1.158289432525634766e+00,1.158220887184143066e+00,1.158152461051940918e+00,1.158083915710449219e+00,1.158015489578247070e+00,1.157947063446044922e+00,1.157878637313842773e+00,1.157810091972351074e+00,1.157741665840148926e+00,1.157673239707946777e+00,1.157604932785034180e+00,1.157536387443542480e+00,1.157468080520629883e+00,1.157399654388427734e+00,1.157331228256225586e+00,1.157262921333312988e+00,1.157194495201110840e+00,1.157126188278198242e+00,1.157057762145996094e+00,1.156989455223083496e+00,1.156921148300170898e+00
1.087095618247985840e+00,1.087035298347473145e+00,1.086974978446960449e+00,1.086914658546447754e+00,1.086854219436645508e+00,1.086794018745422363e+00,1.086733698844909668e+00,1.086673378944396973e+00,1.086613059043884277e+00,1.086552739143371582e+00,1.086492538452148438e+00,1.086432218551635742e+00,1.086372017860412598e+00,1.086311697959899902e+00,1.086251378059387207e+00,1.086191177368164062e+00,1.086130976676940918e+00,1.086070656776428223e+00,1.086010456085205078e+00,1.085950255393981934e+00,1.085890054702758789e+00,1.085829854011535645e+00,1.085769653320312500e+00,1.085709452629089355e+00,1.085649251937866211e+00,1.085589051246643066e+00,1.085528969764709473e+00,1.085468769073486328e+00,1.085408568382263184e+00,1.085348486900329590e+00,1.085288286209106445e+00,1.085228085517883301e+00,1.085168004035949707e+00,1.085107922554016113e+00,1.085047721862792969e+00,1.084987640380859375e+00,1.084927558898925781e+00,1.084867477416992188e+00,1.084807276725769043e+00,1.084747314453125000e+00,1.084687113761901855e+00,1.084627032279968262e+00,1.084566950798034668e+00,1.084506988525390625e+00,1.084446907043457031e+00,1.084386825561523438e+00,1.084326863288879395e+00,1.084266781806945801e+00,1.084206700325012207e+00,1.084146618843078613e+00,1.084086656570434570e+00,1.084026694297790527e+00,1.083966612815856934e+00,1.083906650543212891e+00,1.083846688270568848e+00,1.083786725997924805e+00,1.083726644515991211e+00,1.083666801452636719e+00,1.083606839179992676e+00,1.083546876907348633e+00,1.083486914634704590e+00,1.083426952362060547e+00,1.083366990089416504e+00,1.083307027816772461e+00,1.083247184753417969e+00,1.083187222480773926e+00,1.083127260208129883e+00,1.083067417144775391e+00,1.083007574081420898e+00,1.082947731018066406e+00,1.082887768745422363e+00,1.082827925682067871e+00,1.082768082618713379e+00,1.082708239555358887e+00,1.082648396492004395e+00,1.082588553428649902e+00,1.082528710365295410e+00,1.082468867301940918e+00,1.082409024238586426e+00,1.082349181175231934e+00
1.020996570587158203e+00,1.020943284034729004e+00,1.020890116691589355e+00,1.020836830139160156e+00,1.020783662796020508e+00,1.020730376243591309e+00,1.020677208900451660e+00,1.020624041557312012e+00,1.020570874214172363e+00,1.020517706871032715e+00,1.020464539527893066e+00,1.020411252975463867e+00,1.020358085632324219e+00,1.020305037498474121e+00,1.020251870155334473e+00,1.020198702812194824e+00,1.020145535469055176e+00,1.020092368125915527e+00,1.020039200782775879e+00,1.019986152648925781e+00,1.019932985305786133e+00,1.019879937171936035e+00,1.019826769828796387e+00,1.019773721694946289e+00,1.019720554351806641e+00,1.019667506217956543e+00,1.019614338874816895e+00,1.019561290740966797e+00,1.019508242607116699e+00,1.019455194473266602e+00,1.019402146339416504e+00,1.019349098205566406e+00,1.019295930862426758e+00,1.019242882728576660e+00,1.019189953804016113e+00,1.019136905670166016e+00,1.019083738327026367e+00,1.019030809402465820e+00,1.018977761268615723e+00,1.018924713134765625e+00,1.018871665000915527e+00,1.018818736076354980e+00,1.018765687942504883e+00,1.018712759017944336e+00,1.018659710884094238e+00,1.018606781959533691e+00,1.018553733825683594e+00,1.018500804901123047e+00,1.018447875976562500e+00,1.018394827842712402e+00,1.018341898918151855e+00,1.018288969993591309e+00,1.018236041069030762e+00,1.018183112144470215e+00,1.018130064010620117e+00,1.018077254295349121e+00,1.018024325370788574e+00,1.017971396446228027e+00,1.017918467521667480e+00,1.017865538597106934e+00,1.017812609672546387e+00,1.017759799957275391e+00,1.017706871032714844e+00,1.017653942108154297e+00,1.017601132392883301e+00,1.017548203468322754e+00,1.017495393753051758e+00,1.017442464828491211e+00,1.017389655113220215e+00,1.017336845397949219e+00,1.017283916473388672e+00,1.017231106758117676e+00,1.017178297042846680e+00,1.017125368118286133e+00,1.017072677612304688e+00,1.017019748687744141e+00,1.016967058181762695e+00,1.016914248466491699e+00,1.016861438751220703e+00,1.016808629035949707e+00
9.624748229980468750e-01,9.624275565147399902e-01,9.623801708221435547e-01,9.623329043388366699e-01,9.622856974601745605e-01,9.622383117675781250e-01,9.621911048889160156e-01,9.621438384056091309e-01,9.620965123176574707e-01,9.620493054389953613e-01,9.620020985603332520e-01,9.619547724723815918e-01,9.619075655937194824e-01,9.618602395057678223e-01,9.618130326271057129e-01,9.617658257484436035e-01,9.617184996604919434e-01,9.616713523864746094e-01,9.616241455078125000e-01,9.615768790245056152e-01,9.615296721458435059e-01,9.614825248718261719e-01,9.614352583885192871e-01,9.613881111145019531e-01,9.613409638404846191e-01,9.612936973571777344e-01,9.612465500831604004e-01,9.611992835998535156e-01,9.611521363258361816e-01,9.611049890518188477e-01,9.610577821731567383e-01,9.610106348991394043e-01,9.609635472297668457e-01,9.609163403511047363e-01,9.608691930770874023e-01,9.608221054077148438e-01,9.607748985290527344e-01,9.607278108596801758e-01,9.606807231903076172e-01,9.606335163116455078e-01,9.605864286422729492e-01,9.605392217636108398e-01,9.604921936988830566e-01,9.604451060295104980e-01,9.603979587554931641e-01,9.603508710861206055e-01,9.603038430213928223e-01,9.602566361427307129e-01,9.602096080780029297e-01,9.601625800132751465e-01,9.601154327392578125e-01,9.600684046745300293e-01,9.600213766098022461e-01,9.599742293357849121e-01,9.599272012710571289e-01,9.598801136016845703e-01,9.598330855369567871e-01,9.597861170768737793e-01,9.597389698028564453e-01,9.596920013427734375e-01,9.596449732780456543e-01,9.595978856086730957e-01,9.595509171485900879e-01,9.595039486885070801e-01,9.594568610191345215e-01,9.594098925590515137e-01,9.593629240989685059e-01,9.593158960342407227e-01,9.592689275741577148e-01,9.592218399047851562e-01,9.591749310493469238e-01,9.591279625892639160e-01,9.590809345245361328e-01,9.590340256690979004e-01,9.589870572090148926e-01,9.589400291442871094e-01,9.588931202888488770e-01,9.588462114334106445e-01,9.587991833686828613e-01,9.587523341178894043e-01
9.102981090545654297e-01,9.102557897567749023e-01,9.102135300636291504e-01,9.101711511611938477e-01,9.101288914680480957e-01,9.100866317749023438e-01,9.100443124771118164e-01,9.100020527839660645e-01,9.099597930908203125e-01,9.099174141883850098e-01,9.098752140998840332e-01,9.098329544067382812e-01,9.097906351089477539e-01,9.097483754158020020e-01,9.097060561180114746e-01,9.096638560295104980e-01,9.096216559410095215e-01,9.095793366432189941e-01,9.095370769500732422e-01,9.094948768615722656e-01,9.094526171684265137e-01,9.094104170799255371e-01,9.093682169914245605e-01,9.093258976936340332e-01,9.092837572097778320e-01,9.092415571212768555e-01,9.091992974281311035e-01,9.091570973396301270e-01,9.091148376464843750e-01,9.090726375579833984e-01,9.090304970741271973e-01,9.089882373809814453e-01,9.089460968971252441e-01,9.089039564132690430e-01,9.088616967201232910e-01,9.088195562362670898e-01,9.087774157524108887e-01,9.087351560592651367e-01,9.086930155754089355e-01,9.086509346961975098e-01,9.086086750030517578e-01,9.085665941238403320e-01,9.085243344306945801e-01,9.084822535514831543e-01,9.084401130676269531e-01,9.083979129791259766e-01,9.083558320999145508e-01,9.083137512207031250e-01,9.082715511322021484e-01,9.082294702529907227e-01,9.081873893737792969e-01,9.081451892852783203e-01,9.081031084060668945e-01,9.080610275268554688e-01,9.080188870429992676e-01,9.079768061637878418e-01,9.079346656799316406e-01,9.078925848007202148e-01,9.078505635261535645e-01,9.078084230422973633e-01,9.077663421630859375e-01,9.077243208885192871e-01,9.076821804046630859e-01,9.076401591300964355e-01,9.075981378555297852e-01,9.075559973716735840e-01,9.075139760971069336e-01,9.074719548225402832e-01,9.074298143386840820e-01,9.073878526687622070e-01,9.073457121849060059e-01,9.073036909103393555e-01,9.072617292404174805e-01,9.072196483612060547e-01,9.071776270866394043e-01,9.071356654167175293e-01,9.070935845375061035e-01,9.070515632629394531e-01,9.070096015930175781e-01,9.069675207138061523e-01
8.634876608848571777e-01,8.634495139122009277e-01,8.634114861488342285e-01,8.633734583854675293e-01,8.633353114128112793e-01,8.632972836494445801e-01,8.632592558860778809e-01,8.632211685180664062e-01,8.631831407546997070e-01,8.631451129913330078e-01,8.631070256233215332e-01,8.630689978599548340e-01,8.630309104919433594e-01,8.629929423332214355e-01,8.629549145698547363e-01,8.629168272018432617e-01,8.628788590431213379e-01,8.628408908843994141e-01,8.628028035163879395e-01,8.627648353576660156e-01,8.627268671989440918e-01,8.626887798309326172e-01,8.626508116722106934e-01,8.626128435134887695e-01,8.625748157501220703e-01,8.625368475914001465e-01,8.624988794326782227e-01,8.624608516693115234e-01,8.624228835105895996e-01,8.623848557472229004e-01,8.623468875885009766e-01,8.623089790344238281e-01,8.622709512710571289e-01,8.622329831123352051e-01,8.621950745582580566e-01,8.621570467948913574e-01,8.621191382408142090e-01,8.620812296867370605e-01,8.620432019233703613e-01,8.620052933692932129e-01,8.619673848152160645e-01,8.619294166564941406e-01,8.618915081024169922e-01,8.618534803390502930e-01,8.618155717849731445e-01,8.617777228355407715e-01,8.617397546768188477e-01,8.617018461227416992e-01,8.616639375686645508e-01,8.616259694099426270e-01,8.615881204605102539e-01,8.615502119064331055e-01,8.615123033523559570e-01,8.614743947982788086e-01,8.614365458488464355e-01,8.613985776901245117e-01,8.613607287406921387e-01,8.613228201866149902e-01,8.612849712371826172e-01,8.612471222877502441e-01,8.612091541290283203e-01,8.611713051795959473e-01,8.611335158348083496e-01,8.610955476760864258e-01,8.610577583312988281e-01,8.610199093818664551e-01,8.609820008277893066e-01,8.609442114830017090e-01,8.609063625335693359e-01,8.608684539794921875e-01,8.608306646347045898e-01,8.607927560806274414e-01,8.607549667358398438e-01,8.607171773910522461e-01,8.606792688369750977e-01,8.606414794921875000e-01,8.606036901473999023e-01,8.605658411979675293e-01,8.605280518531799316e-01,8.604902625083923340e-01
8.212559223175048828e-01,8.212215304374694824e-01,8.211870193481445312e-01,8.211526274681091309e-01,8.211182355880737305e-01,8.210837841033935547e-01,8.210493326187133789e-01,8.210149407386779785e-01,8.209804892539978027e-01,8.209460973739624023e-01,8.209117054939270020e-01,8.208772540092468262e-01,8.208428621292114258e-01,8.208084106445312500e-01,8.207740783691406250e-01,8.207396864891052246e-01,8.207052350044250488e-01,8.206709027290344238e-01,8.206365108489990234e-01,8.206020593643188477e-01,8.205677270889282227e-01,8.205333948135375977e-01,8.204989433288574219e-01,8.204646110534667969e-01,8.204302787780761719e-01,8.203958272933959961e-01,8.203614950180053711e-01,8.203271031379699707e-01,8.202927708625793457e-01,8.202584385871887207e-01,8.202239871025085449e-01,8.201897144317626953e-01,8.201553821563720703e-01,8.201209902763366699e-01,8.200866580009460449e-01,8.200523257255554199e-01,8.200179338455200195e-01,8.199836611747741699e-01,8.199493288993835449e-01,8.199149370193481445e-01,8.198806643486022949e-01,8.198463916778564453e-01,8.198119997978210449e-01,8.197777271270751953e-01,8.197433352470397949e-01,8.197090625762939453e-01,8.196747899055480957e-01,8.196403980255126953e-01,8.196061253547668457e-01,8.195718526840209961e-01,8.195375204086303711e-01,8.195032477378845215e-01,8.194689750671386719e-01,8.194346427917480469e-01,8.194003701210021973e-01,8.193660974502563477e-01,8.193318247795104980e-01,8.192975521087646484e-01,8.192632198333740234e-01,8.192289471626281738e-01,8.191947340965270996e-01,8.191604018211364746e-01,8.191261887550354004e-01,8.190919756889343262e-01,8.190576434135437012e-01,8.190234303474426270e-01,8.189892172813415527e-01,8.189548850059509277e-01,8.189206719398498535e-01,8.188864588737487793e-01,8.188521862030029297e-01,8.188179731369018555e-01,8.187836408615112305e-01,8.187494874000549316e-01,8.187152743339538574e-01,8.186810016632080078e-01,8.186467885971069336e-01,8.186125755310058594e-01,8.185783028602600098e-01,8.185441493988037109e-01
7.829626202583312988e-01,7.829313278198242188e-01,7.829000353813171387e-01,7.828687429428100586e-01,7.828374505043029785e-01,7.828061580657958984e-01,7.827748656272888184e-01,7.827435731887817383e-01,7.827123403549194336e-01,7.826809883117675781e-01,7.826497554779052734e-01,7.826184630393981934e-01,7.825871706008911133e-01,7.825559377670288086e-01,7.825245857238769531e-01,7.824933528900146484e-01,7.824621200561523438e-01,7.824308276176452637e-01,7.823995947837829590e-01,7.823683619499206543e-01,7.823370099067687988e-01,7.823057770729064941e-01,7.822746038436889648e-01,7.822433114051818848e-01,7.822120785713195801e-01,7.821808457374572754e-01,7.821495532989501953e-01,7.821183800697326660e-01,7.820870876312255859e-01,7.820558547973632812e-01,7.820246815681457520e-01,7.819933891296386719e-01,7.819621562957763672e-01,7.819309830665588379e-01,7.818996906280517578e-01,7.818685173988342285e-01,7.818373441696166992e-01,7.818060517311096191e-01,7.817748785018920898e-01,7.817437052726745605e-01,7.817124724388122559e-01,7.816812992095947266e-01,7.816500067710876465e-01,7.816188335418701172e-01,7.815877199172973633e-01,7.815564274787902832e-01,7.815253138542175293e-01,7.814941406250000000e-01,7.814629077911376953e-01,7.814317345619201660e-01,7.814005613327026367e-01,7.813693284988403320e-01,7.813382148742675781e-01,7.813070416450500488e-01,7.812758684158325195e-01,7.812446951866149902e-01,7.812135815620422363e-01,7.811823487281799316e-01,7.811512351036071777e-01,7.811200022697448730e-01,7.810888886451721191e-01,7.810577750205993652e-01,7.810265421867370605e-01,7.809954285621643066e-01,7.809643149375915527e-01,7.809331417083740234e-01,7.809020280838012695e-01,7.808709144592285156e-01,7.808397412300109863e-01,7.808086276054382324e-01,7.807775139808654785e-01,7.807463407516479492e-01,7.807152271270751953e-01,7.806840538978576660e-01,7.806529402732849121e-01,7.806218862533569336e-01,7.805907130241394043e-01,7.805595993995666504e-01,7.805285453796386719e-01,7.804973721504211426e-01
7.480812668800354004e-01,7.480526566505432129e-01,7.480241060256958008e-01,7.479955554008483887e-01,7.479669451713562012e-01,7.479384541511535645e-01,7.479099035263061523e-01,7.478812932968139648e-01,7.478527426719665527e-01,7.478241920471191406e-01,7.477955818176269531e-01,7.477670907974243164e-01,7.477385401725769043e-01,7.477099299430847168e-01,7.476814389228820801e-01,7.476528286933898926e-01,7.476243376731872559e-01,7.475957870483398438e-01,7.475672364234924316e-01,7.475387454032897949e-01,7.475101947784423828e-01,7.474816441535949707e-01,7.474531531333923340e-01,7.474246025085449219e-01,7.473960518836975098e-01,7.473675608634948730e-01,7.473390698432922363e-01,7.473105192184448242e-01,7.472820281982421875e-01,7.472534179687500000e-01,7.472249269485473633e-01,7.471964359283447266e-01,7.471678853034973145e-01,7.471394538879394531e-01,7.471109628677368164e-01,7.470824122428894043e-01,7.470539212226867676e-01,7.470254302024841309e-01,7.469969391822814941e-01,7.469684481620788574e-01,7.469399571418762207e-01,7.469114661216735840e-01,7.468829751014709473e-01,7.468544840812683105e-01,7.468259930610656738e-01,7.467975616455078125e-01,7.467690110206604004e-01,7.467405796051025391e-01,7.467121481895446777e-01,7.466835975646972656e-01,7.466551661491394043e-01,7.466267347335815430e-01,7.465981841087341309e-01,7.465697526931762695e-01,7.465413212776184082e-01,7.465128302574157715e-01,7.464843988418579102e-01,7.464559078216552734e-01,7.464274764060974121e-01,7.463990449905395508e-01,7.463705539703369141e-01,7.463421225547790527e-01,7.463136911392211914e-01,7.462852597236633301e-01,7.462568283081054688e-01,7.462283968925476074e-01,7.461999058723449707e-01,7.461715340614318848e-01,7.461431026458740234e-01,7.461146712303161621e-01,7.460862398147583008e-01,7.460578680038452148e-01,7.460293769836425781e-01,7.460010051727294922e-01,7.459725141525268555e-01,7.459441423416137695e-01,7.459157109260559082e-01,7.458872795104980469e-01,7.458589076995849609e-01,7.458305358886718750e-01
7.161753177642822266e-01,7.161491513252258301e-01,7.161229252815246582e-01,7.160967588424682617e-01,7.160705924034118652e-01,7.160443663597106934e-01,7.160181999206542969e-01,7.159920334815979004e-01,7.159658670425415039e-01,7.159397006034851074e-01,7.159135341644287109e-01,7.158873081207275391e-01,7.158612012863159180e-01,7.158350348472595215e-01,7.158088088035583496e-01,7.157827019691467285e-01,7.157564759254455566e-01,7.157303690910339355e-01,7.157042026519775391e-01,7.156780362129211426e-01,7.156518697738647461e-01,7.156257629394531250e-01,7.155995368957519531e-01,7.155734300613403320e-01,7.155473232269287109e-01,7.155211567878723145e-01,7.154949903488159180e-01,7.154688835144042969e-01,7.154427170753479004e-01,7.154166102409362793e-01,7.153904438018798828e-01,7.153643369674682617e-01,7.153382301330566406e-01,7.153120636940002441e-01,7.152859568595886230e-01,7.152598500251770020e-01,7.152336835861206055e-01,7.152075767517089844e-01,7.151814699172973633e-01,7.151553034782409668e-01,7.151291966438293457e-01,7.151031494140625000e-01,7.150769829750061035e-01,7.150508761405944824e-01,7.150247693061828613e-01,7.149986624717712402e-01,7.149725556373596191e-01,7.149464488029479980e-01,7.149203419685363770e-01,7.148942947387695312e-01,7.148681282997131348e-01,7.148420810699462891e-01,7.148160338401794434e-01,7.147898674011230469e-01,7.147638201713562012e-01,7.147377729415893555e-01,7.147116065025329590e-01,7.146855592727661133e-01,7.146594524383544922e-01,7.146334052085876465e-01,7.146072983741760254e-01,7.145811915397644043e-01,7.145551443099975586e-01,7.145290970802307129e-01,7.145029902458190918e-01,7.144769430160522461e-01,7.144508957862854004e-01,7.144247889518737793e-01,7.143987417221069336e-01,7.143727540969848633e-01,7.143466472625732422e-01,7.143206000328063965e-01,7.142944931983947754e-01,7.142684459686279297e-01,7.142424583435058594e-01,7.142163515090942383e-01,7.141903042793273926e-01,7.141643166542053223e-01,7.141382098197937012e-01,7.141122221946716309e-01
6.868796348571777344e-01,6.868555545806884766e-01,6.868314743041992188e-01,6.868073344230651855e-01,6.867833137512207031e-01,6.867592334747314453e-01,6.867350935935974121e-01,6.867110729217529297e-01,6.866869926452636719e-01,6.866628527641296387e-01,6.866388320922851562e-01,6.866147518157958984e-01,6.865906715393066406e-01,6.865665912628173828e-01,6.865425705909729004e-01,6.865184307098388672e-01,6.864944100379943848e-01,6.864703297615051270e-01,6.864462494850158691e-01,6.864222288131713867e-01,6.863981485366821289e-01,6.863740682601928711e-01,6.863500475883483887e-01,6.863259673118591309e-01,6.863019466400146484e-01,6.862779259681701660e-01,6.862537860870361328e-01,6.862297654151916504e-01,6.862057447433471680e-01,6.861816644668579102e-01,6.861576437950134277e-01,6.861335635185241699e-01,6.861095428466796875e-01,6.860855221748352051e-01,6.860615015029907227e-01,6.860374808311462402e-01,6.860134601593017578e-01,6.859893798828125000e-01,6.859653592109680176e-01,6.859413385391235352e-01,6.859173178672790527e-01,6.858932971954345703e-01,6.858692765235900879e-01,6.858452558517456055e-01,6.858212351799011230e-01,6.857972145080566406e-01,6.857731938362121582e-01,6.857491731643676758e-01,6.857251524925231934e-01,6.857011318206787109e-01,6.856771707534790039e-01,6.856531500816345215e-01,6.856291294097900391e-01,6.856051683425903320e-01,6.855811476707458496e-01,6.855571269989013672e-01,6.855331659317016602e-01,6.855091452598571777e-01,6.854851245880126953e-01,6.854611039161682129e-01,6.854371428489685059e-01,6.854131817817687988e-01,6.853891611099243164e-01,6.853652000427246094e-01,6.853412389755249023e-01,6.853172183036804199e-01,6.852932572364807129e-01,6.852692961692810059e-01,6.852452754974365234e-01,6.852213144302368164e-01,6.851973533630371094e-01,6.851733326911926270e-01,6.851493716239929199e-01,6.851254105567932129e-01,6.851014494895935059e-01,6.850774884223937988e-01,6.850534677505493164e-01,6.850295662879943848e-01,6.850056052207946777e-01,6.849815845489501953e-01
