2.703350305557250977e+00,2.751452922821044922e+00,2.801297903060913086e+00,2.852982759475708008e+00,2.906610250473022461e+00,2.962292671203613281e+00,3.020149946212768555e+00,3.080312728881835938e+00,3.142920732498168945e+00,3.208127975463867188e+00,3.276098966598510742e+00,3.347012281417846680e+00,3.421063661575317383e+00,3.498466253280639648e+00,3.579451799392700195e+00,3.664275646209716797e+00,3.753217935562133789e+00,3.846584796905517578e+00,3.944715261459350586e+00,4.047984123229980469e+00,4.156805515289306641e+00,4.271638870239257812e+00,4.392997264862060547e+00,4.521452903747558594e+00,4.657647132873535156e+00,4.802301406860351562e+00,4.956228733062744141e+00,5.000000000000000000e+00,5.000000000000000000e+00,5.000000000000000000e+00,5.000000000000000000e+00,5.000000000000000000e+00,5.000000000000000000e+00,5.000000000000000000e+00,5.000000000000000000e+00,5.000000000000000000e+00,5.000000000000000000e+00,5.000000000000000000e+00,5.000000000000000000e+00,5.000000000000000000e+00,5.000000000000000000e+00,5.000000000000000000e+00,5.000000000000000000e+00,5.000000000000000000e+00,5.000000000000000000e+00,5.000000000000000000e+00,5.000000000000000000e+00,5.000000000000000000e+00,5.000000000000000000e+00,5.000000000000000000e+00,5.000000000000000000e+00,5.000000000000000000e+00,5.000000000000000000e+00,5.000000000000000000e+00,5.000000000000000000e+00,5.000000000000000000e+00,5.000000000000000000e+00,5.000000000000000000e+00,5.000000000000000000e+00,5.000000000000000000e+00,5.000000000000000000e+00,5.000000000000000000e+00,5.000000000000000000e+00,5.000000000000000000e+00,5.000000000000000000e+00,5.000000000000000000e+00,5.000000000000000000e+00,5.000000000000000000e+00,5.000000000000000000e+00,5.000000000000000000e+00,5.000000000000000000e+00,5.000000000000000000e+00,5.000000000000000000e+00,5.000000000000000000e+00,5.000000000000000000e+00,5.000000000000000000e+00,5.000000000000000000e+00,5.000000000000000000e+00,5.000000000000000000e+00,5.000000000000000000e+00
2.703304529190063477e+00,2.751405239105224609e+00,2.801248788833618164e+00,2.852931499481201172e+00,2.906557559967041016e+00,2.962237596511840820e+00,3.020092964172363281e+00,3.080253124237060547e+00,3.142858743667602539e+00,3.208062410354614258e+00,3.276029348373413086e+00,3.346939563751220703e+00,3.420987606048583984e+00,3.498386621475219727e+00,3.579368591308593750e+00,3.664188385009765625e+00,3.753126382827758789e+00,3.846488714218139648e+00,3.944614648818969727e+00,4.047877788543701172e+00,4.156693458557128906e+00,4.271520614624023438e+00,4.392871856689453125e+00,4.521320343017578125e+00,4.657506942749023438e+00,4.802151679992675781e+00,4.956069469451904297e+00,5.000000000000000000e+00,5.000000000000000000e+00,5.000000000000000000e+00,5.000000000000000000e+00,5.000000000000000000e+00,5.000000000000000000e+00,5.000000000000000000e+00,5.000000000000000000e+00,5.000000000000000000e+00,5.000000000000000000e+00,5.000000000000000000e+00,5.000000000000000000e+00,5.000000000000000000e+00,5.000000000000000000e+00,5.000000000000000000e+00,5.000000000000000000e+00,5.000000000000000000e+00,5.000000000000000000e+00,5.000000000000000000e+00,5.000000000000000000e+00,5.000000000000000000e+00,5.000000000000000000e+00,5.000000000000000000e+00,5.000000000000000000e+00,5.000000000000000000e+00,5.000000000000000000e+00,5.000000000000000000e+00,5.000000000000000000e+00,5.000000000000000000e+00,5.000000000000000000e+00,5.000000000000000000e+00,5.000000000000000000e+00,5.000000000000000000e+00,5.000000000000000000e+00,5.000000000000000000e+00,5.000000000000000000e+00,5.000000000000000000e+00,5.000000000000000000e+00,5.000000000000000000e+00,5.000000000000000000e+00,5.000000000000000000e+00,5.000000000000000000e+00,5.000000000000000000e+00,5.000000000000000000e+00,5.000000000000000000e+00,5.000000000000000000e+00,5.000000000000000000e+00,5.000000000000000000e+00,5.000000000000000000e+00,5.000000000000000000e+00,5.000000000000000000e+00,5.000000000000000000e+00,5.000000000000000000e+00
2.703258514404296875e+00,2.751357793807983398e+00,2.801199674606323242e+00,2.852880477905273438e+00,2.906504392623901367e+00,2.962182283401489258e+00,3.020035505294799805e+00,3.080193519592285156e+00,3.142796754837036133e+00,3.207997560501098633e+00,3.275961160659790039e+00,3.346866846084594727e+00,3.420912027359008789e+00,3.498307228088378906e+00,3.579285144805908203e+00,3.664101600646972656e+00,3.753034830093383789e+00,3.846392631530761719e+00,3.944513559341430664e+00,4.047771453857421875e+00,4.156580924987792969e+00,4.271401882171630859e+00,4.392746925354003906e+00,4.521187782287597656e+00,4.657365798950195312e+00,4.802001953125000000e+00,4.955910205841064453e+00,5.000000000000000000e+00,5.000000000000000000e+00,5.000000000000000000e+00,5.000000000000000000e+00,5.000000000000000000e+00,5.000000000000000000e+00,5.000000000000000000e+00,5.000000000000000000e+00,5.000000000000000000e+00,5.000000000000000000e+00,5.000000000000000000e+00,5.000000000000000000e+00,5.000000000000000000e+00,5.000000000000000000e+00,5.000000000000000000e+00,5.000000000000000000e+00,5.000000000000000000e+00,5.000000000000000000e+00,5.000000000000000000e+00,5.000000000000000000e+00,5.000000000000000000e+00,5.000000000000000000e+00,5.000000000000000000e+00,5.000000000000000000e+00,5.000000000000000000e+00,5.000000000000000000e+00,5.000000000000000000e+00,5.000000000000000000e+00,5.000000000000000000e+00,5.000000000000000000e+00,5.000000000000000000e+00,5.000000000000000000e+00,5.000000000000000000e+00,5.000000000000000000e+00,5.000000000000000000e+00,5.000000000000000000e+00,5.000000000000000000e+00,5.000000000000000000e+00,5.000000000000000000e+00,5.000000000000000000e+00,5.000000000000000000e+00,5.000000000000000000e+00,5.000000000000000000e+00,5.000000000000000000e+00,5.000000000000000000e+00,5.000000000000000000e+00,5.000000000000000000e+00,5.000000000000000000e+00,5.000000000000000000e+00,5.000000000000000000e+00,5.000000000000000000e+00,5.000000000000000000e+00,5.000000000000000000e+00
2.703212499618530273e+00,2.751310348510742188e+00,2.801150321960449219e+00,2.852829456329345703e+00,2.906451225280761719e+00,2.962127447128295898e+00,3.019978284835815430e+00,3.080134153366088867e+00,3.142734766006469727e+00,3.207933187484741211e+00,3.275893688201904297e+00,3.346796274185180664e+00,3.420835971832275391e+00,3.498227596282958984e+00,3.579202413558959961e+00,3.664014339447021484e+00,3.752943277359008789e+00,3.846296787261962891e+00,3.944412469863891602e+00,4.047665119171142578e+00,4.156468868255615234e+00,4.271283626556396484e+00,4.392621517181396484e+00,4.521055221557617188e+00,4.657225131988525391e+00,4.801852226257324219e+00,4.955750465393066406e+00,5.000000000000000000e+00,5.000000000000000000e+00,5.000000000000000000e+00,5.000000000000000000e+00,5.000000000000000000e+00,5.000000000000000000e+00,5.000000000000000000e+00,5.000000000000000000e+00,5.000000000000000000e+00,5.000000000000000000e+00,5.000000000000000000e+00,5.000000000000000000e+00,5.000000000000000000e+00,5.000000000000000000e+00,5.000000000000000000e+00,5.000000000000000000e+00,5.000000000000000000e+00,5.000000000000000000e+00,5.000000000000000000e+00,5.000000000000000000e+00,5.000000000000000000e+00,5.000000000000000000e+00,5.000000000000000000e+00,5.000000000000000000e+00,5.000000000000000000e+00,5.000000000000000000e+00,5.000000000000000000e+00,5.000000000000000000e+00,5.000000000000000000e+00,5.000000000000000000e+00,5.000000000000000000e+00,5.000000000000000000e+00,5.000000000000000000e+00,5.000000000000000000e+00,5.000000000000000000e+00,5.000000000000000000e+00,5.000000000000000000e+00,5.000000000000000000e+00,5.000000000000000000e+00,5.000000000000000000e+00,5.000000000000000000e+00,5.000000000000000000e+00,5.000000000000000000e+00,5.000000000000000000e+00,5.000000000000000000e+00,5.000000000000000000e+00,5.000000000000000000e+00,5.000000000000000000e+00,5.000000000000000000e+00,5.000000000000000000e+00,5.000000000000000000e+00,5.000000000000000000e+00,5.000000000000000000e+00
2.703166961669921875e+00,2.751262664794921875e+00,2.801101207733154297e+00,2.852778196334838867e+00,2.906398296356201172e+00,2.962072134017944336e+00,3.019921302795410156e+00,3.080074548721313477e+00,3.142673015594482422e+00,3.207868576049804688e+00,3.275826692581176758e+00,3.346725940704345703e+00,3.420762300491333008e+00,3.498148918151855469e+00,3.579119205474853516e+00,3.663927078247070312e+00,3.752852201461791992e+00,3.846200704574584961e+00,3.944311380386352539e+00,4.047558784484863281e+00,4.156356811523437500e+00,4.271165370941162109e+00,4.392496585845947266e+00,4.520922183990478516e+00,4.657084465026855469e+00,4.801702976226806641e+00,4.955591201782226562e+00,5.000000000000000000e+00,5.000000000000000000e+00,5.000000000000000000e+00,5.000000000000000000e+00,5.000000000000000000e+00,5.000000000000000000e+00,5.000000000000000000e+00,5.000000000000000000e+00,5.000000000000000000e+00,5.000000000000000000e+00,5.000000000000000000e+00,5.000000000000000000e+00,5.000000000000000000e+00,5.000000000000000000e+00,5.000000000000000000e+00,5.000000000000000000e+00,5.000000000000000000e+00,5.000000000000000000e+00,5.000000000000000000e+00,5.000000000000000000e+00,5.000000000000000000e+00,5.000000000000000000e+00,5.000000000000000000e+00,5.000000000000000000e+00,5.000000000000000000e+00,5.000000000000000000e+00,5.000000000000000000e+00,5.000000000000000000e+00,5.000000000000000000e+00,5.000000000000000000e+00,5.000000000000000000e+00,5.000000000000000000e+00,5.000000000000000000e+00,5.000000000000000000e+00,5.000000000000000000e+00,5.000000000000000000e+00,5.000000000000000000e+00,5.000000000000000000e+00,5.000000000000000000e+00,5.000000000000000000e+00,5.000000000000000000e+00,5.000000000000000000e+00,5.000000000000000000e+00,5.000000000000000000e+00,5.000000000000000000e+00,5.000000000000000000e+00,5.000000000000000000e+00,5.000000000000000000e+00,5.000000000000000000e+00,5.000000000000000000e+00,5.000000000000000000e+00,5.000000000000000000e+00,5.000000000000000000e+00
2.703120946884155273e+00,2.751215219497680664e+00,2.801051855087280273e+00,2.852727413177490234e+00,2.906345129013061523e+00,2.962017297744750977e+00,3.019863843917846680e+00,3.080014705657958984e+00,3.142610788345336914e+00,3.207803726196289062e+00,3.275758981704711914e+00,3.346655607223510742e+00,3.420689105987548828e+00,3.498071908950805664e+00,3.579037189483642578e+00,3.663839817047119141e+00,3.752760648727416992e+00,3.846104621887207031e+00,3.944210767745971680e+00,4.047452449798583984e+00,4.156244754791259766e+00,4.271047115325927734e+00,4.392371177673339844e+00,4.520790100097656250e+00,4.656943798065185547e+00,4.801553249359130859e+00,4.955431938171386719e+00,5.000000000000000000e+00,5.000000000000000000e+00,5.000000000000000000e+00,5.000000000000000000e+00,5.000000000000000000e+00,5.000000000000000000e+00,5.000000000000000000e+00,5.000000000000000000e+00,5.000000000000000000e+00,5.000000000000000000e+00,5.000000000000000000e+00,5.000000000000000000e+00,5.000000000000000000e+00,5.000000000000000000e+00,5.000000000000000000e+00,5.000000000000000000e+00,5.000000000000000000e+00,5.000000000000000000e+00,5.000000000000000000e+00,5.000000000000000000e+00,5.000000000000000000e+00,5.000000000000000000e+00,5.000000000000000000e+00,5.000000000000000000e+00,5.000000000000000000e+00,5.000000000000000000e+00,5.000000000000000000e+00,5.000000000000000000e+00,5.000000000000000000e+00,5.000000000000000000e+00,5.000000000000000000e+00,5.000000000000000000e+00,5.000000000000000000e+00,5.000000000000000000e+00,5.000000000000000000e+00,5.000000000000000000e+00,5.000000000000000000e+00,5.000000000000000000e+00,5.000000000000000000e+00,5.000000000000000000e+00,5.000000000000000000e+00,5.000000000000000000e+00,5.000000000000000000e+00,5.000000000000000000e+00,5.000000000000000000e+00,5.000000000000000000e+00,5.000000000000000000e+00,5.000000000000000000e+00,5.000000000000000000e+00,5.000000000000000000e+00,5.000000000000000000e+00,5.000000000000000000e+00,5.000000000000000000e+00
2.703075170516967773e+00,2.751167774200439453e+00,2.801002740859985352e+00,2.852676153182983398e+00,2.906292200088500977e+00,2.961962223052978516e+00,3.019806385040283203e+00,3.079955339431762695e+00,3.142548799514770508e+00,3.207739353179931641e+00,3.275691509246826172e+00,3.346585512161254883e+00,3.420615434646606445e+00,3.497995376586914062e+00,3.578956604003906250e+00,3.663754701614379883e+00,3.752669095993041992e+00,3.846008539199829102e+00,3.944109678268432617e+00,4.047346591949462891e+00,4.156132698059082031e+00,4.270928382873535156e+00,4.392245769500732422e+00,4.520657539367675781e+00,4.656802654266357422e+00,4.801403522491455078e+00,4.955272674560546875e+00,5.000000000000000000e+00,5.000000000000000000e+00,5.000000000000000000e+00,5.000000000000000000e+00,5.000000000000000000e+00,5.000000000000000000e+00,5.000000000000000000e+00,5.000000000000000000e+00,5.000000000000000000e+00,5.000000000000000000e+00,5.000000000000000000e+00,5.000000000000000000e+00,5.000000000000000000e+00,5.000000000000000000e+00,5.000000000000000000e+00,5.000000000000000000e+00,5.000000000000000000e+00,5.000000000000000000e+00,5.000000000000000000e+00,5.000000000000000000e+00,5.000000000000000000e+00,5.000000000000000000e+00,5.000000000000000000e+00,5.000000000000000000e+00,5.000000000000000000e+00,5.000000000000000000e+00,5.000000000000000000e+00,5.000000000000000000e+00,5.000000000000000000e+00,5.000000000000000000e+00,5.000000000000000000e+00,5.000000000000000000e+00,5.000000000000000000e+00,5.000000000000000000e+00,5.000000000000000000e+00,5.000000000000000000e+00,5.000000000000000000e+00,5.000000000000000000e+00,5.000000000000000000e+00,5.000000000000000000e+00,5.000000000000000000e+00,5.000000000000000000e+00,5.000000000000000000e+00,5.000000000000000000e+00,5.000000000000000000e+00,5.000000000000000000e+00,5.000000000000000000e+00,5.000000000000000000e+00,5.000000000000000000e+00,5.000000000000000000e+00,5.000000000000000000e+00,5.000000000000000000e+00,5.000000000000000000e+00
2.703029155731201172e+00,2.751120090484619141e+00,2.800953388214111328e+00,2.852624893188476562e+00,2.906239271163940430e+00,2.961906909942626953e+00,3.019749402999877930e+00,3.079895734786987305e+00,3.142486810684204102e+00,3.207674741744995117e+00,3.275624513626098633e+00,3.346514940261840820e+00,3.420542240142822266e+00,3.497918367385864258e+00,3.578876495361328125e+00,3.663670301437377930e+00,3.752579927444458008e+00,3.845912933349609375e+00,3.944008827209472656e+00,4.047239780426025391e+00,4.156020641326904297e+00,4.270810127258300781e+00,4.392120838165283203e+00,4.520524501800537109e+00,4.656662464141845703e+00,4.801253795623779297e+00,4.955112934112548828e+00,5.000000000000000000e+00,5.000000000000000000e+00,5.000000000000000000e+00,5.000000000000000000e+00,5.000000000000000000e+00,5.000000000000000000e+00,5.000000000000000000e+00,5.000000000000000000e+00,5.000000000000000000e+00,5.000000000000000000e+00,5.000000000000000000e+00,5.000000000000000000e+00,5.000000000000000000e+00,5.000000000000000000e+00,5.000000000000000000e+00,5.000000000000000000e+00,5.000000000000000000e+00,5.000000000000000000e+00,5.000000000000000000e+00,5.000000000000000000e+00,5.000000000000000000e+00,5.000000000000000000e+00,5.000000000000000000e+00,5.000000000000000000e+00,5.000000000000000000e+00,5.000000000000000000e+00,5.000000000000000000e+00,5.000000000000000000e+00,5.000000000000000000e+00,5.000000000000000000e+00,5.000000000000000000e+00,5.000000000000000000e+00,5.000000000000000000e+00,5.000000000000000000e+00,5.000000000000000000e+00,5.000000000000000000e+00,5.000000000000000000e+00,5.000000000000000000e+00,5.000000000000000000e+00,5.000000000000000000e+00,5.000000000000000000e+00,5.000000000000000000e+00,5.000000000000000000e+00,5.000000000000000000e+00,5.000000000000000000e+00,5.000000000000000000e+00,5.000000000000000000e+00,5.000000000000000000e+00,5.000000000000000000e+00,5.000000000000000000e+00,5.000000000000000000e+00,5.000000000000000000e+00,5.000000000000000000e+00
2.702983379364013672e+00,2.751072645187377930e+00,2.800904035568237305e+00,2.852574110031127930e+00,2.906186103820800781e+00,2.961852073669433594e+00,3.019692182540893555e+00,3.079836368560791016e+00,3.142424821853637695e+00,3.207610368728637695e+00,3.275557041168212891e+00,3.346444606781005859e+00,3.420468807220458984e+00,3.497841358184814453e+00,3.578795909881591797e+00,3.663585901260375977e+00,3.752491712570190430e+00,3.845819473266601562e+00,3.943908214569091797e+00,4.047133922576904297e+00,4.155908584594726562e+00,4.270691871643066406e+00,4.391995429992675781e+00,4.520392417907714844e+00,4.656521320343017578e+00,4.801104545593261719e+00,4.954953670501708984e+00,5.000000000000000000e+00,5.000000000000000000e+00,5.000000000000000000e+00,5.000000000000000000e+00,5.000000000000000000e+00,5.000000000000000000e+00,5.000000000000000000e+00,5.000000000000000000e+00,5.000000000000000000e+00,5.000000000000000000e+00,5.000000000000000000e+00,5.000000000000000000e+00,5.000000000000000000e+00,5.000000000000000000e+00,5.000000000000000000e+00,5.000000000000000000e+00,5.000000000000000000e+00,5.000000000000000000e+00,5.000000000000000000e+00,5.000000000000000000e+00,5.000000000000000000e+00,5.000000000000000000e+00,5.000000000000000000e+00,5.000000000000000000e+00,5.000000000000000000e+00,5.000000000000000000e+00,5.000000000000000000e+00,5.000000000000000000e+00,5.000000000000000000e+00,5.000000000000000000e+00,5.000000000000000000e+00,5.000000000000000000e+00,5.000000000000000000e+00,5.000000000000000000e+00,5.000000000000000000e+00,5.000000000000000000e+00,5.000000000000000000e+00,5.000000000000000000e+00,5.000000000000000000e+00,5.000000000000000000e+00,5.000000000000000000e+00,5.000000000000000000e+00,5.000000000000000000e+00,5.000000000000000000e+00,5.000000000000000000e+00,5.000000000000000000e+00,5.000000000000000000e+00,5.000000000000000000e+00,5.000000000000000000e+00,5.000000000000000000e+00,5.000000000000000000e+00,5.000000000000000000e+00,5.000000000000000000e+00
2.702937602996826172e+00,2.751025199890136719e+00,2.800854921340942383e+00,2.852522850036621094e+00,2.906133174896240234e+00,2.961796998977661133e+00,3.019634962081909180e+00,3.079776763916015625e+00,3.142362833023071289e+00,3.207545518875122070e+00,3.275489568710327148e+00,3.346374511718750000e+00,3.420395135879516602e+00,3.497764825820922852e+00,3.578715324401855469e+00,3.663501977920532227e+00,3.752403259277343750e+00,3.845726966857910156e+00,3.943810224533081055e+00,4.047028541564941406e+00,4.155796527862548828e+00,4.270573616027832031e+00,4.391870498657226562e+00,4.520259380340576172e+00,4.656380653381347656e+00,4.800954818725585938e+00,4.954794406890869141e+00,5.000000000000000000e+00,5.000000000000000000e+00,5.000000000000000000e+00,5.000000000000000000e+00,5.000000000000000000e+00,5.000000000000000000e+00,5.000000000000000000e+00,5.000000000000000000e+00,5.000000000000000000e+00,5.000000000000000000e+00,5.000000000000000000e+00,5.000000000000000000e+00,5.000000000000000000e+00,5.000000000000000000e+00,5.000000000000000000e+00,5.000000000000000000e+00,5.000000000000000000e+00,5.000000000000000000e+00,5.000000000000000000e+00,5.000000000000000000e+00,5.000000000000000000e+00,5.000000000000000000e+00,5.000000000000000000e+00,5.000000000000000000e+00,5.000000000000000000e+00,5.000000000000000000e+00,5.000000000000000000e+00,5.000000000000000000e+00,5.000000000000000000e+00,5.000000000000000000e+00,5.000000000000000000e+00,5.000000000000000000e+00,5.000000000000000000e+00,5.000000000000000000e+00,5.000000000000000000e+00,5.000000000000000000e+00,5.000000000000000000e+00,5.000000000000000000e+00,5.000000000000000000e+00,5.000000000000000000e+00,5.000000000000000000e+00,5.000000000000000000e+00,5.000000000000000000e+00,5.000000000000000000e+00,5.000000000000000000e+00,5.000000000000000000e+00,5.000000000000000000e+00,5.000000000000000000e+00,5.000000000000000000e+00,5.000000000000000000e+00,5.000000000000000000e+00,5.000000000000000000e+00,5.000000000000000000e+00
2.702891588211059570e+00,2.750977754592895508e+00,2.800805568695068359e+00,2.852472066879272461e+00,2.906080245971679688e+00,2.961741685867309570e+00,3.019577741622924805e+00,3.079717159271240234e+00,3.142300844192504883e+00,3.207480907440185547e+00,3.275422334671020508e+00,3.346304178237915039e+00,3.420321941375732422e+00,3.497687816619873047e+00,3.578635215759277344e+00,3.663417577743530273e+00,3.752315044403076172e+00,3.845633983612060547e+00,3.943712949752807617e+00,4.046925544738769531e+00,4.155685901641845703e+00,4.270454883575439453e+00,4.391745090484619141e+00,4.520126819610595703e+00,4.656239986419677734e+00,4.800805091857910156e+00,4.954635143280029297e+00,5.000000000000000000e+00,5.000000000000000000e+00,5.000000000000000000e+00,5.000000000000000000e+00,5.000000000000000000e+00,5.000000000000000000e+00,5.000000000000000000e+00,5.000000000000000000e+00,5.000000000000000000e+00,5.000000000000000000e+00,5.000000000000000000e+00,5.000000000000000000e+00,5.000000000000000000e+00,5.000000000000000000e+00,5.000000000000000000e+00,5.000000000000000000e+00,5.000000000000000000e+00,5.000000000000000000e+00,5.000000000000000000e+00,5.000000000000000000e+00,5.000000000000000000e+00,5.000000000000000000e+00,5.000000000000000000e+00,5.000000000000000000e+00,5.000000000000000000e+00,5.000000000000000000e+00,5.000000000000000000e+00,5.000000000000000000e+00,5.000000000000000000e+00,5.000000000000000000e+00,5.000000000000000000e+00,5.000000000000000000e+00,5.000000000000000000e+00,5.000000000000000000e+00,5.000000000000000000e+00,5.000000000000000000e+00,5.000000000000000000e+00,5.000000000000000000e+00,5.000000000000000000e+00,5.000000000000000000e+00,5.000000000000000000e+00,5.000000000000000000e+00,5.000000000000000000e+00,5.000000000000000000e+00,5.000000000000000000e+00,5.000000000000000000e+00,5.000000000000000000e+00,5.000000000000000000e+00,5.000000000000000000e+00,5.000000000000000000e+00,5.000000000000000000e+00,5.000000000000000000e+00,5.000000000000000000e+00
2.702840805053710938e+00,2.750930070877075195e+00,2.800756216049194336e+00,2.852420806884765625e+00,2.906027078628540039e+00,2.961686849594116211e+00,3.019520282745361328e+00,3.079657793045043945e+00,3.142238855361938477e+00,3.207416534423828125e+00,3.275354862213134766e+00,3.346234083175659180e+00,3.420248270034790039e+00,3.497611284255981445e+00,3.578554630279541016e+00,3.663333654403686523e+00,3.752226591110229492e+00,3.845541000366210938e+00,3.943615198135375977e+00,4.046822547912597656e+00,4.155577659606933594e+00,4.270339012145996094e+00,4.391620159149169922e+00,4.519994258880615234e+00,4.656099319458007812e+00,4.800655364990234375e+00,4.954475879669189453e+00,5.000000000000000000e+00,5.000000000000000000e+00,5.000000000000000000e+00,5.000000000000000000e+00,5.000000000000000000e+00,5.000000000000000000e+00,5.000000000000000000e+00,5.000000000000000000e+00,5.000000000000000000e+00,5.000000000000000000e+00,5.000000000000000000e+00,5.000000000000000000e+00,5.000000000000000000e+00,5.000000000000000000e+00,5.000000000000000000e+00,5.000000000000000000e+00,5.000000000000000000e+00,5.000000000000000000e+00,5.000000000000000000e+00,5.000000000000000000e+00,5.000000000000000000e+00,5.000000000000000000e+00,5.000000000000000000e+00,5.000000000000000000e+00,5.000000000000000000e+00,5.000000000000000000e+00,5.000000000000000000e+00,5.000000000000000000e+00,5.000000000000000000e+00,5.000000000000000000e+00,5.000000000000000000e+00,5.000000000000000000e+00,5.000000000000000000e+00,5.000000000000000000e+00,5.000000000000000000e+00,5.000000000000000000e+00,5.000000000000000000e+00,5.000000000000000000e+00,5.000000000000000000e+00,5.000000000000000000e+00,5.000000000000000000e+00,5.000000000000000000e+00,5.000000000000000000e+00,5.000000000000000000e+00,5.000000000000000000e+00,5.000000000000000000e+00,5.000000000000000000e+00,5.000000000000000000e+00,5.000000000000000000e+00,5.000000000000000000e+00,5.000000000000000000e+00,5.000000000000000000e+00,5.000000000000000000e+00
2.702761888504028320e+00,2.750855445861816406e+00,2.800691604614257812e+00,2.852366685867309570e+00,2.905974149703979492e+00,2.961631774902343750e+00,3.019463300704956055e+00,3.079598188400268555e+00,3.142177104949951172e+00,3.207351684570312500e+00,3.275287866592407227e+00,3.346163749694824219e+00,3.420174837112426758e+00,3.497534513473510742e+00,3.578474044799804688e+00,3.663249254226684570e+00,3.752137899398803711e+00,3.845448255538940430e+00,3.943517446517944336e+00,4.046720027923583984e+00,4.155468940734863281e+00,4.270224571228027344e+00,4.391498088836669922e+00,4.519861698150634766e+00,4.655958652496337891e+00,4.800506114959716797e+00,4.954316616058349609e+00,5.000000000000000000e+00,5.000000000000000000e+00,5.000000000000000000e+00,5.000000000000000000e+00,5.000000000000000000e+00,5.000000000000000000e+00,5.000000000000000000e+00,5.000000000000000000e+00,5.000000000000000000e+00,5.000000000000000000e+00,5.000000000000000000e+00,5.000000000000000000e+00,5.000000000000000000e+00,5.000000000000000000e+00,5.000000000000000000e+00,5.000000000000000000e+00,5.000000000000000000e+00,5.000000000000000000e+00,5.000000000000000000e+00,5.000000000000000000e+00,5.000000000000000000e+00,5.000000000000000000e+00,5.000000000000000000e+00,5.000000000000000000e+00,5.000000000000000000e+00,5.000000000000000000e+00,5.000000000000000000e+00,5.000000000000000000e+00,5.000000000000000000e+00,5.000000000000000000e+00,5.000000000000000000e+00,5.000000000000000000e+00,5.000000000000000000e+00,5.000000000000000000e+00,5.000000000000000000e+00,5.000000000000000000e+00,5.000000000000000000e+00,5.000000000000000000e+00,5.000000000000000000e+00,5.000000000000000000e+00,5.000000000000000000e+00,5.000000000000000000e+00,5.000000000000000000e+00,5.000000000000000000e+00,5.000000000000000000e+00,5.000000000000000000e+00,5.000000000000000000e+00,5.000000000000000000e+00,5.000000000000000000e+00,5.000000000000000000e+00,5.000000000000000000e+00,5.000000000000000000e+00,5.000000000000000000e+00
2.702682971954345703e+00,2.750773668289184570e+00,2.800606727600097656e+00,2.852278709411621094e+00,2.905893087387084961e+00,2.961561918258666992e+00,3.019405126571655273e+00,3.079538822174072266e+00,3.142114877700805664e+00,3.207287073135375977e+00,3.275220394134521484e+00,3.346093177795410156e+00,3.420101642608642578e+00,3.497457504272460938e+00,3.578393936157226562e+00,3.663164854049682617e+00,3.752049922943115234e+00,3.845355272293090820e+00,3.943420171737670898e+00,4.046617031097412109e+00,4.155360698699951172e+00,4.270110130310058594e+00,4.391376972198486328e+00,4.519733428955078125e+00,4.655818462371826172e+00,4.800356388092041016e+00,4.954157352447509766e+00,5.000000000000000000e+00,5.000000000000000000e+00,5.000000000000000000e+00,5.000000000000000000e+00,5.000000000000000000e+00,5.000000000000000000e+00,5.000000000000000000e+00,5.000000000000000000e+00,5.000000000000000000e+00,5.000000000000000000e+00,5.000000000000000000e+00,5.000000000000000000e+00,5.000000000000000000e+00,5.000000000000000000e+00,5.000000000000000000e+00,5.000000000000000000e+00,5.000000000000000000e+00,5.000000000000000000e+00,5.000000000000000000e+00,5.000000000000000000e+00,5.000000000000000000e+00,5.000000000000000000e+00,5.000000000000000000e+00,5.000000000000000000e+00,5.000000000000000000e+00,5.000000000000000000e+00,5.000000000000000000e+00,5.000000000000000000e+00,5.000000000000000000e+00,5.000000000000000000e+00,5.000000000000000000e+00,5.000000000000000000e+00,5.000000000000000000e+00,5.000000000000000000e+00,5.000000000000000000e+00,5.000000000000000000e+00,5.000000000000000000e+00,5.000000000000000000e+00,5.000000000000000000e+00,5.000000000000000000e+00,5.000000000000000000e+00,5.000000000000000000e+00,5.000000000000000000e+00,5.000000000000000000e+00,5.000000000000000000e+00,5.000000000000000000e+00,5.000000000000000000e+00,5.000000000000000000e+00,5.000000000000000000e+00,5.000000000000000000e+00,5.000000000000000000e+00,5.000000000000000000e+00,5.000000000000000000e+00
2.702633380889892578e+00,2.750710010528564453e+00,2.800528049468994141e+00,2.852190732955932617e+00,2.905801773071289062e+00,2.961467027664184570e+00,3.019306421279907227e+00,3.079450607299804688e+00,3.142039060592651367e+00,3.207222700119018555e+00,3.275152921676635742e+00,3.346023082733154297e+00,3.420027971267700195e+00,3.497380971908569336e+00,3.578313350677490234e+00,3.663080692291259766e+00,3.751961231231689453e+00,3.845262765884399414e+00,3.943322181701660156e+00,4.046514511108398438e+00,4.155252456665039062e+00,4.269995689392089844e+00,4.391255855560302734e+00,4.519605159759521484e+00,4.655682563781738281e+00,4.800208568572998047e+00,4.953998088836669922e+00,5.000000000000000000e+00,5.000000000000000000e+00,5.000000000000000000e+00,5.000000000000000000e+00,5.000000000000000000e+00,5.000000000000000000e+00,5.000000000000000000e+00,5.000000000000000000e+00,5.000000000000000000e+00,5.000000000000000000e+00,5.000000000000000000e+00,5.000000000000000000e+00,5.000000000000000000e+00,5.000000000000000000e+00,5.000000000000000000e+00,5.000000000000000000e+00,5.000000000000000000e+00,5.000000000000000000e+00,5.000000000000000000e+00,5.000000000000000000e+00,5.000000000000000000e+00,5.000000000000000000e+00,5.000000000000000000e+00,5.000000000000000000e+00,5.000000000000000000e+00,5.000000000000000000e+00,5.000000000000000000e+00,5.000000000000000000e+00,5.000000000000000000e+00,5.000000000000000000e+00,5.000000000000000000e+00,5.000000000000000000e+00,5.000000000000000000e+00,5.000000000000000000e+00,5.000000000000000000e+00,5.000000000000000000e+00,5.000000000000000000e+00,5.000000000000000000e+00,5.000000000000000000e+00,5.000000000000000000e+00,5.000000000000000000e+00,5.000000000000000000e+00,5.000000000000000000e+00,5.000000000000000000e+00,5.000000000000000000e+00,5.000000000000000000e+00,5.000000000000000000e+00,5.000000000000000000e+00,5.000000000000000000e+00,5.000000000000000000e+00,5.000000000000000000e+00,5.000000000000000000e+00,5.000000000000000000e+00
2.702587842941284180e+00,2.750662803649902344e+00,2.800478935241699219e+00,2.852133035659790039e+00,2.905728340148925781e+00,2.961376428604125977e+00,3.019207954406738281e+00,3.079348087310791016e+00,3.141932249069213867e+00,3.207113504409790039e+00,3.275056362152099609e+00,3.345940351486206055e+00,3.419954776763916016e+00,3.497303962707519531e+00,3.578233242034912109e+00,3.662996530532836914e+00,3.751872777938842773e+00,3.845169782638549805e+00,3.943224430084228516e+00,4.046411514282226562e+00,4.155143737792968750e+00,4.269881248474121094e+00,4.391134738922119141e+00,4.519476890563964844e+00,4.655546665191650391e+00,4.800064086914062500e+00,4.953841209411621094e+00,5.000000000000000000e+00,5.000000000000000000e+00,5.000000000000000000e+00,5.000000000000000000e+00,5.000000000000000000e+00,5.000000000000000000e+00,5.000000000000000000e+00,5.000000000000000000e+00,5.000000000000000000e+00,5.000000000000000000e+00,5.000000000000000000e+00,5.000000000000000000e+00,5.000000000000000000e+00,5.000000000000000000e+00,5.000000000000000000e+00,5.000000000000000000e+00,5.000000000000000000e+00,5.000000000000000000e+00,5.000000000000000000e+00,5.000000000000000000e+00,5.000000000000000000e+00,5.000000000000000000e+00,5.000000000000000000e+00,5.000000000000000000e+00,5.000000000000000000e+00,5.000000000000000000e+00,5.000000000000000000e+00,5.000000000000000000e+00,5.000000000000000000e+00,5.000000000000000000e+00,5.000000000000000000e+00,5.000000000000000000e+00,5.000000000000000000e+00,5.000000000000000000e+00,5.000000000000000000e+00,5.000000000000000000e+00,5.000000000000000000e+00,5.000000000000000000e+00,5.000000000000000000e+00,5.000000000000000000e+00,5.000000000000000000e+00,5.000000000000000000e+00,5.000000000000000000e+00,5.000000000000000000e+00,5.000000000000000000e+00,5.000000000000000000e+00,5.000000000000000000e+00,5.000000000000000000e+00,5.000000000000000000e+00,5.000000000000000000e+00,5.000000000000000000e+00,5.000000000000000000e+00,5.000000000000000000e+00
2.702542066574096680e+00,2.750615358352661133e+00,2.800429821014404297e+00,2.852082014083862305e+00,2.905675411224365234e+00,2.961321353912353516e+00,3.019140481948852539e+00,3.079262256622314453e+00,3.141827344894409180e+00,3.207002401351928711e+00,3.274940252304077148e+00,3.345819234848022461e+00,3.419833898544311523e+00,3.497197628021240234e+00,3.578142166137695312e+00,3.662912130355834961e+00,3.751784801483154297e+00,3.845076799392700195e+00,3.943127155303955078e+00,4.046308994293212891e+00,4.155035495758056641e+00,4.269766807556152344e+00,4.391014099121093750e+00,4.519348621368408203e+00,4.655410766601562500e+00,4.799919605255126953e+00,4.953687191009521484e+00,5.000000000000000000e+00,5.000000000000000000e+00,5.000000000000000000e+00,5.000000000000000000e+00,5.000000000000000000e+00,5.000000000000000000e+00,5.000000000000000000e+00,5.000000000000000000e+00,5.000000000000000000e+00,5.000000000000000000e+00,5.000000000000000000e+00,5.000000000000000000e+00,5.000000000000000000e+00,5.000000000000000000e+00,5.000000000000000000e+00,5.000000000000000000e+00,5.000000000000000000e+00,5.000000000000000000e+00,5.000000000000000000e+00,5.000000000000000000e+00,5.000000000000000000e+00,5.000000000000000000e+00,5.000000000000000000e+00,5.000000000000000000e+00,5.000000000000000000e+00,5.000000000000000000e+00,5.000000000000000000e+00,5.000000000000000000e+00,5.000000000000000000e+00,5.000000000000000000e+00,5.000000000000000000e+00,5.000000000000000000e+00,5.000000000000000000e+00,5.000000000000000000e+00,5.000000000000000000e+00,5.000000000000000000e+00,5.000000000000000000e+00,5.000000000000000000e+00,5.000000000000000000e+00,5.000000000000000000e+00,5.000000000000000000e+00,5.000000000000000000e+00,5.000000000000000000e+00,5.000000000000000000e+00,5.000000000000000000e+00,5.000000000000000000e+00,5.000000000000000000e+00,5.000000000000000000e+00,5.000000000000000000e+00,5.000000000000000000e+00,5.000000000000000000e+00,5.000000000000000000e+00,5.000000000000000000e+00
2.702496528625488281e+00,2.750568151473999023e+00,2.800380945205688477e+00,2.852031230926513672e+00,2.905622720718383789e+00,2.961266517639160156e+00,3.019083499908447266e+00,3.079203128814697266e+00,3.141765594482421875e+00,3.206923007965087891e+00,3.274840354919433594e+00,3.345698356628417969e+00,3.419707775115966797e+00,3.497065305709838867e+00,3.578003644943237305e+00,3.662777662277221680e+00,3.751666069030761719e+00,3.844976425170898438e+00,3.943029403686523438e+00,4.046205997467041016e+00,4.154927253723144531e+00,4.269652366638183594e+00,4.390892982482910156e+00,4.519220352172851562e+00,4.655274391174316406e+00,4.799774646759033203e+00,4.953533172607421875e+00,5.000000000000000000e+00,5.000000000000000000e+00,5.000000000000000000e+00,5.000000000000000000e+00,5.000000000000000000e+00,5.000000000000000000e+00,5.000000000000000000e+00,5.000000000000000000e+00,5.000000000000000000e+00,5.000000000000000000e+00,5.000000000000000000e+00,5.000000000000000000e+00,5.000000000000000000e+00,5.000000000000000000e+00,5.000000000000000000e+00,5.000000000000000000e+00,5.000000000000000000e+00,5.000000000000000000e+00,5.000000000000000000e+00,5.000000000000000000e+00,5.000000000000000000e+00,5.000000000000000000e+00,5.000000000000000000e+00,5.000000000000000000e+00,5.000000000000000000e+00,5.000000000000000000e+00,5.000000000000000000e+00,5.000000000000000000e+00,5.000000000000000000e+00,5.000000000000000000e+00,5.000000000000000000e+00,5.000000000000000000e+00,5.000000000000000000e+00,5.000000000000000000e+00,5.000000000000000000e+00,5.000000000000000000e+00,5.000000000000000000e+00,5.000000000000000000e+00,5.000000000000000000e+00,5.000000000000000000e+00,5.000000000000000000e+00,5.000000000000000000e+00,5.000000000000000000e+00,5.000000000000000000e+00,5.000000000000000000e+00,5.000000000000000000e+00,5.000000000000000000e+00,5.000000000000000000e+00,5.000000000000000000e+00,5.000000000000000000e+00,5.000000000000000000e+00,5.000000000000000000e+00,5.000000000000000000e+00
2.702450752258300781e+00,2.750520944595336914e+00,2.800332069396972656e+00,2.851980447769165039e+00,2.905570030212402344e+00,2.961211681365966797e+00,3.019026517868041992e+00,3.079143762588500977e+00,3.141703605651855469e+00,3.206858634948730469e+00,3.274773120880126953e+00,3.345626592636108398e+00,3.419613599777221680e+00,3.496947288513183594e+00,3.577865600585937500e+00,3.662632465362548828e+00,3.751514196395874023e+00,3.844816446304321289e+00,3.942878484725952148e+00,4.046072959899902344e+00,4.154814720153808594e+00,4.269537925720214844e+00,4.390771865844726562e+00,4.519092082977294922e+00,4.655138492584228516e+00,4.799630165100097656e+00,4.953379154205322266e+00,5.000000000000000000e+00,5.000000000000000000e+00,5.000000000000000000e+00,5.000000000000000000e+00,5.000000000000000000e+00,5.000000000000000000e+00,5.000000000000000000e+00,5.000000000000000000e+00,5.000000000000000000e+00,5.000000000000000000e+00,5.000000000000000000e+00,5.000000000000000000e+00,5.000000000000000000e+00,5.000000000000000000e+00,5.000000000000000000e+00,5.000000000000000000e+00,5.000000000000000000e+00,5.000000000000000000e+00,5.000000000000000000e+00,5.000000000000000000e+00,5.000000000000000000e+00,5.000000000000000000e+00,5.000000000000000000e+00,5.000000000000000000e+00,5.000000000000000000e+00,5.000000000000000000e+00,5.000000000000000000e+00,5.000000000000000000e+00,5.000000000000000000e+00,5.000000000000000000e+00,5.000000000000000000e+00,5.000000000000000000e+00,5.000000000000000000e+00,5.000000000000000000e+00,5.000000000000000000e+00,5.000000000000000000e+00,5.000000000000000000e+00,5.000000000000000000e+00,5.000000000000000000e+00,5.000000000000000000e+00,5.000000000000000000e+00,5.000000000000000000e+00,5.000000000000000000e+00,5.000000000000000000e+00,5.000000000000000000e+00,5.000000000000000000e+00,5.000000000000000000e+00,5.000000000000000000e+00,5.000000000000000000e+00,5.000000000000000000e+00,5.000000000000000000e+00,5.000000000000000000e+00,5.000000000000000000e+00
2.702405214309692383e+00,2.750473499298095703e+00,2.800282955169677734e+00,2.851929664611816406e+00,2.905517339706420898e+00,2.961157083511352539e+00,3.018969774246215820e+00,3.079084634780883789e+00,3.141641855239868164e+00,3.206794261932373047e+00,3.274706125259399414e+00,3.345556497573852539e+00,3.419540405273437500e+00,3.496870756149291992e+00,3.577779293060302734e+00,3.662520647048950195e+00,3.751373529434204102e+00,3.844656467437744141e+00,3.942710161209106445e+00,4.045896053314208984e+00,4.154628276824951172e+00,4.269365787506103516e+00,4.390621185302734375e+00,4.518963813781738281e+00,4.655002593994140625e+00,4.799485683441162109e+00,4.953225135803222656e+00,5.000000000000000000e+00,5.000000000000000000e+00,5.000000000000000000e+00,5.000000000000000000e+00,5.000000000000000000e+00,5.000000000000000000e+00,5.000000000000000000e+00,5.000000000000000000e+00,5.000000000000000000e+00,5.000000000000000000e+00,5.000000000000000000e+00,5.000000000000000000e+00,5.000000000000000000e+00,5.000000000000000000e+00,5.000000000000000000e+00,5.000000000000000000e+00,5.000000000000000000e+00,5.000000000000000000e+00,5.000000000000000000e+00,5.000000000000000000e+00,5.000000000000000000e+00,5.000000000000000000e+00,5.000000000000000000e+00,5.000000000000000000e+00,5.000000000000000000e+00,5.000000000000000000e+00,5.000000000000000000e+00,5.000000000000000000e+00,5.000000000000000000e+00,5.000000000000000000e+00,5.000000000000000000e+00,5.000000000000000000e+00,5.000000000000000000e+00,5.000000000000000000e+00,5.000000000000000000e+00,5.000000000000000000e+00,5.000000000000000000e+00,5.000000000000000000e+00,5.000000000000000000e+00,5.000000000000000000e+00,5.000000000000000000e+00,5.000000000000000000e+00,5.000000000000000000e+00,5.000000000000000000e+00,5.000000000000000000e+00,5.000000000000000000e+00,5.000000000000000000e+00,5.000000000000000000e+00,5.000000000000000000e+00,5.000000000000000000e+00,5.000000000000000000e+00,5.000000000000000000e+00,5.000000000000000000e+00
2.702359437942504883e+00,2.750426292419433594e+00,2.800233840942382812e+00,2.851878643035888672e+00,2.905464410781860352e+00,2.961102247238159180e+00,3.018912553787231445e+00,3.079025268554687500e+00,3.141580343246459961e+00,3.206730127334594727e+00,3.274639129638671875e+00,3.345486402511596680e+00,3.419467210769653320e+00,3.496794223785400391e+00,3.577699184417724609e+00,3.662436723709106445e+00,3.751285552978515625e+00,3.844552755355834961e+00,3.942575454711914062e+00,4.045727729797363281e+00,4.154441356658935547e+00,4.269168853759765625e+00,4.390412330627441406e+00,4.518744468688964844e+00,4.654804229736328125e+00,4.799311637878417969e+00,4.953071117401123047e+00,5.000000000000000000e+00,5.000000000000000000e+00,5.000000000000000000e+00,5.000000000000000000e+00,5.000000000000000000e+00,5.000000000000000000e+00,5.000000000000000000e+00,5.000000000000000000e+00,5.000000000000000000e+00,5.000000000000000000e+00,5.000000000000000000e+00,5.000000000000000000e+00,5.000000000000000000e+00,5.000000000000000000e+00,5.000000000000000000e+00,5.000000000000000000e+00,5.000000000000000000e+00,5.000000000000000000e+00,5.000000000000000000e+00,5.000000000000000000e+00,5.000000000000000000e+00,5.000000000000000000e+00,5.000000000000000000e+00,5.000000000000000000e+00,5.000000000000000000e+00,5.000000000000000000e+00,5.000000000000000000e+00,5.000000000000000000e+00,5.000000000000000000e+00,5.000000000000000000e+00,5.000000000000000000e+00,5.000000000000000000e+00,5.000000000000000000e+00,5.000000000000000000e+00,5.000000000000000000e+00,5.000000000000000000e+00,5.000000000000000000e+00,5.000000000000000000e+00,5.000000000000000000e+00,5.000000000000000000e+00,5.000000000000000000e+00,5.000000000000000000e+00,5.000000000000000000e+00,5.000000000000000000e+00,5.000000000000000000e+00,5.000000000000000000e+00,5.000000000000000000e+00,5.000000000000000000e+00,5.000000000000000000e+00,5.000000000000000000e+00,5.000000000000000000e+00,5.000000000000000000e+00,5.000000000000000000e+00
2.702313899993896484e+00,2.750379085540771484e+00,2.800184965133666992e+00,2.851827859878540039e+00,2.905411481857299805e+00,2.961047410964965820e+00,3.018855571746826172e+00,3.078965902328491211e+00,3.141518592834472656e+00,3.206665754318237305e+00,3.274572134017944336e+00,3.345416784286499023e+00,3.419394493103027344e+00,3.496717929840087891e+00,3.577619075775146484e+00,3.662352800369262695e+00,3.751197576522827148e+00,3.844460248947143555e+00,3.942478179931640625e+00,4.045625209808349609e+00,4.154314517974853516e+00,4.269004821777343750e+00,4.390207767486572266e+00,4.518523216247558594e+00,4.654569625854492188e+00,4.799062728881835938e+00,4.952814102172851562e+00,5.000000000000000000e+00,5.000000000000000000e+00,5.000000000000000000e+00,5.000000000000000000e+00,5.000000000000000000e+00,5.000000000000000000e+00,5.000000000000000000e+00,5.000000000000000000e+00,5.000000000000000000e+00,5.000000000000000000e+00,5.000000000000000000e+00,5.000000000000000000e+00,5.000000000000000000e+00,5.000000000000000000e+00,5.000000000000000000e+00,5.000000000000000000e+00,5.000000000000000000e+00,5.000000000000000000e+00,5.000000000000000000e+00,5.000000000000000000e+00,5.000000000000000000e+00,5.000000000000000000e+00,5.000000000000000000e+00,5.000000000000000000e+00,5.000000000000000000e+00,5.000000000000000000e+00,5.000000000000000000e+00,5.000000000000000000e+00,5.000000000000000000e+00,5.000000000000000000e+00,5.000000000000000000e+00,5.000000000000000000e+00,5.000000000000000000e+00,5.000000000000000000e+00,5.000000000000000000e+00,5.000000000000000000e+00,5.000000000000000000e+00,5.000000000000000000e+00,5.000000000000000000e+00,5.000000000000000000e+00,5.000000000000000000e+00,5.000000000000000000e+00,5.000000000000000000e+00,5.000000000000000000e+00,5.000000000000000000e+00,5.000000000000000000e+00,5.000000000000000000e+00,5.000000000000000000e+00,5.000000000000000000e+00,5.000000000000000000e+00,5.000000000000000000e+00,5.000000000000000000e+00,5.000000000000000000e+00
2.702268123626708984e+00,2.750331640243530273e+00,2.800135850906372070e+00,2.851777076721191406e+00,2.905359029769897461e+00,2.960992813110351562e+00,3.018798589706420898e+00,3.078906536102294922e+00,3.141456842422485352e+00,3.206601381301879883e+00,3.274504899978637695e+00,3.345346689224243164e+00,3.419321298599243164e+00,3.496641397476196289e+00,3.577539443969726562e+00,3.662269115447998047e+00,3.751109838485717773e+00,3.844367742538452148e+00,3.942380905151367188e+00,4.045522689819335938e+00,4.154206752777099609e+00,4.268890857696533203e+00,4.390087127685546875e+00,4.518366813659667969e+00,4.654368400573730469e+00,4.798813343048095703e+00,4.952548980712890625e+00,5.000000000000000000e+00,5.000000000000000000e+00,5.000000000000000000e+00,5.000000000000000000e+00,5.000000000000000000e+00,5.000000000000000000e+00,5.000000000000000000e+00,5.000000000000000000e+00,5.000000000000000000e+00,5.000000000000000000e+00,5.000000000000000000e+00,5.000000000000000000e+00,5.000000000000000000e+00,5.000000000000000000e+00,5.000000000000000000e+00,5.000000000000000000e+00,5.000000000000000000e+00,5.000000000000000000e+00,5.000000000000000000e+00,5.000000000000000000e+00,5.000000000000000000e+00,5.000000000000000000e+00,5.000000000000000000e+00,5.000000000000000000e+00,5.000000000000000000e+00,5.000000000000000000e+00,5.000000000000000000e+00,5.000000000000000000e+00,5.000000000000000000e+00,5.000000000000000000e+00,5.000000000000000000e+00,5.000000000000000000e+00,5.000000000000000000e+00,5.000000000000000000e+00,5.000000000000000000e+00,5.000000000000000000e+00,5.000000000000000000e+00,5.000000000000000000e+00,5.000000000000000000e+00,5.000000000000000000e+00,5.000000000000000000e+00,5.000000000000000000e+00,5.000000000000000000e+00,5.000000000000000000e+00,5.000000000000000000e+00,5.000000000000000000e+00,5.000000000000000000e+00,5.000000000000000000e+00,5.000000000000000000e+00,5.000000000000000000e+00,5.000000000000000000e+00,5.000000000000000000e+00,5.000000000000000000e+00
2.702222585678100586e+00,2.750284433364868164e+00,2.800086975097656250e+00,2.851726293563842773e+00,2.905306100845336914e+00,2.960937738418579102e+00,3.018741846084594727e+00,3.078847646713256836e+00,3.141395568847656250e+00,3.206537008285522461e+00,3.274437904357910156e+00,3.345276594161987305e+00,3.419248104095458984e+00,3.496564865112304688e+00,3.577459335327148438e+00,3.662185192108154297e+00,3.751021862030029297e+00,3.844275474548339844e+00,3.942284107208251953e+00,4.045420646667480469e+00,4.154098510742187500e+00,4.268776893615722656e+00,4.389966964721679688e+00,4.518239021301269531e+00,4.654232978820800781e+00,4.798666954040527344e+00,4.952353000640869141e+00,5.000000000000000000e+00,5.000000000000000000e+00,5.000000000000000000e+00,5.000000000000000000e+00,5.000000000000000000e+00,5.000000000000000000e+00,5.000000000000000000e+00,5.000000000000000000e+00,5.000000000000000000e+00,5.000000000000000000e+00,5.000000000000000000e+00,5.000000000000000000e+00,5.000000000000000000e+00,5.000000000000000000e+00,5.000000000000000000e+00,5.000000000000000000e+00,5.000000000000000000e+00,5.000000000000000000e+00,5.000000000000000000e+00,5.000000000000000000e+00,5.000000000000000000e+00,5.000000000000000000e+00,5.000000000000000000e+00,5.000000000000000000e+00,5.000000000000000000e+00,5.000000000000000000e+00,5.000000000000000000e+00,5.000000000000000000e+00,5.000000000000000000e+00,5.000000000000000000e+00,5.000000000000000000e+00,5.000000000000000000e+00,5.000000000000000000e+00,5.000000000000000000e+00,5.000000000000000000e+00,5.000000000000000000e+00,5.000000000000000000e+00,5.000000000000000000e+00,5.000000000000000000e+00,5.000000000000000000e+00,5.000000000000000000e+00,5.000000000000000000e+00,5.000000000000000000e+00,5.000000000000000000e+00,5.000000000000000000e+00,5.000000000000000000e+00,5.000000000000000000e+00,5.000000000000000000e+00,5.000000000000000000e+00,5.000000000000000000e+00,5.000000000000000000e+00,5.000000000000000000e+00,5.000000000000000000e+00
2.702177047729492188e+00,2.750236988067626953e+00,2.800037860870361328e+00,2.851675271987915039e+00,2.905253410339355469e+00,2.960882902145385742e+00,3.018684864044189453e+00,3.078788280487060547e+00,3.141333818435668945e+00,3.206473112106323242e+00,3.274371147155761719e+00,3.345206975936889648e+00,3.419174909591674805e+00,3.496488332748413086e+00,3.577379226684570312e+00,3.662101268768310547e+00,3.750933647155761719e+00,3.844183206558227539e+00,3.942186832427978516e+00,4.045318126678466797e+00,4.153990745544433594e+00,4.268663406372070312e+00,4.389846801757812500e+00,4.518111705780029297e+00,4.654097557067871094e+00,4.798523426055908203e+00,4.952199935913085938e+00,5.000000000000000000e+00,5.000000000000000000e+00,5.000000000000000000e+00,5.000000000000000000e+00,5.000000000000000000e+00,5.000000000000000000e+00,5.000000000000000000e+00,5.000000000000000000e+00,5.000000000000000000e+00,5.000000000000000000e+00,5.000000000000000000e+00,5.000000000000000000e+00,5.000000000000000000e+00,5.000000000000000000e+00,5.000000000000000000e+00,5.000000000000000000e+00,5.000000000000000000e+00,5.000000000000000000e+00,5.000000000000000000e+00,5.000000000000000000e+00,5.000000000000000000e+00,5.000000000000000000e+00,5.000000000000000000e+00,5.000000000000000000e+00,5.000000000000000000e+00,5.000000000000000000e+00,5.000000000000000000e+00,5.000000000000000000e+00,5.000000000000000000e+00,5.000000000000000000e+00,5.000000000000000000e+00,5.000000000000000000e+00,5.000000000000000000e+00,5.000000000000000000e+00,5.000000000000000000e+00,5.000000000000000000e+00,5.000000000000000000e+00,5.000000000000000000e+00,5.000000000000000000e+00,5.000000000000000000e+00,5.000000000000000000e+00,5.000000000000000000e+00,5.000000000000000000e+00,5.000000000000000000e+00,5.000000000000000000e+00,5.000000000000000000e+00,5.000000000000000000e+00,5.000000000000000000e+00,5.000000000000000000e+00,5.000000000000000000e+00,5.000000000000000000e+00,5.000000000000000000e+00,5.000000000000000000e+00
2.702131271362304688e+00,2.750190019607543945e+00,2.799988985061645508e+00,2.851624727249145508e+00,2.905200481414794922e+00,2.960828065872192383e+00,3.018627643585205078e+00,3.078728914260864258e+00,3.141272068023681641e+00,3.206408739089965820e+00,3.274303913116455078e+00,3.345136880874633789e+00,3.419102191925048828e+00,3.496412277221679688e+00,3.577299356460571289e+00,3.662017345428466797e+00,3.750845670700073242e+00,3.844090700149536133e+00,3.942089557647705078e+00,4.045216083526611328e+00,4.153882980346679688e+00,4.268549442291259766e+00,4.389726161956787109e+00,4.517983913421630859e+00,4.653962135314941406e+00,4.798379421234130859e+00,4.952046394348144531e+00,5.000000000000000000e+00,5.000000000000000000e+00,5.000000000000000000e+00,5.000000000000000000e+00,5.000000000000000000e+00,5.000000000000000000e+00,5.000000000000000000e+00,5.000000000000000000e+00,5.000000000000000000e+00,5.000000000000000000e+00,5.000000000000000000e+00,5.000000000000000000e+00,5.000000000000000000e+00,5.000000000000000000e+00,5.000000000000000000e+00,5.000000000000000000e+00,5.000000000000000000e+00,5.000000000000000000e+00,5.000000000000000000e+00,5.000000000000000000e+00,5.000000000000000000e+00,5.000000000000000000e+00,5.000000000000000000e+00,5.000000000000000000e+00,5.000000000000000000e+00,5.000000000000000000e+00,5.000000000000000000e+00,5.000000000000000000e+00,5.000000000000000000e+00,5.000000000000000000e+00,5.000000000000000000e+00,5.000000000000000000e+00,5.000000000000000000e+00,5.000000000000000000e+00,5.000000000000000000e+00,5.000000000000000000e+00,5.000000000000000000e+00,5.000000000000000000e+00,5.000000000000000000e+00,5.000000000000000000e+00,5.000000000000000000e+00,5.000000000000000000e+00,5.000000000000000000e+00,5.000000000000000000e+00,5.000000000000000000e+00,5.000000000000000000e+00,5.000000000000000000e+00,5.000000000000000000e+00,5.000000000000000000e+00,5.000000000000000000e+00,5.000000000000000000e+00,5.000000000000000000e+00,5.000000000000000000e+00
2.702085733413696289e+00,2.750142574310302734e+00,2.799939870834350586e+00,2.851573944091796875e+00,2.905148029327392578e+00,2.960773468017578125e+00,3.018570899963378906e+00,3.078669548034667969e+00,3.141210317611694336e+00,3.206344366073608398e+00,3.274236917495727539e+00,3.345066785812377930e+00,3.419028997421264648e+00,3.496335744857788086e+00,3.577219486236572266e+00,3.661933898925781250e+00,3.750758171081542969e+00,3.843998670578002930e+00,3.941992282867431641e+00,4.045113563537597656e+00,4.153775215148925781e+00,4.268435478210449219e+00,4.389605522155761719e+00,4.517856121063232422e+00,4.653826713562011719e+00,4.798235416412353516e+00,4.951893329620361328e+00,5.000000000000000000e+00,5.000000000000000000e+00,5.000000000000000000e+00,5.000000000000000000e+00,5.000000000000000000e+00,5.000000000000000000e+00,5.000000000000000000e+00,5.000000000000000000e+00,5.000000000000000000e+00,5.000000000000000000e+00,5.000000000000000000e+00,5.000000000000000000e+00,5.000000000000000000e+00,5.000000000000000000e+00,5.000000000000000000e+00,5.000000000000000000e+00,5.000000000000000000e+00,5.000000000000000000e+00,5.000000000000000000e+00,5.000000000000000000e+00,5.000000000000000000e+00,5.000000000000000000e+00,5.000000000000000000e+00,5.000000000000000000e+00,5.000000000000000000e+00,5.000000000000000000e+00,5.000000000000000000e+00,5.000000000000000000e+00,5.000000000000000000e+00,5.000000000000000000e+00,5.000000000000000000e+00,5.000000000000000000e+00,5.000000000000000000e+00,5.000000000000000000e+00,5.000000000000000000e+00,5.000000000000000000e+00,5.000000000000000000e+00,5.000000000000000000e+00,5.000000000000000000e+00,5.000000000000000000e+00,5.000000000000000000e+00,5.000000000000000000e+00,5.000000000000000000e+00,5.000000000000000000e+00,5.000000000000000000e+00,5.000000000000000000e+00,5.000000000000000000e+00,5.000000000000000000e+00,5.000000000000000000e+00,5.000000000000000000e+00,5.000000000000000000e+00,5.000000000000000000e+00,5.000000000000000000e+00
2.702039957046508789e+00,2.750095367431640625e+00,2.799890756607055664e+00,2.851522922515869141e+00,2.905095100402832031e+00,2.960718631744384766e+00,3.018513917922973633e+00,3.078610658645629883e+00,3.141148805618286133e+00,3.206280231475830078e+00,3.274169921875000000e+00,3.344996929168701172e+00,3.418955802917480469e+00,3.496259212493896484e+00,3.577139377593994141e+00,3.661849975585937500e+00,3.750669956207275391e+00,3.843906164169311523e+00,3.941895484924316406e+00,4.045011520385742188e+00,4.153667449951171875e+00,4.268321514129638672e+00,4.389485359191894531e+00,4.517728805541992188e+00,4.653691291809082031e+00,4.798091411590576172e+00,4.951739788055419922e+00,5.000000000000000000e+00,5.000000000000000000e+00,5.000000000000000000e+00,5.000000000000000000e+00,5.000000000000000000e+00,5.000000000000000000e+00,5.000000000000000000e+00,5.000000000000000000e+00,5.000000000000000000e+00,5.000000000000000000e+00,5.000000000000000000e+00,5.000000000000000000e+00,5.000000000000000000e+00,5.000000000000000000e+00,5.000000000000000000e+00,5.000000000000000000e+00,5.000000000000000000e+00,5.000000000000000000e+00,5.000000000000000000e+00,5.000000000000000000e+00,5.000000000000000000e+00,5.000000000000000000e+00,5.000000000000000000e+00,5.000000000000000000e+00,5.000000000000000000e+00,5.000000000000000000e+00,5.000000000000000000e+00,5.000000000000000000e+00,5.000000000000000000e+00,5.000000000000000000e+00,5.000000000000000000e+00,5.000000000000000000e+00,5.000000000000000000e+00,5.000000000000000000e+00,5.000000000000000000e+00,5.000000000000000000e+00,5.000000000000000000e+00,5.000000000000000000e+00,5.000000000000000000e+00,5.000000000000000000e+00,5.000000000000000000e+00,5.000000000000000000e+00,5.000000000000000000e+00,5.000000000000000000e+00,5.000000000000000000e+00,5.000000000000000000e+00,5.000000000000000000e+00,5.000000000000000000e+00,5.000000000000000000e+00,5.000000000000000000e+00,5.000000000000000000e+00,5.000000000000000000e+00,5.000000000000000000e+00
2.701994419097900391e+00,2.750048160552978516e+00,2.799841880798339844e+00,2.851472139358520508e+00,2.905042409896850586e+00,2.960663795471191406e+00,3.018456935882568359e+00,3.078551292419433594e+00,3.141087055206298828e+00,3.206216096878051758e+00,3.274103164672851562e+00,3.344927072525024414e+00,3.418882846832275391e+00,3.496182680130004883e+00,3.577059268951416016e+00,3.661766052246093750e+00,3.750581979751586914e+00,3.843813657760620117e+00,3.941798210144042969e+00,4.044909000396728516e+00,4.153559207916259766e+00,4.268207550048828125e+00,4.389364719390869141e+00,4.517601490020751953e+00,4.653555870056152344e+00,4.797947406768798828e+00,4.844077587127685547e+00,4.842877864837646484e+00,4.841678619384765625e+00,4.840479850769042969e+00,4.839282035827636719e+00,4.838084697723388672e+00,4.836887836456298828e+00,4.835691928863525391e+00,4.834496021270751953e+00,4.833300590515136719e+00,4.832106590270996094e+00,4.830912590026855469e+00,4.829719543457031250e+00,4.828526973724365234e+00,4.827334880828857422e+00,4.826143264770507812e+00,4.824952602386474609e+00,4.823762416839599609e+00,4.822572708129882812e+00,4.821383476257324219e+00,4.820194721221923828e+00,4.819006919860839844e+00,4.817819595336914062e+00,4.816632747650146484e+00,4.815446853637695312e+00,4.814260959625244141e+00,4.813075542449951172e+00,4.811891078948974609e+00,4.810707569122314453e+00,4.809524059295654297e+00,4.808341503143310547e+00,4.807159423828125000e+00,4.805977821350097656e+00,4.804797172546386719e+00,4.803616523742675781e+00,4.802436828613281250e+00,4.801257610321044922e+00,4.800078868865966797e+00,4.798901081085205078e+00,4.797723293304443359e+00,4.796546459197998047e+00,4.795370578765869141e+00,4.794194698333740234e+00,4.793019294738769531e+00,4.791844844818115234e+00,4.790670871734619141e+00,4.789497375488281250e+00,4.788324356079101562e+00,4.787152290344238281e+00,4.785980701446533203e+00,4.784809112548828125e+00,4.783638954162597656e+00,4.782468795776367188e+00,4.781299114227294922e+00
2.701948881149291992e+00,2.750000953674316406e+00,2.799793004989624023e+00,2.851421356201171875e+00,2.904989719390869141e+00,2.960608959197998047e+00,3.018399953842163086e+00,3.078491926193237305e+00,3.141025304794311523e+00,3.206151723861694336e+00,3.274035930633544922e+00,3.344857215881347656e+00,3.418809890747070312e+00,3.496106624603271484e+00,3.576979398727416992e+00,3.661682605743408203e+00,3.750494003295898438e+00,3.766029357910156250e+00,3.765304088592529297e+00,3.764579057693481445e+00,3.763854503631591797e+00,3.763130187988281250e+00,3.762406110763549805e+00,3.761682271957397461e+00,3.760958671569824219e+00,3.760235548019409180e+00,3.759512662887573242e+00,3.758790016174316406e+00,3.758067607879638672e+00,3.757345438003540039e+00,3.756623506546020508e+00,3.755902051925659180e+00,3.755180597305297852e+00,3.754459619522094727e+00,3.753738880157470703e+00,3.753018379211425781e+00,3.752298355102539062e+00,3.751578330993652344e+00,3.750858306884765625e+00,3.750138998031616211e+00,3.749419689178466797e+00,3.748701095581054688e+00,3.747982501983642578e+00,3.747264146804809570e+00,3.746546268463134766e+00,3.745828628540039062e+00,3.745110988616943359e+00,3.744393825531005859e+00,3.743677139282226562e+00,3.742960453033447266e+00,3.742244243621826172e+00,3.741528034210205078e+00,3.740812301635742188e+00,3.740096807479858398e+00,3.739381551742553711e+00,3.738666772842407227e+00,3.737951993942260742e+00,3.737237691879272461e+00,3.736523389816284180e+00,3.735809564590454102e+00,3.735095977783203125e+00,3.734382629394531250e+00,3.733669519424438477e+00,3.732956886291503906e+00,3.732244253158569336e+00,3.731532096862792969e+00,3.730819940567016602e+00,3.730108261108398438e+00,3.729396820068359375e+00,3.728685855865478516e+00,3.727974891662597656e+00,3.727264165878295898e+00,3.726553916931152344e+00,3.725843906402587891e+00,3.725133657455444336e+00,3.724424123764038086e+00,3.723714828491210938e+00,3.723005771636962891e+00,3.722297191619873047e+00,3.721588611602783203e+00
2.701903104782104492e+00,2.749953508377075195e+00,2.799743890762329102e+00,2.851370573043823242e+00,2.904937028884887695e+00,2.960554361343383789e+00,3.018343210220336914e+00,3.078433036804199219e+00,3.080471277236938477e+00,3.079985857009887695e+00,3.079500913619995117e+00,3.079015970230102539e+00,3.078531265258789062e+00,3.078046560287475586e+00,3.077562093734741211e+00,3.077077865600585938e+00,3.076593637466430664e+00,3.076109647750854492e+00,3.075625896453857422e+00,3.075142145156860352e+00,3.074658632278442383e+00,3.074175357818603516e+00,3.073692083358764648e+00,3.073208808898925781e+00,3.072726011276245117e+00,3.072243213653564453e+00,3.071760654449462891e+00,3.071278095245361328e+00,3.070795774459838867e+00,3.070313692092895508e+00,3.069831609725952148e+00,3.069349765777587891e+00,3.068867921829223633e+00,3.068386316299438477e+00,3.067904949188232422e+00,3.067423820495605469e+00,3.066942691802978516e+00,3.066461563110351562e+00,3.065980911254882812e+00,3.065500259399414062e+00,3.065019845962524414e+00,3.064539432525634766e+00,3.064059257507324219e+00,3.063579082489013672e+00,3.063098907470703125e+00,3.062619209289550781e+00,3.062139511108398438e+00,3.061660051345825195e+00,3.061180830001831055e+00,3.060701608657836914e+00,3.060222625732421875e+00,3.059743881225585938e+00,3.059265136718750000e+00,3.058786630630493164e+00,3.058308124542236328e+00,3.057829856872558594e+00,3.057351827621459961e+00,3.056873798370361328e+00,3.056396007537841797e+00,3.055918216705322266e+00,3.055440902709960938e+00,3.054963350296020508e+00,3.054486274719238281e+00,3.054009199142456055e+00,3.053532123565673828e+00,3.053055524826049805e+00,3.052578926086425781e+00,3.052102327346801758e+00,3.051625967025756836e+00,3.051149845123291016e+00,3.050673961639404297e+00,3.050198078155517578e+00,3.049722194671630859e+00,3.049246788024902344e+00,3.048771142959594727e+00,3.048295974731445312e+00,3.047820806503295898e+00,3.047345876693725586e+00,3.046870946884155273e+00,3.046396255493164062e+00
2.605721950531005859e+00,2.605374813079833984e+00,2.605027675628662109e+00,2.604680776596069336e+00,2.604333877563476562e+00,2.603986978530883789e+00,2.603640317916870117e+00,2.603293657302856445e+00,2.602946996688842773e+00,2.602600574493408203e+00,2.602254390716552734e+00,2.601907968521118164e+00,2.601561546325683594e+00,2.601215600967407227e+00,2.600869655609130859e+00,2.600523710250854492e+00,2.600177764892578125e+00,2.599832057952880859e+00,2.599486589431762695e+00,2.599141120910644531e+00,2.598795413970947266e+00,2.598450183868408203e+00,2.598104953765869141e+00,2.597759723663330078e+00,2.597414731979370117e+00,2.597069740295410156e+00,2.596724748611450195e+00,2.596379995346069336e+00,2.596035242080688477e+00,2.595690727233886719e+00,2.595346212387084961e+00,2.595001697540283203e+00,2.594657421112060547e+00,2.594313144683837891e+00,2.593969106674194336e+00,2.593625068664550781e+00,2.593281030654907227e+00,2.592936992645263672e+00,2.592593431472778320e+00,2.592249631881713867e+00,2.591906070709228516e+00,2.591562509536743164e+00,2.591218948364257812e+00,2.590875625610351562e+00,2.590532541275024414e+00,2.590189218521118164e+00,2.589846372604370117e+00,2.589503288269042969e+00,2.589160203933715820e+00,2.588817358016967773e+00,2.588474750518798828e+00,2.588132143020629883e+00,2.587789535522460938e+00,2.587447166442871094e+00,2.587104797363281250e+00,2.586762666702270508e+00,2.586420536041259766e+00,2.586078405380249023e+00,2.585736513137817383e+00,2.585394620895385742e+00,2.585052728652954102e+00,2.584711074829101562e+00,2.584369421005249023e+00,2.584028005599975586e+00,2.583686590194702148e+00,2.583345174789428711e+00,2.583003997802734375e+00,2.582662820816040039e+00,2.582321643829345703e+00,2.581980705261230469e+00,2.581639766693115234e+00,2.581299066543579102e+00,2.580958366394042969e+00,2.580617666244506836e+00,2.580277204513549805e+00,2.579936742782592773e+00,2.579596281051635742e+00,2.579256057739257812e+00,2.578915834426879883e+00,2.578575849533081055e+00
2.255681037902832031e+00,2.255420923233032227e+00,2.255160808563232422e+00,2.254900693893432617e+00,2.254640817642211914e+00,2.254380941390991211e+00,2.254121065139770508e+00,2.253861188888549805e+00,2.253601312637329102e+00,2.253341674804687500e+00,2.253082036972045898e+00,2.252822399139404297e+00,2.252562999725341797e+00,2.252303600311279297e+00,2.252044200897216797e+00,2.251784801483154297e+00,2.251525402069091797e+00,2.251266241073608398e+00,2.251007080078125000e+00,2.250747919082641602e+00,2.250488758087158203e+00,2.250229835510253906e+00,2.249970912933349609e+00,2.249711990356445312e+00,2.249453306198120117e+00,2.249194622039794922e+00,2.248935937881469727e+00,2.248677253723144531e+00,2.248418569564819336e+00,2.248160123825073242e+00,2.247901678085327148e+00,2.247643232345581055e+00,2.247385025024414062e+00,2.247126817703247070e+00,2.246868610382080078e+00,2.246610403060913086e+00,2.246352195739746094e+00,2.246094226837158203e+00,2.245836257934570312e+00,2.245578289031982422e+00,2.245320558547973633e+00,2.245062589645385742e+00,2.244804859161376953e+00,2.244547128677368164e+00,2.244289636611938477e+00,2.244032144546508789e+00,2.243774652481079102e+00,2.243517160415649414e+00,2.243259668350219727e+00,2.243002414703369141e+00,2.242745161056518555e+00,2.242487907409667969e+00,2.242230653762817383e+00,2.241973638534545898e+00,2.241716623306274414e+00,2.241459608078002930e+00,2.241202592849731445e+00,2.240945816040039062e+00,2.240689039230346680e+00,2.240432262420654297e+00,2.240175724029541016e+00,2.239918947219848633e+00,2.239662408828735352e+00,2.239405870437622070e+00,2.239149570465087891e+00,2.238893032073974609e+00,2.238636732101440430e+00,2.238380670547485352e+00,2.238124370574951172e+00,2.237868309020996094e+00,2.237612009048461914e+00,2.237356185913085938e+00,2.237100124359130859e+00,2.236844301223754883e+00,2.236588478088378906e+00,2.236332654953002930e+00,2.236076831817626953e+00,2.235821247100830078e+00,2.235565423965454102e+00,2.235309839248657227e+00
1.988548636436462402e+00,1.988346457481384277e+00,1.988144278526306152e+00,1.987942099571228027e+00,1.987740039825439453e+00,1.987537980079650879e+00,1.987336039543151855e+00,1.987134099006652832e+00,1.986932158470153809e+00,1.986730217933654785e+00,1.986528396606445312e+00,1.986326575279235840e+00,1.986124873161315918e+00,1.985923171043395996e+00,1.985721468925476074e+00,1.985519886016845703e+00,1.985318303108215332e+00,1.985116720199584961e+00,1.984915256500244141e+00,1.984713792800903320e+00,1.984512090682983398e+00,1.984310746192932129e+00,1.984109401702880859e+00,1.983908057212829590e+00,1.983706831932067871e+00,1.983505606651306152e+00,1.983304381370544434e+00,1.983103275299072266e+00,1.982902169227600098e+00,1.982701063156127930e+00,1.982500076293945312e+00,1.982299089431762695e+00,1.982098221778869629e+00,1.981897234916687012e+00,1.981696367263793945e+00,1.981495618820190430e+00,1.981294870376586914e+00,1.981094121932983398e+00,1.980893373489379883e+00,1.980692744255065918e+00,1.980492115020751953e+00,1.980291604995727539e+00,1.980090975761413574e+00,1.979890584945678711e+00,1.979690074920654297e+00,1.979489684104919434e+00,1.979289293289184570e+00,1.979089021682739258e+00,1.978888630867004395e+00,1.978688478469848633e+00,1.978488206863403320e+00,1.978288054466247559e+00,1.978087902069091797e+00,1.977887868881225586e+00,1.977687835693359375e+00,1.977487802505493164e+00,1.977287769317626953e+00,1.977087855339050293e+00,1.976888060569763184e+00,1.976688146591186523e+00,1.976488351821899414e+00,1.976288557052612305e+00,1.976088881492614746e+00,1.975889205932617188e+00,1.975689530372619629e+00,1.975489974021911621e+00,1.975290417671203613e+00,1.975090861320495605e+00,1.974891424179077148e+00,1.974691987037658691e+00,1.974492549896240234e+00,1.974293231964111328e+00,1.974093914031982422e+00,1.973894596099853516e+00,1.973695397377014160e+00,1.973496198654174805e+00,1.973296999931335449e+00,1.973097920417785645e+00,1.972898840904235840e+00,1.972699761390686035e+00
1.777987718582153320e+00,1.777826070785522461e+00,1.777664422988891602e+00,1.777502775192260742e+00,1.777341246604919434e+00,1.777179718017578125e+00,1.777018189430236816e+00,1.776856660842895508e+00,1.776695251464843750e+00,1.776533842086791992e+00,1.776372432708740234e+00,1.776211142539978027e+00,1.776049733161926270e+00,1.775888442993164062e+00,1.775727152824401855e+00,1.775565981864929199e+00,1.775404691696166992e+00,1.775243520736694336e+00,1.775082349777221680e+00,1.774921298027038574e+00,1.774760127067565918e+00,1.774599075317382812e+00,1.774438023567199707e+00,1.774277091026306152e+00,1.774115920066833496e+00,1.773954987525939941e+00,1.773794054985046387e+00,1.773633122444152832e+00,1.773472309112548828e+00,1.773311495780944824e+00,1.773150682449340820e+00,1.772989869117736816e+00,1.772829055786132812e+00,1.772668361663818359e+00,1.772507667541503906e+00,1.772347092628479004e+00,1.772186398506164551e+00,1.772025823593139648e+00,1.771865248680114746e+00,1.771704673767089844e+00,1.771544218063354492e+00,1.771383643150329590e+00,1.771223187446594238e+00,1.771062850952148438e+00,1.770902395248413086e+00,1.770742058753967285e+00,1.770581722259521484e+00,1.770421385765075684e+00,1.770261049270629883e+00,1.770100831985473633e+00,1.769940614700317383e+00,1.769780397415161133e+00,1.769620299339294434e+00,1.769460082054138184e+00,1.769299983978271484e+00,1.769139885902404785e+00,1.768979907035827637e+00,1.768819808959960938e+00,1.768659830093383789e+00,1.768499851226806641e+00,1.768339991569519043e+00,1.768180012702941895e+00,1.768020153045654297e+00,1.767860293388366699e+00,1.767700552940368652e+00,1.767540693283081055e+00,1.767380952835083008e+00,1.767221212387084961e+00,1.767061471939086914e+00,1.766901850700378418e+00,1.766742229461669922e+00,1.766582608222961426e+00,1.766422986984252930e+00,1.766263484954833984e+00,1.766103982925415039e+00,1.765944480895996094e+00,1.765784978866577148e+00,1.765625476837158203e+00,1.765466094017028809e+00,1.765306830406188965e+00
1.607748389244079590e+00,1.607616186141967773e+00,1.607484102249145508e+00,1.607351899147033691e+00,1.607219815254211426e+00,1.607087731361389160e+00,1.606955647468566895e+00,1.606823563575744629e+00,1.606691598892211914e+00,1.606559514999389648e+00,1.606427550315856934e+00,1.606295585632324219e+00,1.606163620948791504e+00,1.606031775474548340e+00,1.605899810791015625e+00,1.605767965316772461e+00,1.605636119842529297e+00,1.605504274368286133e+00,1.605372428894042969e+00,1.605240702629089355e+00,1.605108857154846191e+00,1.604977130889892578e+00,1.604845404624938965e+00,1.604713678359985352e+00,1.604582071304321289e+00,1.604450345039367676e+00,1.604318737983703613e+00,1.604187130928039551e+00,1.604055523872375488e+00,1.603923916816711426e+00,1.603792309761047363e+00,1.603660702705383301e+00,1.603529214859008789e+00,1.603397727012634277e+00,1.603266239166259766e+00,1.603134870529174805e+00,1.603003382682800293e+00,1.602872014045715332e+00,1.602740645408630371e+00,1.602609276771545410e+00,1.602477908134460449e+00,1.602346658706665039e+00,1.602215290069580078e+00,1.602084040641784668e+00,1.601952791213989258e+00,1.601821541786193848e+00,1.601690411567687988e+00,1.601559162139892578e+00,1.601428031921386719e+00,1.601296901702880859e+00,1.601165771484375000e+00,1.601034641265869141e+00,1.600903511047363281e+00,1.600772500038146973e+00,1.600641489028930664e+00,1.600510478019714355e+00,1.600379467010498047e+00,1.600248456001281738e+00,1.600117564201354980e+00,1.599986553192138672e+00,1.599855661392211914e+00,1.599724769592285156e+00,1.599593877792358398e+00,1.599463105201721191e+00,1.599332213401794434e+00,1.599201440811157227e+00,1.599070668220520020e+00,1.598939895629882812e+00,1.598809242248535156e+00,1.598678469657897949e+00,1.598547816276550293e+00,1.598417162895202637e+00,1.598286509513854980e+00,1.598155856132507324e+00,1.598025202751159668e+00,1.597894668579101562e+00,1.597764134407043457e+00,1.597633481025695801e+00,1.597503066062927246e+00,1.597372531890869141e+00
1.467260718345642090e+00,1.467150568962097168e+00,1.467040538787841797e+00,1.466930508613586426e+00,1.466820478439331055e+00,1.466710448265075684e+00,1.466600418090820312e+00,1.466490387916564941e+00,1.466380476951599121e+00,1.466270446777343750e+00,1.466160535812377930e+00,1.466050624847412109e+00,1.465940713882446289e+00,1.465830802917480469e+00,1.465720891952514648e+00,1.465611100196838379e+00,1.465501189231872559e+00,1.465391397476196289e+00,1.465281605720520020e+00,1.465171813964843750e+00,1.465062022209167480e+00,1.464952230453491211e+00,1.464842438697814941e+00,1.464732766151428223e+00,1.464623093605041504e+00,1.464513301849365234e+00,1.464403629302978516e+00,1.464293956756591797e+00,1.464184403419494629e+00,1.464074730873107910e+00,1.463965177536010742e+00,1.463855504989624023e+00,1.463745951652526855e+00,1.463636398315429688e+00,1.463526725769042969e+00,1.463417172431945801e+00,1.463307619094848633e+00,1.463198184967041016e+00,1.463088631629943848e+00,1.462979197502136230e+00,1.462869763374328613e+00,1.462760329246520996e+00,1.462650895118713379e+00,1.462541460990905762e+00,1.462432146072387695e+00,1.462322831153869629e+00,1.462213397026062012e+00,1.462104082107543945e+00,1.461994767189025879e+00,1.461885452270507812e+00,1.461776137351989746e+00,1.461666941642761230e+00,1.461557626724243164e+00,1.461448431015014648e+00,1.461339235305786133e+00,1.461230039596557617e+00,1.461120843887329102e+00,1.461011648178100586e+00,1.460902452468872070e+00,1.460793375968933105e+00,1.460684299468994141e+00,1.460575103759765625e+00,1.460466027259826660e+00,1.460356950759887695e+00,1.460247874259948730e+00,1.460138916969299316e+00,1.460029840469360352e+00,1.459920883178710938e+00,1.459811806678771973e+00,1.459702849388122559e+00,1.459593892097473145e+00,1.459484934806823730e+00,1.459376096725463867e+00,1.459267139434814453e+00,1.459158301353454590e+00,1.459049344062805176e+00,1.458940505981445312e+00,1.458831667900085449e+00,1.458722829818725586e+00,1.458613991737365723e+00
1.349352002143859863e+00,1.349258899688720703e+00,1.349165797233581543e+00,1.349072813987731934e+00,1.348979711532592773e+00,1.348886609077453613e+00,1.348793625831604004e+00,1.348700523376464844e+00,1.348607540130615234e+00,1.348514556884765625e+00,1.348421573638916016e+00,1.348328590393066406e+00,1.348235607147216797e+00,1.348142623901367188e+00,1.348049640655517578e+00,1.347956776618957520e+00,1.347863912582397461e+00,1.347770929336547852e+00,1.347678065299987793e+00,1.347585201263427734e+00,1.347492337226867676e+00,1.347399473190307617e+00,1.347306728363037109e+00,1.347213864326477051e+00,1.347121000289916992e+00,1.347028255462646484e+00,1.346935391426086426e+00,1.346842646598815918e+00,1.346749901771545410e+00,1.346657156944274902e+00,1.346564412117004395e+00,1.346471667289733887e+00,1.346379041671752930e+00,1.346286296844482422e+00,1.346193671226501465e+00,1.346100926399230957e+00,1.346008300781250000e+00,1.345915675163269043e+00,1.345822930335998535e+00,1.345730304718017578e+00,1.345637679100036621e+00,1.345545053482055664e+00,1.345452427864074707e+00,1.345359921455383301e+00,1.345267295837402344e+00,1.345174789428710938e+00,1.345082283020019531e+00,1.344989776611328125e+00,1.344897270202636719e+00,1.344804763793945312e+00,1.344712257385253906e+00,1.344619750976562500e+00,1.344527363777160645e+00,1.344434857368469238e+00,1.344342470169067383e+00,1.344250082969665527e+00,1.344157576560974121e+00,1.344065189361572266e+00,1.343972802162170410e+00,1.343880534172058105e+00,1.343788146972656250e+00,1.343695759773254395e+00,1.343603491783142090e+00,1.343511104583740234e+00,1.343418836593627930e+00,1.343326568603515625e+00,1.343234300613403320e+00,1.343142032623291016e+00,1.343049764633178711e+00,1.342957496643066406e+00,1.342865228652954102e+00,1.342773079872131348e+00,1.342680811882019043e+00,1.342588663101196289e+00,1.342496514320373535e+00,1.342404365539550781e+00,1.342312216758728027e+00,1.342220067977905273e+00,1.342127919197082520e+00,1.342035770416259766e+00
1.248984098434448242e+00,1.248904228210449219e+00,1.248824477195739746e+00,1.248744845390319824e+00,1.248665094375610352e+00,1.248585343360900879e+00,1.248505592346191406e+00,1.248425841331481934e+00,1.248346209526062012e+00,1.248266458511352539e+00,1.248186826705932617e+00,1.248107194900512695e+00,1.248027443885803223e+00,1.247947812080383301e+00,1.247868180274963379e+00,1.247788548469543457e+00,1.247708916664123535e+00,1.247629284858703613e+00,1.247549772262573242e+00,1.247470140457153320e+00,1.247390627861022949e+00,1.247310996055603027e+00,1.247231483459472656e+00,1.247151851654052734e+00,1.247072339057922363e+00,1.246992826461791992e+00,1.246913313865661621e+00,1.246833801269531250e+00,1.246754288673400879e+00,1.246674776077270508e+00,1.246595382690429688e+00,1.246515870094299316e+00,1.246436357498168945e+00,1.246356964111328125e+00,1.246277570724487305e+00,1.246198058128356934e+00,1.246118664741516113e+00,1.246039271354675293e+00,1.245959877967834473e+00,1.245880484580993652e+00,1.245801091194152832e+00,1.245721697807312012e+00,1.245642423629760742e+00,1.245563030242919922e+00,1.245483636856079102e+00,1.245404243469238281e+00,1.245324969291687012e+00,1.245245695114135742e+00,1.245166420936584473e+00,1.245087027549743652e+00,1.245007753372192383e+00,1.244928479194641113e+00,1.244849324226379395e+00,1.244770050048828125e+00,1.244690775871276855e+00,1.244611620903015137e+00,1.244532346725463867e+00,1.244453191757202148e+00,1.244373917579650879e+00,1.244294762611389160e+00,1.244215607643127441e+00,1.244136452674865723e+00,1.244057297706604004e+00,1.243978142738342285e+00,1.243898987770080566e+00,1.243819832801818848e+00,1.243740797042846680e+00,1.243661642074584961e+00,1.243582606315612793e+00,1.243503451347351074e+00,1.243424415588378906e+00,1.243345379829406738e+00,1.243266344070434570e+00,1.243187308311462402e+00,1.243108272552490234e+00,1.243029236793518066e+00,1.242950201034545898e+00,1.242871165275573730e+00,1.242792248725891113e+00,1.242713212966918945e+00
1.162513613700866699e+00,1.162444472312927246e+00,1.162375450134277344e+00,1.162306308746337891e+00,1.162237286567687988e+00,1.162168145179748535e+00,1.162099123001098633e+00,1.162029981613159180e+00,1.161960959434509277e+00,1.161891937255859375e+00,1.161822915077209473e+00,1.161753892898559570e+00,1.161684870719909668e+00,1.161615848541259766e+00,1.161546826362609863e+00,1.161477804183959961e+00,1.161408901214599609e+00,1.161339879035949707e+00,1.161270856857299805e+00,1.161201953887939453e+00,1.161132931709289551e+00,1.161064028739929199e+00,1.160995125770568848e+00,1.160926222801208496e+00,1.160857200622558594e+00,1.160788297653198242e+00,1.160719394683837891e+00,1.160650491714477539e+00,1.160581588745117188e+00,1.160512804985046387e+00,1.160443902015686035e+00,1.160374999046325684e+00,1.160306215286254883e+00,1.160237312316894531e+00,1.160168528556823730e+00,1.160099625587463379e+00,1.160030841827392578e+00,1.159962058067321777e+00,1.159893155097961426e+00,1.159824371337890625e+00,1.159755587577819824e+00,1.159686803817749023e+00,1.159618020057678223e+00,1.159549236297607422e+00,1.159480571746826172e+00,1.159411787986755371e+00,1.159343004226684570e+00,1.159274339675903320e+00,1.159205436706542969e+00,1.159136772155761719e+00,1.159068107604980469e+00,1.158999323844909668e+00,1.158930659294128418e+00,1.158861994743347168e+00,1.158793330192565918e+00,1.158724665641784668e+00,1.158656001091003418e+00,1.158587336540222168e+00,1.158518671989440918e+00,1.158450007438659668e+00,1.158381342887878418e+00,1.158312797546386719e+00,1.158244252204895020e+00,1.158175587654113770e+00,1.158107042312622070e+00,1.158038377761840820e+00,1.157969832420349121e+00,1.157901287078857422e+00,1.157832741737365723e+00,1.157764196395874023e+00,1.157695651054382324e+00,1.157627105712890625e+00,1.157558560371398926e+00,1.157490015029907227e+00,1.157421469688415527e+00,1.157353043556213379e+00,1.157284498214721680e+00,1.157216072082519531e+00,1.157147526741027832e+00,1.157079100608825684e+00
1.087241053581237793e+00,1.087180614471435547e+00,1.087120175361633301e+00,1.087059736251831055e+00,1.086999297142028809e+00,1.086938858032226562e+00,1.086878418922424316e+00,1.086817979812622070e+00,1.086757659912109375e+00,1.086697220802307129e+00,1.086636781692504883e+00,1.086576461791992188e+00,1.086516022682189941e+00,1.086455702781677246e+00,1.086395382881164551e+00,1.086334943771362305e+00,1.086274623870849609e+00,1.086214303970336914e+00,1.086153984069824219e+00,1.086093664169311523e+00,1.086033344268798828e+00,1.085973024368286133e+00,1.085912704467773438e+00,1.085852384567260742e+00,1.085792064666748047e+00,1.085731744766235352e+00,1.085671544075012207e+00,1.085611224174499512e+00,1.085551023483276367e+00,1.085490703582763672e+00,1.085430502891540527e+00,1.085370182991027832e+00,1.085309982299804688e+00,1.085249781608581543e+00,1.085189461708068848e+00,1.085129261016845703e+00,1.085069060325622559e+00,1.085008859634399414e+00,1.084948658943176270e+00,1.084888458251953125e+00,1.084828257560729980e+00,1.084768056869506836e+00,1.084707856178283691e+00,1.084647774696350098e+00,1.084587574005126953e+00,1.084527373313903809e+00,1.084467291831970215e+00,1.084407091140747070e+00,1.084347009658813477e+00,1.084286928176879883e+00,1.084226727485656738e+00,1.084166646003723145e+00,1.084106445312500000e+00,1.084046363830566406e+00,1.083986282348632812e+00,1.083926200866699219e+00,1.083866119384765625e+00,1.083806037902832031e+00,1.083745956420898438e+00,1.083685874938964844e+00,1.083625793457031250e+00,1.083565831184387207e+00,1.083505749702453613e+00,1.083445668220520020e+00,1.083385705947875977e+00,1.083325624465942383e+00,1.083265662193298340e+00,1.083205580711364746e+00,1.083145618438720703e+00,1.083085656166076660e+00,1.083025693893432617e+00,1.082965612411499023e+00,1.082905650138854980e+00,1.082845687866210938e+00,1.082785725593566895e+00,1.082725763320922852e+00,1.082665801048278809e+00,1.082605957984924316e+00,1.082545995712280273e+00,1.082486033439636230e+00
1.021123409271240234e+00,1.021070122718811035e+00,1.021016836166381836e+00,1.020963430404663086e+00,1.020910143852233887e+00,1.020856857299804688e+00,1.020803570747375488e+00,1.020750284194946289e+00,1.020696997642517090e+00,1.020643711090087891e+00,1.020590424537658691e+00,1.020537137985229492e+00,1.020483970642089844e+00,1.020430684089660645e+00,1.020377397537231445e+00,1.020324230194091797e+00,1.020270943641662598e+00,1.020217657089233398e+00,1.020164489746093750e+00,1.020111322402954102e+00,1.020058035850524902e+00,1.020004868507385254e+00,1.019951581954956055e+00,1.019898414611816406e+00,1.019845247268676758e+00,1.019792079925537109e+00,1.019738912582397461e+00,1.019685745239257812e+00,1.019632577896118164e+00,1.019579410552978516e+00,1.019526243209838867e+00,1.019473075866699219e+00,1.019419908523559570e+00,1.019366741180419922e+00,1.019313573837280273e+00,1.019260525703430176e+00,1.019207358360290527e+00,1.019154191017150879e+00,1.019101142883300781e+00,1.019047975540161133e+00,1.018994927406311035e+00,1.018941760063171387e+00,1.018888711929321289e+00,1.018835663795471191e+00,1.018782496452331543e+00,1.018729448318481445e+00,1.018676400184631348e+00,1.018623352050781250e+00,1.018570303916931152e+00,1.018517255783081055e+00,1.018464207649230957e+00,1.018411159515380859e+00,1.018358111381530762e+00,1.018305063247680664e+00,1.018252015113830566e+00,1.018198966979980469e+00,1.018145918846130371e+00,1.018092870712280273e+00,1.018039941787719727e+00,1.017986893653869629e+00,1.017933964729309082e+00,1.017880916595458984e+00,1.017827987670898438e+00,1.017774939537048340e+00,1.017722010612487793e+00,1.017669081687927246e+00,1.017616033554077148e+00,1.017563104629516602e+00,1.017510175704956055e+00,1.017457246780395508e+00,1.017404317855834961e+00,1.017351388931274414e+00,1.017298460006713867e+00,1.017245531082153320e+00,1.017192602157592773e+00,1.017139673233032227e+00,1.017086744308471680e+00,1.017033815383911133e+00,1.016981005668640137e+00,1.016928076744079590e+00
9.625863432884216309e-01,9.625390172004699707e-01,9.624916315078735352e-01,9.624442458152770996e-01,9.623968601226806641e-01,9.623494744300842285e-01,9.623021483421325684e-01,9.622547626495361328e-01,9.622074365615844727e-01,9.621600508689880371e-01,9.621127247810363770e-01,9.620653986930847168e-01,9.620180726051330566e-01,9.619707465171813965e-01,9.619234204292297363e-01,9.618760943412780762e-01,9.618287682533264160e-01,9.617815017700195312e-01,9.617341756820678711e-01,9.616869091987609863e-01,9.616395831108093262e-01,9.615923166275024414e-01,9.615449905395507812e-01,9.614977240562438965e-01,9.614504575729370117e-01,9.614031910896301270e-01,9.613559246063232422e-01,9.613086581230163574e-01,9.612613916397094727e-01,9.612141251564025879e-01,9.611669182777404785e-01,9.611196517944335938e-01,9.610724449157714844e-01,9.610251784324645996e-01,9.609779715538024902e-01,9.609307646751403809e-01,9.608834981918334961e-01,9.608362913131713867e-01,9.607890844345092773e-01,9.607418775558471680e-01,9.606946706771850586e-01,9.606474637985229492e-01,9.606003165245056152e-01,9.605531096458435059e-01,9.605059027671813965e-01,9.604587554931640625e-01,9.604115486145019531e-01,9.603644013404846191e-01,9.603172540664672852e-01,9.602700471878051758e-01,9.602228999137878418e-01,9.601757526397705078e-01,9.601286053657531738e-01,9.600814580917358398e-01,9.600343108177185059e-01,9.599872231483459473e-01,9.599400758743286133e-01,9.598929286003112793e-01,9.598458409309387207e-01,9.597986936569213867e-01,9.597516059875488281e-01,9.597045183181762695e-01,9.596574306488037109e-01,9.596102833747863770e-01,9.595631957054138184e-01,9.595161080360412598e-01,9.594690799713134766e-01,9.594219923019409180e-01,9.593749046325683594e-01,9.593278169631958008e-01,9.592807888984680176e-01,9.592337012290954590e-01,9.591866731643676758e-01,9.591395854949951172e-01,9.590925574302673340e-01,9.590455293655395508e-01,9.589985013008117676e-01,9.589514732360839844e-01,9.589044451713562012e-01,9.588574171066284180e-01
9.103968739509582520e-01,9.103544950485229492e-01,9.103121161460876465e-01,9.102697372436523438e-01,9.102273583412170410e-01,9.101849794387817383e-01,9.101426005363464355e-01,9.101002812385559082e-01,9.100579023361206055e-01,9.100155830383300781e-01,9.099732041358947754e-01,9.099308848381042480e-01,9.098885059356689453e-01,9.098461866378784180e-01,9.098038673400878906e-01,9.097614884376525879e-01,9.097191691398620605e-01,9.096768498420715332e-01,9.096345305442810059e-01,9.095922112464904785e-01,9.095499515533447266e-01,9.095076322555541992e-01,9.094653129577636719e-01,9.094229936599731445e-01,9.093807339668273926e-01,9.093384146690368652e-01,9.092961549758911133e-01,9.092538952827453613e-01,9.092115759849548340e-01,9.091693162918090820e-01,9.091270565986633301e-01,9.090847969055175781e-01,9.090425372123718262e-01,9.090002775192260742e-01,9.089580178260803223e-01,9.089157581329345703e-01,9.088734984397888184e-01,9.088312387466430664e-01,9.087890386581420898e-01,9.087467789649963379e-01,9.087045788764953613e-01,9.086623191833496094e-01,9.086201190948486328e-01,9.085779190063476562e-01,9.085356593132019043e-01,9.084934592247009277e-01,9.084512591361999512e-01,9.084090590476989746e-01,9.083668589591979980e-01,9.083246588706970215e-01,9.082824587821960449e-01,9.082402586936950684e-01,9.081981182098388672e-01,9.081559181213378906e-01,9.081137180328369141e-01,9.080715775489807129e-01,9.080293774604797363e-01,9.079872369766235352e-01,9.079450964927673340e-01,9.079028964042663574e-01,9.078607559204101562e-01,9.078186154365539551e-01,9.077764749526977539e-01,9.077343344688415527e-01,9.076921939849853516e-01,9.076500535011291504e-01,9.076078534126281738e-01,9.075657129287719727e-01,9.075235724449157715e-01,9.074814915657043457e-01,9.074393510818481445e-01,9.073972702026367188e-01,9.073551297187805176e-01,9.073130488395690918e-01,9.072709679603576660e-01,9.072288274765014648e-01,9.071867465972900391e-01,9.071446657180786133e-01,9.071025848388671875e-01,9.070605039596557617e-01
8.635754585266113281e-01,8.635373115539550781e-01,8.634991645812988281e-01,8.634610772132873535e-01,8.634229302406311035e-01,8.633847832679748535e-01,8.633466958999633789e-01,8.633085489273071289e-01,8.632704615592956543e-01,8.632323741912841797e-01,8.631942272186279297e-01,8.631561398506164551e-01,8.631180524826049805e-01,8.630799651145935059e-01,8.630418777465820312e-01,8.630037307739257812e-01,8.629656434059143066e-01,8.629276156425476074e-01,8.628895282745361328e-01,8.628514409065246582e-01,8.628133535385131836e-01,8.627752661705017090e-01,8.627372384071350098e-01,8.626991510391235352e-01,8.626611232757568359e-01,8.626230359077453613e-01,8.625850081443786621e-01,8.625469207763671875e-01,8.625088930130004883e-01,8.624708652496337891e-01,8.624328374862670898e-01,8.623947501182556152e-01,8.623567223548889160e-01,8.623186945915222168e-01,8.622806668281555176e-01,8.622426390647888184e-01,8.622046709060668945e-01,8.621666431427001953e-01,8.621286153793334961e-01,8.620905876159667969e-01,8.620526194572448730e-01,8.620145916938781738e-01,8.619765639305114746e-01,8.619385957717895508e-01,8.619006276130676270e-01,8.618625998497009277e-01,8.618246316909790039e-01,8.617866635322570801e-01,8.617486953735351562e-01,8.617106676101684570e-01,8.616726994514465332e-01,8.616347312927246094e-01,8.615967631340026855e-01,8.615587949752807617e-01,8.615208864212036133e-01,8.614829182624816895e-01,8.614449501037597656e-01,8.614069819450378418e-01,8.613690733909606934e-01,8.613311052322387695e-01,8.612931966781616211e-01,8.612552285194396973e-01,8.612173199653625488e-01,8.611793518066406250e-01,8.611414432525634766e-01,8.611035346984863281e-01,8.610656261444091797e-01,8.610277175903320312e-01,8.609898090362548828e-01,8.609519004821777344e-01,8.609139919281005859e-01,8.608760833740234375e-01,8.608381748199462891e-01,8.608002662658691406e-01,8.607623577117919922e-01,8.607245087623596191e-01,8.606866002082824707e-01,8.606486916542053223e-01,8.606108427047729492e-01,8.605729341506958008e-01
8.213346004486083984e-01,8.213000893592834473e-01,8.212655782699584961e-01,8.212311267852783203e-01,8.211966156959533691e-01,8.211621046066284180e-01,8.211276531219482422e-01,8.210931420326232910e-01,8.210586905479431152e-01,8.210242390632629395e-01,8.209897279739379883e-01,8.209552764892578125e-01,8.209208250045776367e-01,8.208863735198974609e-01,8.208518624305725098e-01,8.208174109458923340e-01,8.207829594612121582e-01,8.207485079765319824e-01,8.207140564918518066e-01,8.206796050071716309e-01,8.206452131271362305e-01,8.206107616424560547e-01,8.205763101577758789e-01,8.205418586730957031e-01,8.205074667930603027e-01,8.204730153083801270e-01,8.204386234283447266e-01,8.204041719436645508e-01,8.203697800636291504e-01,8.203353285789489746e-01,8.203009366989135742e-01,8.202665448188781738e-01,8.202320933341979980e-01,8.201977014541625977e-01,8.201633095741271973e-01,8.201289176940917969e-01,8.200945258140563965e-01,8.200601339340209961e-01,8.200257420539855957e-01,8.199913501739501953e-01,8.199569582939147949e-01,8.199225664138793945e-01,8.198881745338439941e-01,8.198538422584533691e-01,8.198194503784179688e-01,8.197850584983825684e-01,8.197507262229919434e-01,8.197163343429565430e-01,8.196820020675659180e-01,8.196476101875305176e-01,8.196132779121398926e-01,8.195788860321044922e-01,8.195445537567138672e-01,8.195102214813232422e-01,8.194758892059326172e-01,8.194414973258972168e-01,8.194071650505065918e-01,8.193728327751159668e-01,8.193385004997253418e-01,8.193041682243347168e-01,8.192698359489440918e-01,8.192355632781982422e-01,8.192012310028076172e-01,8.191668987274169922e-01,8.191325664520263672e-01,8.190982937812805176e-01,8.190639615058898926e-01,8.190296292304992676e-01,8.189953565597534180e-01,8.189610242843627930e-01,8.189267516136169434e-01,8.188924193382263184e-01,8.188581466674804688e-01,8.188238739967346191e-01,8.187894821166992188e-01,8.187552094459533691e-01,8.187209367752075195e-01,8.186866641044616699e-01,8.186523914337158203e-01,8.186181187629699707e-01
7.830333709716796875e-01,7.830020189285278320e-01,7.829706668853759766e-01,7.829393148422241211e-01,7.829079627990722656e-01,7.828766107559204102e-01,7.828451991081237793e-01,7.828138470649719238e-01,7.827824950218200684e-01,7.827512025833129883e-01,7.827198505401611328e-01,7.826884984970092773e-01,7.826572060585021973e-01,7.826258540153503418e-01,7.825945019721984863e-01,7.825632095336914062e-01,7.825319170951843262e-01,7.825005650520324707e-01,7.824692726135253906e-01,7.824379801750183105e-01,7.824066281318664551e-01,7.823753356933593750e-01,7.823440432548522949e-01,7.823127508163452148e-01,7.822814583778381348e-01,7.822501659393310547e-01,7.822188735008239746e-01,7.821875810623168945e-01,7.821562886238098145e-01,7.821249961853027344e-01,7.820937037467956543e-01,7.820624113082885742e-01,7.820311188697814941e-01,7.819998860359191895e-01,7.819685935974121094e-01,7.819373011589050293e-01,7.819060683250427246e-01,7.818747758865356445e-01,7.818435430526733398e-01,7.818122506141662598e-01,7.817810177803039551e-01,7.817497849464416504e-01,7.817184925079345703e-01,7.816872596740722656e-01,7.816560268402099609e-01,7.816247344017028809e-01,7.815935015678405762e-01,7.815622687339782715e-01,7.815310359001159668e-01,7.814998030662536621e-01,7.814685702323913574e-01,7.814373373985290527e-01,7.814061045646667480e-01,7.813748717308044434e-01,7.813436388969421387e-01,7.813124656677246094e-01,7.812812328338623047e-01,7.812500000000000000e-01,7.812187671661376953e-01,7.811875939369201660e-01,7.811563611030578613e-01,7.811251878738403320e-01,7.810939550399780273e-01,7.810627818107604980e-01,7.810315489768981934e-01,7.810003757476806641e-01,7.809692025184631348e-01,7.809379696846008301e-01,7.809067964553833008e-01,7.808756232261657715e-01,7.808444499969482422e-01,7.808132767677307129e-01,7.807821035385131836e-01,7.807509303092956543e-01,7.807197570800781250e-01,7.806885838508605957e-01,7.806574106216430664e-01,7.806262373924255371e-01,7.805950641632080078e-01,7.805638909339904785e-01
