3.793177843093872070e+00,3.752360343933105469e+00,3.712412118911743164e+00,3.673305273056030273e+00,3.635013818740844727e+00,3.597512722015380859e+00,3.560777187347412109e+00,3.524784564971923828e+00,3.489511966705322266e+00,3.454938411712646484e+00,3.421043395996093750e+00,3.387806892395019531e+00,3.355210065841674805e+00,3.323234558105468750e+00,3.291862487792968750e+00,3.261077404022216797e+00,3.230862855911254883e+00,3.201202869415283203e+00,3.172082662582397461e+00,3.143487215042114258e+00,3.115402936935424805e+00,3.087815999984741211e+00,3.060713529586791992e+00,3.034082174301147461e+00,3.007910728454589844e+00,2.982186794281005859e+00,2.956899166107177734e+00,2.932036638259887695e+00,2.907588720321655273e+00,2.883545160293579102e+00,2.859896183013916016e+00,2.836631774902343750e+00,2.813742876052856445e+00,2.791220426559448242e+00,2.769055604934692383e+00,2.747240066528320312e+00,2.725765466690063477e+00,2.704624176025390625e+00,2.683808088302612305e+00,2.663310050964355469e+00,2.643122911453247070e+00,2.623239278793334961e+00,2.603652715682983398e+00,2.584356546401977539e+00,2.565344095230102539e+00,2.546609401702880859e+00,2.528146505355834961e+00,2.509949207305908203e+00,2.492012023925781250e+00,2.474329471588134766e+00,2.456896066665649414e+00,2.439706563949584961e+00,2.422756195068359375e+00,2.406039237976074219e+00,2.389551639556884766e+00,2.373288631439208984e+00,2.357245445251464844e+00,2.341417551040649414e+00,2.325800895690917969e+00,6.025975942611694336e-01,5.728447437286376953e-01,5.677885413169860840e-01,5.628362298011779785e-01,5.579695105552673340e-01,5.533843040466308594e-01,5.498918294906616211e-01,5.464431643486022949e-01,5.419861078262329102e-01,5.376952290534973145e-01,5.368300676345825195e-01,4.531824290752410889e-01,4.449392557144165039e-01,4.350199401378631592e-01,4.255332648754119873e-01,4.164514839649200439e-01,4.112374484539031982e-01,4.079171419143676758e-01,4.046500027179718018e-01,4.014347493648529053e-01,5.000000000000000000e+00
3.793180465698242188e+00,3.752362966537475586e+00,3.712414503097534180e+00,3.673307657241821289e+00,3.635016202926635742e+00,3.597515106201171875e+00,3.560779333114624023e+00,3.524786710739135742e+00,3.489514112472534180e+00,3.454940557479858398e+00,3.421045541763305664e+00,3.387809038162231445e+00,3.355211973190307617e+00,3.323236465454101562e+00,3.291864395141601562e+00,3.261079311370849609e+00,3.230864524841308594e+00,3.201204776763916016e+00,3.172084331512451172e+00,3.143489122390747070e+00,3.115404605865478516e+00,3.087817668914794922e+00,3.060715198516845703e+00,3.034083843231201172e+00,3.007912397384643555e+00,2.982188224792480469e+00,2.956900596618652344e+00,2.932038068771362305e+00,2.907590389251708984e+00,2.883546829223632812e+00,2.859897613525390625e+00,2.836633205413818359e+00,2.813744306564331055e+00,2.791221618652343750e+00,2.769057035446166992e+00,2.747241258621215820e+00,2.725766897201538086e+00,2.704625368118286133e+00,2.683809518814086914e+00,2.663311481475830078e+00,2.643124103546142578e+00,2.623240709304809570e+00,2.603653907775878906e+00,2.584357738494873047e+00,2.565345287322998047e+00,2.546610593795776367e+00,2.528147697448730469e+00,2.509950399398803711e+00,2.492013216018676758e+00,2.474330663681030273e+00,2.456897258758544922e+00,2.439707756042480469e+00,2.422757148742675781e+00,2.406040430068969727e+00,2.389552831649780273e+00,2.373289585113525391e+00,2.357246398925781250e+00,2.341418504714965820e+00,6.054136753082275391e-01,5.757702589035034180e-01,5.706557631492614746e-01,5.656485557556152344e-01,5.607332587242126465e-01,5.559027791023254395e-01,5.511547923088073730e-01,5.464872121810913086e-01,5.447557568550109863e-01,5.438334941864013672e-01,5.428462028503417969e-01,5.418625473976135254e-01,4.516618847846984863e-01,4.415487051010131836e-01,4.317783415317535400e-01,4.224310219287872314e-01,4.142048358917236328e-01,4.108366072177886963e-01,4.075227081775665283e-01,4.042618572711944580e-01,4.010527729988098145e-01,5.000000000000000000e+00
3.793182611465454102e+00,3.752364873886108398e+00,3.712416887283325195e+00,3.673310279846191406e+00,3.635018587112426758e+00,3.597517251968383789e+00,3.560781717300415039e+00,3.524788856506347656e+00,3.489516258239746094e+00,3.454942703247070312e+00,3.421047687530517578e+00,3.387810945510864258e+00,3.355214118957519531e+00,3.323238372802734375e+00,3.291866302490234375e+00,3.261081218719482422e+00,3.230866432189941406e+00,3.201206684112548828e+00,3.172086238861083984e+00,3.143490791320800781e+00,3.115406513214111328e+00,3.087819337844848633e+00,3.060716867446899414e+00,3.034085512161254883e+00,3.007914066314697266e+00,2.982189893722534180e+00,2.956902265548706055e+00,2.932039737701416016e+00,2.907591819763183594e+00,2.883548259735107422e+00,2.859899044036865234e+00,2.836634635925292969e+00,2.813745737075805664e+00,2.791223049163818359e+00,2.769058227539062500e+00,2.747242689132690430e+00,2.725768089294433594e+00,2.704626798629760742e+00,2.683810710906982422e+00,2.663312673568725586e+00,2.643125295639038086e+00,2.623241901397705078e+00,2.603655099868774414e+00,2.584358930587768555e+00,2.565346479415893555e+00,2.546611785888671875e+00,2.528148651123046875e+00,2.509951591491699219e+00,2.492014408111572266e+00,2.474331617355346680e+00,2.456898212432861328e+00,2.439708709716796875e+00,2.422758102416992188e+00,2.406041383743286133e+00,2.389553785324096680e+00,2.373290538787841797e+00,2.357247352600097656e+00,6.082561612129211426e-01,5.787257552146911621e-01,5.735588669776916504e-01,5.684890747070312500e-01,5.635246038436889648e-01,5.586460232734680176e-01,5.538512468338012695e-01,5.491380691528320312e-01,5.479005575180053711e-01,5.474174022674560547e-01,5.464758276939392090e-01,5.454789400100708008e-01,4.581499695777893066e-01,4.482764899730682373e-01,4.382094740867614746e-01,4.285847246646881104e-01,4.193736612796783447e-01,4.137981534004211426e-01,4.104365706443786621e-01,4.071291089057922363e-01,4.038744568824768066e-01,4.006715118885040283e-01,5.000000000000000000e+00
3.793185234069824219e+00,3.752367496490478516e+00,3.712419033050537109e+00,3.673312187194824219e+00,3.635020732879638672e+00,3.597519159317016602e+00,3.560783624649047852e+00,3.524790763854980469e+00,3.489518165588378906e+00,3.454944610595703125e+00,3.421049356460571289e+00,3.387812852859497070e+00,3.355215787887573242e+00,3.323240041732788086e+00,3.291867971420288086e+00,3.261082887649536133e+00,3.230868101119995117e+00,3.201208114624023438e+00,3.172087669372558594e+00,3.143492698669433594e+00,3.115408182144165039e+00,3.087821006774902344e+00,3.060718536376953125e+00,3.034087181091308594e+00,3.007915496826171875e+00,2.982191562652587891e+00,2.956903696060180664e+00,2.932041168212890625e+00,2.907593250274658203e+00,2.883549690246582031e+00,2.859900474548339844e+00,2.836636066436767578e+00,2.813746929168701172e+00,2.791224479675292969e+00,2.769059658050537109e+00,2.747244119644165039e+00,2.725769519805908203e+00,2.704627990722656250e+00,2.683811902999877930e+00,2.663313865661621094e+00,2.643126726150512695e+00,2.623243093490600586e+00,2.603656530380249023e+00,2.584360122680664062e+00,2.565347671508789062e+00,2.546612977981567383e+00,2.528149843215942383e+00,2.509952783584594727e+00,2.492015361785888672e+00,2.474332809448242188e+00,2.456899404525756836e+00,2.439709901809692383e+00,2.422759294509887695e+00,2.406042337417602539e+00,2.389554738998413086e+00,6.264189481735229492e-01,6.097131371498107910e-01,5.817117691040039062e-01,5.764916539192199707e-01,5.713644027709960938e-01,5.663437843322753906e-01,5.614165067672729492e-01,5.565742850303649902e-01,5.518148541450500488e-01,5.505105853080749512e-01,5.500227808952331543e-01,5.495358705520629883e-01,5.490497946739196777e-01,5.481373071670532227e-01,4.557386338710784912e-01,4.457755386829376221e-01,4.362387061119079590e-01,4.271014332771301270e-01,4.183357357978820801e-01,4.141280353069305420e-01,4.106177389621734619e-01,4.071664512157440186e-01,4.037726819515228271e-01,4.004349708557128906e-01,5.000000000000000000e+00
3.793187618255615234e+00,3.752369880676269531e+00,3.712421417236328125e+00,3.673314571380615234e+00,3.635023117065429688e+00,3.597521543502807617e+00,3.560785770416259766e+00,3.524792909622192383e+00,3.489520311355590820e+00,3.454946756362915039e+00,3.421051502227783203e+00,3.387814760208129883e+00,3.355217695236206055e+00,3.323241949081420898e+00,3.291869878768920898e+00,3.261084794998168945e+00,3.230870008468627930e+00,3.201210021972656250e+00,3.172089338302612305e+00,3.143494129180908203e+00,3.115409612655639648e+00,3.087822437286376953e+00,3.060719728469848633e+00,3.034088611602783203e+00,3.007916927337646484e+00,2.982192754745483398e+00,2.956905126571655273e+00,2.932042598724365234e+00,2.907594680786132812e+00,2.883550882339477539e+00,2.859901666641235352e+00,2.836637258529663086e+00,2.813748121261596680e+00,2.791225671768188477e+00,2.769060850143432617e+00,2.747245311737060547e+00,2.725770711898803711e+00,2.704629421234130859e+00,2.683813333511352539e+00,2.663315296173095703e+00,2.643127918243408203e+00,2.623244285583496094e+00,2.603657722473144531e+00,2.584361314773559570e+00,2.565348863601684570e+00,2.546614170074462891e+00,2.528151035308837891e+00,2.509953737258911133e+00,2.492016553878784180e+00,2.474333763122558594e+00,2.456900358200073242e+00,2.439710855484008789e+00,2.422760248184204102e+00,2.406043529510498047e+00,6.263034939765930176e-01,6.096037626266479492e-01,5.847287774085998535e-01,5.794546008110046387e-01,5.742747783660888672e-01,5.691912770271301270e-01,5.642145872116088867e-01,5.593241453170776367e-01,5.545178055763244629e-01,5.531455874443054199e-01,5.526531338691711426e-01,5.521615147590637207e-01,5.516708493232727051e-01,5.511810183525085449e-01,5.506920218467712402e-01,4.554047286510467529e-01,4.454560875892639160e-01,4.359328150749206543e-01,4.268081784248352051e-01,4.180578887462615967e-01,4.148217737674713135e-01,4.112997353076934814e-01,4.078370332717895508e-01,4.044321179389953613e-01,4.010835587978363037e-01,5.000000000000000000e+00
3.793190240859985352e+00,3.752372503280639648e+00,3.712424039840698242e+00,3.673316955566406250e+00,3.635025262832641602e+00,3.597523927688598633e+00,3.560788154602050781e+00,3.524795293807983398e+00,3.489522457122802734e+00,3.454948902130126953e+00,3.421053647994995117e+00,3.387816905975341797e+00,3.355219841003417969e+00,3.323244094848632812e+00,3.291871786117553711e+00,3.261086702346801758e+00,3.230871677398681641e+00,3.201211690902709961e+00,3.172091245651245117e+00,3.143495798110961914e+00,3.115411281585693359e+00,3.087824344635009766e+00,3.060721397399902344e+00,3.034090280532836914e+00,3.007918596267700195e+00,2.982194423675537109e+00,2.956906557083129883e+00,2.932044029235839844e+00,2.907596111297607422e+00,2.883552551269531250e+00,2.859903335571289062e+00,2.836638689041137695e+00,2.813749551773071289e+00,2.791227102279663086e+00,2.769062280654907227e+00,2.747246503829956055e+00,2.725771903991699219e+00,2.704630374908447266e+00,2.683814287185668945e+00,2.663316249847412109e+00,2.643128871917724609e+00,2.623245239257812500e+00,2.603658676147460938e+00,2.584362268447875977e+00,2.565349817276000977e+00,2.546615123748779297e+00,2.528151988983154297e+00,2.509954690933227539e+00,2.492017507553100586e+00,2.474334716796875000e+00,2.456901311874389648e+00,2.439711809158325195e+00,2.422761201858520508e+00,6.261880397796630859e-01,6.094943881034851074e-01,5.877772569656372070e-01,5.824482440948486328e-01,5.772148966789245605e-01,5.720748305320739746e-01,5.670407414436340332e-01,5.621013641357421875e-01,5.572474002838134766e-01,5.558059215545654297e-01,5.553086996078491211e-01,5.548124313354492188e-01,5.543169975280761719e-01,5.538224577903747559e-01,5.533288121223449707e-01,5.528360009193420410e-01,4.550713002681732178e-01,4.451370537281036377e-01,4.356272816658020020e-01,4.265153110027313232e-01,4.186578094959259033e-01,4.155178666114807129e-01,4.119840562343597412e-01,4.085098505020141602e-01,4.050937294960021973e-01,4.017342627048492432e-01,5.000000000000000000e+00
3.793192863464355469e+00,3.752375125885009766e+00,3.712426424026489258e+00,3.673319339752197266e+00,3.635027647018432617e+00,3.597526073455810547e+00,3.560790300369262695e+00,3.524797439575195312e+00,3.489524602890014648e+00,3.454951047897338867e+00,3.421055555343627930e+00,3.387818813323974609e+00,3.355221748352050781e+00,3.323246002197265625e+00,3.291873693466186523e+00,3.261088609695434570e+00,3.230873584747314453e+00,3.201213598251342773e+00,3.172093152999877930e+00,3.143497467041015625e+00,3.115413188934326172e+00,3.087826013565063477e+00,3.060723066329956055e+00,3.034091949462890625e+00,3.007920265197753906e+00,2.982196092605590820e+00,2.956908226013183594e+00,2.932045698165893555e+00,2.907597541809082031e+00,2.883553981781005859e+00,2.859904766082763672e+00,2.836640119552612305e+00,2.813750982284545898e+00,2.791228532791137695e+00,2.769063472747802734e+00,2.747247934341430664e+00,2.725773334503173828e+00,2.704631805419921875e+00,2.683815717697143555e+00,2.663317441940307617e+00,2.643130302429199219e+00,2.623246669769287109e+00,2.603659868240356445e+00,2.584363460540771484e+00,2.565351009368896484e+00,2.546616315841674805e+00,2.528153181076049805e+00,2.509955883026123047e+00,2.492018461227416992e+00,2.474335908889770508e+00,2.456902503967285156e+00,2.439712762832641602e+00,6.260726451873779297e-01,6.093850731849670410e-01,5.908576250076293945e-01,5.854728817939758301e-01,5.801853537559509277e-01,5.749924182891845703e-01,5.698952674865722656e-01,5.649063587188720703e-01,5.600039362907409668e-01,5.584920644760131836e-01,5.579900145530700684e-01,5.574889183044433594e-01,5.569887161254882812e-01,5.564893484115600586e-01,5.560089945793151855e-01,5.557503104209899902e-01,5.611960291862487793e-01,4.547384381294250488e-01,4.448184967041015625e-01,4.353221654891967773e-01,4.261982142925262451e-01,4.192594885826110840e-01,4.162162542343139648e-01,4.126706123352050781e-01,4.091848731040954590e-01,4.057575166225433350e-01,4.023870527744293213e-01,5.000000000000000000e+00
3.793195486068725586e+00,3.752377510070800781e+00,3.712428808212280273e+00,3.673321723937988281e+00,3.635030031204223633e+00,3.597528457641601562e+00,3.560792684555053711e+00,3.524799585342407227e+00,3.489526748657226562e+00,3.454953193664550781e+00,3.421057701110839844e+00,3.387820959091186523e+00,3.355223655700683594e+00,3.323247909545898438e+00,3.291875600814819336e+00,3.261090517044067383e+00,3.230875492095947266e+00,3.201215505599975586e+00,3.172094821929931641e+00,3.143499374389648438e+00,3.115414857864379883e+00,3.087827682495117188e+00,3.060724973678588867e+00,3.034093618392944336e+00,3.007921695709228516e+00,2.982197523117065430e+00,2.956909656524658203e+00,2.932047128677368164e+00,2.907599210739135742e+00,2.883555412292480469e+00,2.859906196594238281e+00,2.836641550064086914e+00,2.813752412796020508e+00,2.791229724884033203e+00,2.769064903259277344e+00,2.747249364852905273e+00,2.725774526596069336e+00,2.704632997512817383e+00,2.683816909790039062e+00,2.663318872451782227e+00,2.643131494522094727e+00,2.623247861862182617e+00,2.603661060333251953e+00,2.584364652633666992e+00,2.565352201461791992e+00,2.546617507934570312e+00,2.528154373168945312e+00,2.509957075119018555e+00,2.492019653320312500e+00,2.474336862564086914e+00,2.456903457641601562e+00,6.259573101997375488e-01,6.092758178710937500e-01,5.939705371856689453e-01,5.885291099548339844e-01,5.831865072250366211e-01,5.779399871826171875e-01,5.727870464324951172e-01,5.677393674850463867e-01,5.627878904342651367e-01,5.612042546272277832e-01,5.606973171234130859e-01,5.601913332939147949e-01,5.596862435340881348e-01,5.592491030693054199e-01,5.589873790740966797e-01,5.587258934974670410e-01,5.660606026649475098e-01,4.647630453109741211e-01,4.544059932231903076e-01,4.445004463195800781e-01,4.350175261497497559e-01,4.258738756179809570e-01,4.198628664016723633e-01,4.168132841587066650e-01,4.133594632148742676e-01,4.098621606826782227e-01,4.064234793186187744e-01,4.030419886112213135e-01,5.000000000000000000e+00
3.793198108673095703e+00,3.752380132675170898e+00,3.712431430816650391e+00,3.673324346542358398e+00,3.635032415390014648e+00,3.597530841827392578e+00,3.560794830322265625e+00,3.524801969528198242e+00,3.489528894424438477e+00,3.454955339431762695e+00,3.421059846878051758e+00,3.387823104858398438e+00,3.355225801467895508e+00,3.323249816894531250e+00,3.291877746582031250e+00,3.261092185974121094e+00,3.230877399444580078e+00,3.201217174530029297e+00,3.172096729278564453e+00,3.143501043319702148e+00,3.115416526794433594e+00,3.087829351425170898e+00,3.060726642608642578e+00,3.034095048904418945e+00,3.007923364639282227e+00,2.982199192047119141e+00,2.956911325454711914e+00,2.932048559188842773e+00,2.907600641250610352e+00,2.883556842803955078e+00,2.859907627105712891e+00,2.836642980575561523e+00,2.813753843307495117e+00,2.791231155395507812e+00,2.769066333770751953e+00,2.747250556945800781e+00,2.725775957107543945e+00,2.704634428024291992e+00,2.683818340301513672e+00,2.663320064544677734e+00,2.643132686614990234e+00,2.623249053955078125e+00,2.603662252426147461e+00,2.584365844726562500e+00,2.565353393554687500e+00,2.546618461608886719e+00,2.528155326843261719e+00,2.509958028793334961e+00,2.492020845413208008e+00,2.474338054656982422e+00,6.269415616989135742e-01,6.095171570777893066e-01,5.971164107322692871e-01,5.916174054145812988e-01,5.862188339233398438e-01,5.809178948402404785e-01,5.757119655609130859e-01,5.706009864807128906e-01,5.655997395515441895e-01,5.639428496360778809e-01,5.634309649467468262e-01,5.629200339317321777e-01,5.625271201133728027e-01,5.622623562812805176e-01,5.619978904724121094e-01,5.617336034774780273e-01,5.707999467849731445e-01,5.786529779434204102e-01,4.644157886505126953e-01,4.540740251541137695e-01,4.441828131675720215e-01,4.346993565559387207e-01,4.255500137805938721e-01,4.204679727554321289e-01,4.174096584320068359e-01,4.140506386756896973e-01,4.105416536331176758e-01,4.070916473865509033e-01,4.036990702152252197e-01,4.003626406192779541e-01
3.793200492858886719e+00,3.752382516860961914e+00,3.712433815002441406e+00,3.673326730728149414e+00,3.635034799575805664e+00,3.597533226013183594e+00,3.560797214508056641e+00,3.524804115295410156e+00,3.489531278610229492e+00,3.454957246780395508e+00,3.421061992645263672e+00,3.387825012207031250e+00,3.355227708816528320e+00,3.323251962661743164e+00,3.291879653930664062e+00,3.261094093322753906e+00,3.230879306793212891e+00,3.201219081878662109e+00,3.172098398208618164e+00,3.143502950668334961e+00,3.115418195724487305e+00,3.087831020355224609e+00,3.060728311538696289e+00,3.034096717834472656e+00,3.007925033569335938e+00,2.982200860977172852e+00,2.956912755966186523e+00,2.932050228118896484e+00,2.907602071762084961e+00,2.883558511734008789e+00,2.859909057617187500e+00,2.836644411087036133e+00,2.813755273818969727e+00,2.791232585906982422e+00,2.769067764282226562e+00,2.747251987457275391e+00,2.725777149200439453e+00,2.704635620117187500e+00,2.683819532394409180e+00,2.663321256637573242e+00,2.643133878707885742e+00,2.623250246047973633e+00,2.603663444519042969e+00,2.584367036819458008e+00,2.565354585647583008e+00,2.546619653701782227e+00,2.528156518936157227e+00,2.509959220886230469e+00,2.492021799087524414e+00,6.285511851310729980e-01,6.110384464263916016e-01,6.004755496978759766e-01,5.948278307914733887e-01,5.892853736877441406e-01,5.839266777038574219e-01,5.786668658256530762e-01,5.735009908676147461e-01,5.684398412704467773e-01,5.667083263397216797e-01,5.661914348602294922e-01,5.658438801765441895e-01,5.655759572982788086e-01,5.653083324432373047e-01,5.650409460067749023e-01,5.657934546470642090e-01,5.754837393760681152e-01,5.838263034820556641e-01,5.918183922767639160e-01,4.640690684318542480e-01,4.537425637245178223e-01,4.438655972480773926e-01,4.343619644641876221e-01,4.252266585826873779e-01,4.210748374462127686e-01,4.180077314376831055e-01,4.147441387176513672e-01,4.112234115600585938e-01,4.077619910240173340e-01,4.043582975864410400e-01,4.010109901428222656e-01
3.793202638626098633e+00,3.752384662628173828e+00,3.712435960769653320e+00,3.673328638076782227e+00,3.635036706924438477e+00,3.597535133361816406e+00,3.560799121856689453e+00,3.524806022644042969e+00,3.489532947540283203e+00,3.454959154129028320e+00,3.421063899993896484e+00,3.387827157974243164e+00,3.355229854583740234e+00,3.323253870010375977e+00,3.291881561279296875e+00,3.261096000671386719e+00,3.230881214141845703e+00,3.201220989227294922e+00,3.172100305557250977e+00,3.143504619598388672e+00,3.115420103073120117e+00,3.087832689285278320e+00,3.060729980468750000e+00,3.034098386764526367e+00,3.007926702499389648e+00,2.982202291488647461e+00,2.956914424896240234e+00,2.932051658630371094e+00,2.907603740692138672e+00,2.883559942245483398e+00,2.859910488128662109e+00,2.836645841598510742e+00,2.813756704330444336e+00,2.791234016418457031e+00,2.769068956375122070e+00,2.747253179550170898e+00,2.725778579711914062e+00,2.704637050628662109e+00,2.683820724487304688e+00,2.663322687149047852e+00,2.643135309219360352e+00,2.623251438140869141e+00,2.603664636611938477e+00,2.584368228912353516e+00,2.565355777740478516e+00,2.546620845794677734e+00,2.528157711029052734e+00,2.509960412979125977e+00,6.301690936088562012e-01,6.125673055648803711e-01,6.043005585670471191e-01,5.982051491737365723e-01,5.925998687744140625e-01,5.870985984802246094e-01,5.816985368728637695e-01,5.764332413673400879e-01,5.713084936141967773e-01,5.695010423660278320e-01,5.691999197006225586e-01,5.689288377761840820e-01,5.686579942703247070e-01,5.683874487876892090e-01,5.681171417236328125e-01,5.703951716423034668e-01,5.802450776100158691e-01,5.890928506851196289e-01,5.972308516502380371e-01,2.194102287292480469e+00,4.637228846549987793e-01,4.534115791320800781e-01,4.435464739799499512e-01,4.340250790119171143e-01,4.249037802219390869e-01,4.216835200786590576e-01,4.186075031757354736e-01,4.154399335384368896e-01,4.119074642658233643e-01,4.084345400333404541e-01,4.050196409225463867e-01,4.016614258289337158e-01
3.793205261230468750e+00,3.752387285232543945e+00,3.712438344955444336e+00,3.673331022262573242e+00,3.635039091110229492e+00,3.597537279129028320e+00,3.560801267623901367e+00,3.524808168411254883e+00,3.489535093307495117e+00,3.454961299896240234e+00,3.421065807342529297e+00,3.387828826904296875e+00,3.355231523513793945e+00,3.323255538940429688e+00,3.291883230209350586e+00,3.261097669601440430e+00,3.230882644653320312e+00,3.201222419738769531e+00,3.172101736068725586e+00,3.143506050109863281e+00,3.115421533584594727e+00,3.087834119796752930e+00,3.060731172561645508e+00,3.034099817276000977e+00,3.007927894592285156e+00,2.982203722000122070e+00,2.956915616989135742e+00,2.932053327560424805e+00,2.907605171203613281e+00,2.883561372756958008e+00,2.859911918640136719e+00,2.836647272109985352e+00,2.813758134841918945e+00,2.791235446929931641e+00,2.769070386886596680e+00,2.747254610061645508e+00,2.725779771804809570e+00,2.704638242721557617e+00,2.683822154998779297e+00,2.663323879241943359e+00,2.643136501312255859e+00,2.623252630233764648e+00,2.603665828704833984e+00,2.584369421005249023e+00,2.565356969833374023e+00,2.546622037887573242e+00,2.528158903121948242e+00,6.317953467369079590e-01,6.152240633964538574e-01,6.082026958465576172e-01,6.016210317611694336e-01,5.959517955780029297e-01,5.903884172439575195e-01,5.849279761314392090e-01,5.795676112174987793e-01,5.743046402931213379e-01,5.725960135459899902e-01,5.723217129707336426e-01,5.720476508140563965e-01,5.717738270759582520e-01,5.715003013610839844e-01,5.712270140647888184e-01,5.750722885131835938e-01,5.850858688354492188e-01,5.944553613662719727e-01,6.027432084083557129e-01,2.207996129989624023e+00,2.194103240966796875e+00,4.633771777153015137e-01,4.530811011791229248e-01,4.431952238082885742e-01,4.336886703968048096e-01,4.254245162010192871e-01,4.222939014434814453e-01,4.192090332508087158e-01,4.161380827426910400e-01,4.125937819480895996e-01,4.091093242168426514e-01,4.056831896305084229e-01,4.023140072822570801e-01
3.793207883834838867e+00,3.752389669418334961e+00,3.712440729141235352e+00,3.673333406448364258e+00,3.635041475296020508e+00,3.597539663314819336e+00,3.560803651809692383e+00,3.524810552597045898e+00,3.489537239074707031e+00,3.454963445663452148e+00,3.421067953109741211e+00,3.387830972671508789e+00,3.355233430862426758e+00,3.323257446289062500e+00,3.291885137557983398e+00,3.261099576950073242e+00,3.230884552001953125e+00,3.201224327087402344e+00,3.172103643417358398e+00,3.143507957458496094e+00,3.115423202514648438e+00,3.087835788726806641e+00,3.060732841491699219e+00,3.034101486206054688e+00,3.007929563522338867e+00,2.982205152511596680e+00,2.956917285919189453e+00,2.932054519653320312e+00,2.907606363296508789e+00,2.883562564849853516e+00,2.859913349151611328e+00,2.836648464202880859e+00,2.813759326934814453e+00,2.791236639022827148e+00,2.769071578979492188e+00,2.747255802154541016e+00,2.725780963897705078e+00,2.704639434814453125e+00,2.683823108673095703e+00,2.663324832916259766e+00,2.643137454986572266e+00,2.623253822326660156e+00,2.603667020797729492e+00,2.584370374679565430e+00,2.565358161926269531e+00,2.546623229980468750e+00,6.334300041198730469e-01,6.192690730094909668e-01,6.121556162834167480e-01,6.052036881446838379e-01,5.993419289588928223e-01,5.937154293060302734e-01,5.881935358047485352e-01,5.827734470367431641e-01,5.774523019790649414e-01,5.765979886054992676e-01,5.757973790168762207e-01,5.752007961273193359e-01,5.749239921569824219e-01,5.746474266052246094e-01,5.743711590766906738e-01,5.798268318176269531e-01,5.900081396102905273e-01,5.999163985252380371e-01,6.083582639694213867e-01,2.222067117691040039e+00,2.207997083663940430e+00,2.194104194641113281e+00,4.630320072174072266e-01,4.527510702610015869e-01,4.428444802761077881e-01,4.333528280258178711e-01,4.260458052158355713e-01,4.229060709476470947e-01,4.198122620582580566e-01,4.167634248733520508e-01,4.132823646068572998e-01,4.097863435745239258e-01,4.063489139080047607e-01,4.029687047004699707e-01
3.793210506439208984e+00,3.752392292022705078e+00,3.712443351745605469e+00,3.673336029052734375e+00,3.635043859481811523e+00,3.597542047500610352e+00,3.560805797576904297e+00,3.524812698364257812e+00,3.489539623260498047e+00,3.454965591430664062e+00,3.421069860458374023e+00,3.387832880020141602e+00,3.355235576629638672e+00,3.323259353637695312e+00,3.291887044906616211e+00,3.261101484298706055e+00,3.230886459350585938e+00,3.201226234436035156e+00,3.172105312347412109e+00,3.143509626388549805e+00,3.115424871444702148e+00,3.087837457656860352e+00,3.060734510421752930e+00,3.034103155136108398e+00,3.007931232452392578e+00,2.982206821441650391e+00,2.956918954849243164e+00,2.932056188583374023e+00,2.907608032226562500e+00,2.883563995361328125e+00,2.859914779663085938e+00,2.836649894714355469e+00,2.813760757446289062e+00,2.791238069534301758e+00,2.769073009490966797e+00,2.747257232666015625e+00,2.725782394409179688e+00,2.704640626907348633e+00,2.683824539184570312e+00,2.663326263427734375e+00,2.643138647079467773e+00,2.623255014419555664e+00,2.603668212890625000e+00,2.584371566772460938e+00,2.565359115600585938e+00,6.350731849670410156e-01,6.233676075935363770e-01,6.161602139472961426e-01,6.091176271438598633e-01,6.027708649635314941e-01,5.970800518989562988e-01,5.914956927299499512e-01,5.860148668289184570e-01,5.815528035163879395e-01,5.807384252548217773e-01,5.799262523651123047e-01,5.791164040565490723e-01,5.783088207244873047e-01,5.778294205665588379e-01,5.775500535964965820e-01,5.846606492996215820e-01,5.950138568878173828e-01,6.054787039756774902e-01,6.140789985656738281e-01,2.236318349838256836e+00,2.222067832946777344e+00,2.207997798919677734e+00,4.734298586845397949e-01,4.626873135566711426e-01,4.523952305316925049e-01,4.424943327903747559e-01,4.330174922943115234e-01,4.266689121723175049e-01,4.235200285911560059e-01,4.204172790050506592e-01,4.173596501350402832e-01,4.139733016490936279e-01,4.104655981063842773e-01,4.070168137550354004e-01,4.036255180835723877e-01
3.793212890625000000e+00,3.752394676208496094e+00,3.712445735931396484e+00,3.673338413238525391e+00,3.635046243667602539e+00,3.597544431686401367e+00,3.560808181762695312e+00,3.524814844131469727e+00,3.489541769027709961e+00,3.454967737197875977e+00,3.421072006225585938e+00,3.387835025787353516e+00,3.355237483978271484e+00,3.323261499404907227e+00,3.291888952255249023e+00,3.261103391647338867e+00,3.230888366699218750e+00,3.201227903366088867e+00,3.172107219696044922e+00,3.143511533737182617e+00,3.115426778793334961e+00,3.087839365005493164e+00,3.060736417770385742e+00,3.034104824066162109e+00,3.007932901382446289e+00,2.982208490371704102e+00,2.956920385360717773e+00,2.932057619094848633e+00,2.907609462738037109e+00,2.883565664291381836e+00,2.859916210174560547e+00,2.836651325225830078e+00,2.813762187957763672e+00,2.791239261627197266e+00,2.769074201583862305e+00,2.747258424758911133e+00,2.725783586502075195e+00,2.704642057418823242e+00,2.683825731277465820e+00,2.663327455520629883e+00,2.643140077590942383e+00,2.623256206512451172e+00,2.603669404983520508e+00,2.584372758865356445e+00,6.367248892784118652e-01,6.275207400321960449e-01,6.202175617218017578e-01,6.130824685096740723e-01,6.062392592430114746e-01,6.004830598831176758e-01,5.948352217674255371e-01,5.892925858497619629e-01,5.857649445533752441e-01,5.849387049674987793e-01,5.841147899627685547e-01,5.832931995391845703e-01,5.824739336967468262e-01,5.816569328308105469e-01,5.808422565460205078e-01,5.895757079124450684e-01,6.001052856445312500e-01,6.110179424285888672e-01,6.199082732200622559e-01,2.250753641128540039e+00,2.236319065093994141e+00,2.222068786621093750e+00,2.207998752593994141e+00,4.730695486068725586e-01,4.623432159423828125e-01,4.520298242568969727e-01,4.421446919441223145e-01,4.326826930046081543e-01,4.272938668727874756e-01,4.241357445716857910e-01,4.210239946842193604e-01,4.179575741291046143e-01,4.146665334701538086e-01,4.111470580101013184e-01,4.076869189739227295e-01,4.044589400291442871e-01
3.793215513229370117e+00,3.752397298812866211e+00,3.712448120117187500e+00,3.673340797424316406e+00,3.635048627853393555e+00,3.597546577453613281e+00,3.560810327529907227e+00,3.524816989898681641e+00,3.489543914794921875e+00,3.454969882965087891e+00,3.421074151992797852e+00,3.387837171554565430e+00,3.355239629745483398e+00,3.323263406753540039e+00,3.291890859603881836e+00,3.261105298995971680e+00,3.230890035629272461e+00,3.201229810714721680e+00,3.172108888626098633e+00,3.143513202667236328e+00,3.115428447723388672e+00,3.087841033935546875e+00,3.060738086700439453e+00,3.034106492996215820e+00,3.007934570312500000e+00,2.982209920883178711e+00,2.956922054290771484e+00,2.932059288024902344e+00,2.907610893249511719e+00,2.883567094802856445e+00,2.859917640686035156e+00,2.836652755737304688e+00,2.813763618469238281e+00,2.791240692138671875e+00,2.769075632095336914e+00,2.747259855270385742e+00,2.725785017013549805e+00,2.704643249511718750e+00,2.683826923370361328e+00,2.663328647613525391e+00,2.643141269683837891e+00,2.623257398605346680e+00,2.603670597076416016e+00,6.393080949783325195e-01,6.317296028137207031e-01,6.243287324905395508e-01,6.170992255210876465e-01,6.100352406501770020e-01,6.039251089096069336e-01,5.982126593589782715e-01,5.926071405410766602e-01,5.900385379791259766e-01,5.892002582550048828e-01,5.883643031120300293e-01,5.875306725502014160e-01,5.866994857788085938e-01,5.858592391014099121e-01,5.856315493583679199e-01,5.948573946952819824e-01,6.052846312522888184e-01,6.163881421089172363e-01,2.280189514160156250e+00,2.265376091003417969e+00,2.250754117965698242e+00,2.236319780349731445e+00,2.222069263458251953e+00,2.207999229431152344e+00,4.727097451686859131e-01,4.619852602481842041e-01,4.516649842262268066e-01,4.417956173419952393e-01,4.323483705520629883e-01,4.279206395149230957e-01,4.247532486915588379e-01,4.216324687004089355e-01,4.185571968555450439e-01,4.153620600700378418e-01,4.118308424949645996e-01,4.083592295646667480e-01,4.060547053813934326e-01
3.793218135833740234e+00,3.752399682998657227e+00,3.712450742721557617e+00,3.673343181610107422e+00,3.635051012039184570e+00,3.597548961639404297e+00,3.560812711715698242e+00,3.524819374084472656e+00,3.489546060562133789e+00,3.454972028732299805e+00,3.421076297760009766e+00,3.387839078903198242e+00,3.355241537094116211e+00,3.323265314102172852e+00,3.291892766952514648e+00,3.261107206344604492e+00,3.230891942977905273e+00,3.201231718063354492e+00,3.172110795974731445e+00,3.143514871597290039e+00,3.115430116653442383e+00,3.087842702865600586e+00,3.060739755630493164e+00,3.034108161926269531e+00,3.007936000823974609e+00,2.982211589813232422e+00,2.956923484802246094e+00,2.932060718536376953e+00,2.907612562179565430e+00,2.883568525314331055e+00,2.859919071197509766e+00,2.836654186248779297e+00,2.813765048980712891e+00,2.791242122650146484e+00,2.769077062606811523e+00,2.747261285781860352e+00,2.725786209106445312e+00,2.704644680023193359e+00,2.683828115463256836e+00,2.663329839706420898e+00,2.643142223358154297e+00,2.623258113861083984e+00,6.436771154403686523e-01,6.359953284263610840e-01,6.284947395324707031e-01,6.211690306663513184e-01,6.140120625495910645e-01,6.074067950248718262e-01,6.016285419464111328e-01,5.959591865539550781e-01,5.943750143051147461e-01,5.935243368148803711e-01,5.926760435104370117e-01,5.918301939964294434e-01,5.909538269042968750e-01,5.900328755378723145e-01,5.912374258041381836e-01,6.008387804031372070e-01,6.110476851463317871e-01,6.218535900115966797e-01,2.295197963714599609e+00,2.280189752578735352e+00,2.265376567840576172e+00,2.250754594802856445e+00,2.236320018768310547e+00,2.222069501876831055e+00,2.207999467849731445e+00,4.723505079746246338e-01,4.616041779518127441e-01,4.513006806373596191e-01,4.414471089839935303e-01,4.320146143436431885e-01,4.285492300987243652e-01,4.253726303577423096e-01,4.222427308559417725e-01,4.191586375236511230e-01,4.160599410533905029e-01,4.125169217586517334e-01,4.090337455272674561e-01,4.076631069183349609e-01
3.793220281600952148e+00,3.752402305603027344e+00,3.712453126907348633e+00,3.673345565795898438e+00,3.635053396224975586e+00,3.597551345825195312e+00,3.560814857482910156e+00,3.524821519851684570e+00,3.489548206329345703e+00,3.454974174499511719e+00,3.421078205108642578e+00,3.387841224670410156e+00,3.355243444442749023e+00,3.323267459869384766e+00,3.291894674301147461e+00,3.261109113693237305e+00,3.230893850326538086e+00,3.201233386993408203e+00,3.172112464904785156e+00,3.143516063690185547e+00,3.115431308746337891e+00,3.087843894958496094e+00,3.060740709304809570e+00,3.034109115600585938e+00,3.007937192916870117e+00,2.982212543487548828e+00,2.956924438476562500e+00,2.932061433792114258e+00,2.907613277435302734e+00,2.883569240570068359e+00,2.859919786453247070e+00,2.836654663085937500e+00,2.813765525817871094e+00,2.791242599487304688e+00,2.769077539443969727e+00,2.747261524200439453e+00,2.725786685943603516e+00,2.704644918441772461e+00,2.683828592300415039e+00,2.663330078125000000e+00,2.643142700195312500e+00,2.623258829116821289e+00,2.603672027587890625e+00,6.327167153358459473e-01,6.252927780151367188e-01,6.180410981178283691e-01,6.109556555747985840e-01,6.050838232040405273e-01,5.996414422988891602e-01,5.987756252288818359e-01,5.979123115539550781e-01,5.970515012741088867e-01,5.961377620697021484e-01,5.952006578445434570e-01,5.942665338516235352e-01,5.969516038894653320e-01,6.069416999816894531e-01,6.173608899116516113e-01,6.281439661979675293e-01,2.310405492782592773e+00,2.295198202133178711e+00,2.280189990997314453e+00,2.265376806259155273e+00,2.250754833221435547e+00,2.236320495605468750e+00,2.222069978713989258e+00,2.207999706268310547e+00,4.719907343387603760e-01,4.612237513065338135e-01,4.509370028972625732e-01,4.410991370677947998e-01,4.324136376380920410e-01,4.291796684265136719e-01,4.259937405586242676e-01,4.228547513484954834e-01,4.197617173194885254e-01,4.167135655879974365e-01,4.132052659988403320e-01,4.097105264663696289e-01,4.092842936515808105e-01
3.793222665786743164e+00,3.752404212951660156e+00,3.712455034255981445e+00,3.673347234725952148e+00,3.635054588317871094e+00,3.597552537918090820e+00,3.560816287994384766e+00,3.524822711944580078e+00,3.489549398422241211e+00,3.454975366592407227e+00,3.421079158782958984e+00,3.387841939926147461e+00,3.355244398117065430e+00,3.323268175125122070e+00,3.291895389556884766e+00,3.261109828948974609e+00,3.230894327163696289e+00,3.201233863830566406e+00,3.172112941741943359e+00,3.143517017364501953e+00,3.115432262420654297e+00,3.087844610214233398e+00,3.060741424560546875e+00,3.034109830856323242e+00,3.007937669754028320e+00,2.982213258743286133e+00,2.956925153732299805e+00,2.932061910629272461e+00,2.907613754272460938e+00,2.883569717407226562e+00,2.859920263290405273e+00,2.836655378341674805e+00,2.813766241073608398e+00,2.791243076324462891e+00,2.769078016281127930e+00,2.747262001037597656e+00,2.725787162780761719e+00,2.704645395278930664e+00,2.683829069137573242e+00,2.663330554962158203e+00,2.643143177032470703e+00,6.604374051094055176e-01,6.501397490501403809e-01,6.294717192649841309e-01,6.221233606338500977e-01,6.149445772171020508e-01,6.085788607597351074e-01,6.041207313537597656e-01,6.032419204711914062e-01,6.023657321929931641e-01,6.014134883880615234e-01,6.004597544670104980e-01,5.995090603828430176e-01,5.985613465309143066e-01,6.028905510902404785e-01,6.131699085235595703e-01,6.238058209419250488e-01,2.341432809829711914e+00,2.325815916061401367e+00,2.310405731201171875e+00,2.295198678970336914e+00,2.280190467834472656e+00,2.265377283096313477e+00,2.250755071640014648e+00,2.236320734024047852e+00,2.222070217132568359e+00,2.208000183105468750e+00,4.715929925441741943e-01,4.608439207077026367e-01,4.505739212036132812e-01,4.407517313957214355e-01,4.330555200576782227e-01,4.298119843006134033e-01,4.266166985034942627e-01,4.234685301780700684e-01,4.203665554523468018e-01,4.173096418380737305e-01,4.138959050178527832e-01,4.103895425796508789e-01,4.109184741973876953e-01
3.793223619461059570e+00,3.752404928207397461e+00,3.712455749511718750e+00,3.673348188400268555e+00,3.635055780410766602e+00,3.597553730010986328e+00,3.560817003250122070e+00,3.524823427200317383e+00,3.489550113677978516e+00,3.454976081848144531e+00,3.421080112457275391e+00,3.387842893600463867e+00,3.355244874954223633e+00,3.323268651962280273e+00,3.291896104812622070e+00,3.261110544204711914e+00,3.230895280838012695e+00,3.201234817504882812e+00,3.172113418579101562e+00,3.143517732620239258e+00,3.115432739257812500e+00,3.087845325469970703e+00,3.060742139816284180e+00,3.034110546112060547e+00,3.007938385009765625e+00,2.982213735580444336e+00,2.956925630569458008e+00,2.932062864303588867e+00,2.907614469528198242e+00,2.883570671081542969e+00,2.859920740127563477e+00,2.836656093597412109e+00,2.813766717910766602e+00,2.791243791580200195e+00,2.769078731536865234e+00,2.747262477874755859e+00,2.725787639617919922e+00,2.704645872116088867e+00,2.683829545974731445e+00,6.635483503341674805e-01,6.564912796020507812e-01,6.501763463020324707e-01,6.434583663940429688e-01,6.369794011116027832e-01,6.189858913421630859e-01,6.121146678924560547e-01,6.086674332618713379e-01,6.077573895454406738e-01,6.067833900451660156e-01,6.058126091957092285e-01,6.048448681831359863e-01,6.038802266120910645e-01,6.036817431449890137e-01,6.090354323387145996e-01,6.195271611213684082e-01,6.303867697715759277e-01,2.357261419296264648e+00,2.341433286666870117e+00,2.325816392898559570e+00,2.310406208038330078e+00,2.295199155807495117e+00,2.280190944671630859e+00,2.265377759933471680e+00,2.250755548477172852e+00,2.236320972442626953e+00,2.222070455551147461e+00,2.208000421524047852e+00,4.711959064006805420e-01,4.604647457599639893e-01,4.502114355564117432e-01,4.404048621654510498e-01,4.336993098258972168e-01,4.304461479187011719e-01,4.272414743900299072e-01,4.240841567516326904e-01,4.209731221199035645e-01,4.179074764251708984e-01,4.145888984203338623e-01,4.110707938671112061e-01,4.125657379627227783e-01
3.793224811553955078e+00,3.752406358718872070e+00,3.712456941604614258e+00,3.673348903656005859e+00,3.635056734085083008e+00,3.597554445266723633e+00,3.560818195343017578e+00,3.524824619293212891e+00,3.489550828933715820e+00,3.454976797103881836e+00,3.421080827713012695e+00,3.387843608856201172e+00,3.355246067047119141e+00,3.323269844055175781e+00,3.291896820068359375e+00,3.261111021041870117e+00,3.230895757675170898e+00,3.201235294342041016e+00,3.172114372253417969e+00,3.143518447875976562e+00,3.115433454513549805e+00,3.087845802307128906e+00,3.060742855072021484e+00,3.034111022949218750e+00,3.007939100265502930e+00,2.982214450836181641e+00,2.956926107406616211e+00,2.932063341140747070e+00,2.907614946365356445e+00,2.883571147918701172e+00,2.859921455383300781e+00,2.836656808853149414e+00,2.813767194747924805e+00,2.791244268417358398e+00,2.769078969955444336e+00,2.747263193130493164e+00,2.725788354873657227e+00,6.609110236167907715e-01,6.568917632102966309e-01,6.537392139434814453e-01,6.472765207290649414e-01,6.411090493202209473e-01,6.351974010467529297e-01,6.323353648185729980e-01,6.158798336982727051e-01,6.132416725158691406e-01,6.122500896453857422e-01,6.112617254257202148e-01,6.102765202522277832e-01,6.092945337295532227e-01,6.083156466484069824e-01,6.096401810646057129e-01,6.153068542480468750e-01,6.260177493095397949e-01,2.389568805694580078e+00,2.373305082321166992e+00,2.357261657714843750e+00,2.341433525085449219e+00,2.325816631317138672e+00,2.310406684875488281e+00,2.295199632644653320e+00,2.280191183090209961e+00,2.265377998352050781e+00,2.250756025314331055e+00,2.236321449279785156e+00,2.222070932388305664e+00,4.820157885551452637e-01,4.707962572574615479e-01,4.600861370563507080e-01,4.498495459556579590e-01,4.400585293769836426e-01,4.343450069427490234e-01,4.310822486877441406e-01,4.278680682182312012e-01,4.247015118598937988e-01,4.215814471244812012e-01,4.185069799423217773e-01,4.152841866016387939e-01,4.127133190631866455e-01,4.142629504203796387e-01
3.793225526809692383e+00,3.752407073974609375e+00,3.712457895278930664e+00,3.673350095748901367e+00,3.635057687759399414e+00,3.597555160522460938e+00,3.560818910598754883e+00,3.524825334548950195e+00,3.489552021026611328e+00,3.454977750778198242e+00,3.421082019805908203e+00,3.387844324111938477e+00,3.355246782302856445e+00,3.323270320892333984e+00,3.291897773742675781e+00,3.261111974716186523e+00,3.230896472930908203e+00,3.201236009597778320e+00,3.172115087509155273e+00,3.143519163131713867e+00,3.115434169769287109e+00,3.087846755981445312e+00,3.060743331909179688e+00,3.034111738204956055e+00,3.007939577102661133e+00,2.982215166091918945e+00,2.956927061080932617e+00,2.932064056396484375e+00,2.907615423202514648e+00,2.883571624755859375e+00,2.859921932220458984e+00,2.836657047271728516e+00,2.813767910003662109e+00,2.791244983673095703e+00,2.769079446792602539e+00,2.747263669967651367e+00,6.625908017158508301e-01,6.543934345245361328e-01,6.510838866233825684e-01,6.483713984489440918e-01,6.450958847999572754e-01,6.382062435150146484e-01,6.320009231567382812e-01,6.288567185401916504e-01,6.263567805290222168e-01,6.268799901008605957e-01,6.158066391944885254e-01,6.148067712783813477e-01,6.138101220130920410e-01,6.128166913986206055e-01,6.157175898551940918e-01,6.217088103294372559e-01,6.326457262039184570e-01,2.406056880950927734e+00,2.389569044113159180e+00,2.373305559158325195e+00,2.357262134552001953e+00,2.341434001922607422e+00,2.325816869735717773e+00,2.310406923294067383e+00,2.295199871063232422e+00,2.280191659927368164e+00,2.265378475189208984e+00,2.250756263732910156e+00,2.236321687698364258e+00,2.222071170806884766e+00,4.815852046012878418e-01,4.703854322433471680e-01,4.596947729587554932e-01,4.494793117046356201e-01,4.397079646587371826e-01,4.350126683712005615e-01,4.317201673984527588e-01,4.284965097904205322e-01,4.253206849098205566e-01,4.221915602684020996e-01,4.191082119941711426e-01,4.159817993640899658e-01,4.143750369548797607e-01,4.160384535789489746e-01
3.778042554855346680e+00,3.752408027648925781e+00,3.712458610534667969e+00,3.673351049423217773e+00,3.635058641433715820e+00,3.597556352615356445e+00,3.560819864273071289e+00,3.524826049804687500e+00,3.489552736282348633e+00,3.454978466033935547e+00,3.421082496643066406e+00,3.387845277786254883e+00,3.355247735977172852e+00,3.323271036148071289e+00,3.291898488998413086e+00,3.261112689971923828e+00,3.230897426605224609e+00,3.201236963272094727e+00,3.172115564346313477e+00,3.143519639968872070e+00,3.115434885025024414e+00,3.087847232818603516e+00,3.060744047164916992e+00,3.034112453460693359e+00,3.007940053939819336e+00,2.982215642929077148e+00,2.956927537918090820e+00,2.932064533233642578e+00,2.907616376876831055e+00,2.883572340011596680e+00,2.859922409057617188e+00,2.836657762527465820e+00,2.813768386840820312e+00,2.791245460510253906e+00,2.769080162048339844e+00,2.747264385223388672e+00,6.570848226547241211e-01,6.521745324134826660e-01,6.484352350234985352e-01,6.451394557952880859e-01,6.414639353752136230e-01,6.363936066627502441e-01,6.306794881820678711e-01,6.270977854728698730e-01,6.278139352798461914e-01,6.284486651420593262e-01,6.331641077995300293e-01,6.183931231498718262e-01,6.173848509788513184e-01,6.219171881675720215e-01,6.282453536987304688e-01,2.439725160598754883e+00,2.422774314880371094e+00,2.406057119369506836e+00,2.389569282531738281e+00,2.373306035995483398e+00,2.357262611389160156e+00,2.341434478759765625e+00,2.325817584991455078e+00,2.310407161712646484e+00,2.295200109481811523e+00,2.280191898345947266e+00,2.265378713607788086e+00,2.250756740570068359e+00,2.236322164535522461e+00,2.222071647644042969e+00,4.811553359031677246e-01,4.699753820896148682e-01,4.593031406402587891e-01,4.491048157215118408e-01,4.398092031478881836e-01,4.360874891281127930e-01,4.326592087745666504e-01,4.292843639850616455e-01,4.259617626667022705e-01,4.228034615516662598e-01,4.197111427783966064e-01,4.166637659072875977e-01,4.160961806774139404e-01,4.178292453289031982e-01
3.084133148193359375e+00,3.083646774291992188e+00,3.083160400390625000e+00,3.082674264907836914e+00,3.082188367843627930e+00,3.081702709197998047e+00,3.081216812133789062e+00,3.080731391906738281e+00,3.080245971679687500e+00,3.079761028289794922e+00,3.079275608062744141e+00,3.078790903091430664e+00,3.078306198120117188e+00,3.077821254730224609e+00,3.077337026596069336e+00,3.076852798461914062e+00,3.076368570327758789e+00,3.075884342193603516e+00,3.075400590896606445e+00,3.074917078018188477e+00,3.074433326721191406e+00,3.073950052261352539e+00,3.060744762420654297e+00,3.034112930297851562e+00,3.007941007614135742e+00,2.982216358184814453e+00,2.956928014755249023e+00,2.932065010070800781e+00,2.907616853713989258e+00,2.883572816848754883e+00,2.859923362731933594e+00,2.836658477783203125e+00,2.813768863677978516e+00,2.791245937347412109e+00,2.769080638885498047e+00,2.747264862060546875e+00,6.552222967147827148e-01,6.503537297248840332e-01,6.456717848777770996e-01,6.416788697242736816e-01,6.377701759338378906e-01,6.333298683166503906e-01,6.282629370689392090e-01,6.282961964607238770e-01,6.292775273323059082e-01,6.334232687950134277e-01,6.378822326660156250e-01,2.509969472885131836e+00,6.282430291175842285e-01,6.349208354949951172e-01,2.456915378570556641e+00,2.439725637435913086e+00,2.422774791717529297e+00,2.406057834625244141e+00,2.389569997787475586e+00,2.373306512832641602e+00,2.357262849807739258e+00,2.341434717178344727e+00,2.325817823410034180e+00,2.310407638549804688e+00,2.295200586318969727e+00,2.280192136764526367e+00,2.265378952026367188e+00,2.250756978988647461e+00,2.236322402954101562e+00,2.222071886062622070e+00,4.807262420654296875e-01,4.695659875869750977e-01,4.589121043682098389e-01,4.487310051918029785e-01,4.405208826065063477e-01,4.371675848960876465e-01,4.337223768234252930e-01,4.303310215473175049e-01,4.269922971725463867e-01,4.237049520015716553e-01,4.204678833484649658e-01,4.172798693180084229e-01,4.179238080978393555e-01,4.197283685207366943e-01
2.605570793151855469e+00,2.605223417282104492e+00,2.604876518249511719e+00,2.604529380798339844e+00,2.604182481765747070e+00,2.603835582733154297e+00,2.603488922119140625e+00,2.603142261505126953e+00,2.602795600891113281e+00,2.602449178695678711e+00,2.602102994918823242e+00,2.601756572723388672e+00,2.601410388946533203e+00,2.601064205169677734e+00,2.600718259811401367e+00,2.600372314453125000e+00,2.600026607513427734e+00,2.599680900573730469e+00,2.599335193634033203e+00,2.598989725112915039e+00,2.598644256591796875e+00,2.598298788070678711e+00,2.597953557968139648e+00,2.597608327865600586e+00,2.597263336181640625e+00,2.596918106079101562e+00,2.596573352813720703e+00,2.596228599548339844e+00,2.595883846282958984e+00,2.595539093017578125e+00,2.595194578170776367e+00,2.594850301742553711e+00,2.594506025314331055e+00,2.594161510467529297e+00,2.593817472457885742e+00,2.593473434448242188e+00,6.628745794296264648e-01,6.489556431770324707e-01,6.450570225715637207e-01,6.409623026847839355e-01,6.364187002182006836e-01,6.311997175216674805e-01,6.273012757301330566e-01,6.289533376693725586e-01,6.314923763275146484e-01,6.346454024314880371e-01,6.413620114326477051e-01,2.509969949722290039e+00,2.492032289505004883e+00,2.474349498748779297e+00,2.456915855407714844e+00,2.439726114273071289e+00,2.422775030136108398e+00,2.406058073043823242e+00,2.389570236206054688e+00,2.373306751251220703e+00,2.357263326644897461e+00,2.341435194015502930e+00,2.325818061828613281e+00,2.310408115386962891e+00,2.295201063156127930e+00,2.280192613601684570e+00,2.265379428863525391e+00,2.250757217407226562e+00,2.236322879791259766e+00,2.222072362899780273e+00,4.802979826927185059e-01,4.691572785377502441e-01,4.585217535495758057e-01,4.483577609062194824e-01,4.413557052612304688e-01,4.382530450820922852e-01,4.347907602787017822e-01,4.313827455043792725e-01,4.280277490615844727e-01,4.247245490550994873e-01,4.214719235897064209e-01,4.182687103748321533e-01,4.200258553028106689e-01,4.218486249446868896e-01
2.255574941635131836e+00,2.255314826965332031e+00,2.255054473876953125e+00,2.254794597625732422e+00,2.254534482955932617e+00,2.254274606704711914e+00,2.254014730453491211e+00,2.253754854202270508e+00,2.253495216369628906e+00,2.253235578536987305e+00,2.252975702285766602e+00,2.252716064453125000e+00,2.252456665039062500e+00,2.252197027206420898e+00,2.251937627792358398e+00,2.251678466796875000e+00,2.251419067382812500e+00,2.251159906387329102e+00,2.250900745391845703e+00,2.250641584396362305e+00,2.250382423400878906e+00,2.250123500823974609e+00,2.249864578247070312e+00,2.249605655670166016e+00,2.249346733093261719e+00,2.249088048934936523e+00,2.248829364776611328e+00,2.248570680618286133e+00,2.248312234878540039e+00,2.248053550720214844e+00,2.247795343399047852e+00,2.247536659240722656e+00,2.247278451919555664e+00,2.247020244598388672e+00,2.246761798858642578e+00,2.246503829956054688e+00,2.246245622634887695e+00,6.522742509841918945e-01,6.454735398292541504e-01,6.409664154052734375e-01,6.354989409446716309e-01,6.297013759613037109e-01,6.279563307762145996e-01,6.304540634155273438e-01,6.331267356872558594e-01,6.378104090690612793e-01,2.243667840957641602e+00,2.243410348892211914e+00,2.243153095245361328e+00,2.242895603179931641e+00,2.242638349533081055e+00,2.242381095886230469e+00,2.242123842239379883e+00,2.241866827011108398e+00,2.241609811782836914e+00,2.241352796554565430e+00,2.241095781326293945e+00,2.240839004516601562e+00,2.240582227706909180e+00,2.240325450897216797e+00,2.240068674087524414e+00,2.239812135696411133e+00,2.239555597305297852e+00,2.239299058914184570e+00,2.236323356628417969e+00,2.222072601318359375e+00,4.798704087734222412e-01,4.687493741512298584e-01,4.581321179866790771e-01,4.483063220977783203e-01,4.423744380474090576e-01,4.393101036548614502e-01,4.358644187450408936e-01,4.324396550655364990e-01,4.290682375431060791e-01,4.257490038871765137e-01,4.224807620048522949e-01,4.203237295150756836e-01,4.221491217613220215e-01,4.239904582500457764e-01
1.988471746444702148e+00,1.988269329071044922e+00,1.988067269325256348e+00,1.987865090370178223e+00,1.987663030624389648e+00,1.987460970878601074e+00,1.987259030342102051e+00,1.987057089805603027e+00,1.986854910850524902e+00,1.986653089523315430e+00,1.986451268196105957e+00,1.986249446868896484e+00,1.986047744750976562e+00,1.985846042633056641e+00,1.985644459724426270e+00,1.985442638397216797e+00,1.985241055488586426e+00,1.985039472579956055e+00,1.984838008880615234e+00,1.984636545181274414e+00,1.984435081481933594e+00,1.984233736991882324e+00,1.984032154083251953e+00,1.983830928802490234e+00,1.983629584312438965e+00,1.983428478240966797e+00,1.983227252960205078e+00,1.983026146888732910e+00,1.982825040817260742e+00,1.982623815536499023e+00,1.982422828674316406e+00,1.982221841812133789e+00,1.982020854949951172e+00,1.981819987297058105e+00,1.981619119644165039e+00,1.981418371200561523e+00,1.981217384338378906e+00,1.981016635894775391e+00,6.473296880722045898e-01,6.420956850051879883e-01,6.358648538589477539e-01,6.285983920097351074e-01,6.282868385314941406e-01,6.295256018638610840e-01,6.307691931724548340e-01,6.412983536720275879e-01,1.979211807250976562e+00,1.979011416435241699e+00,1.978811144828796387e+00,1.978610992431640625e+00,1.978410482406616211e+00,1.978210330009460449e+00,1.978010296821594238e+00,1.977810144424438477e+00,1.977610111236572266e+00,1.977410197257995605e+00,1.977210164070129395e+00,1.977010130882263184e+00,1.976810216903686523e+00,1.976610422134399414e+00,1.976410627365112305e+00,1.976210832595825195e+00,1.976011157035827637e+00,1.975811481475830078e+00,1.975611567497253418e+00,1.975412011146545410e+00,4.794435799121856689e-01,4.683420956134796143e-01,4.577430784702301025e-01,4.490458369255065918e-01,4.433979094028472900e-01,4.403194189071655273e-01,4.369434416294097900e-01,4.335017204284667969e-01,4.301138222217559814e-01,4.267784357070922852e-01,4.234944283962249756e-01,4.224500954151153564e-01,4.242940247058868408e-01,4.261541664600372314e-01
1.777930617332458496e+00,1.777768969535827637e+00,1.777607321739196777e+00,1.777445673942565918e+00,1.777284145355224609e+00,1.777122616767883301e+00,1.776960968971252441e+00,1.776799559593200684e+00,1.776638031005859375e+00,1.776476621627807617e+00,1.776315331459045410e+00,1.776153922080993652e+00,1.775992631912231445e+00,1.775831103324890137e+00,1.775669932365417480e+00,1.775508642196655273e+00,1.775347471237182617e+00,1.775186300277709961e+00,1.775025129318237305e+00,1.774863958358764648e+00,1.774702787399291992e+00,1.774541735649108887e+00,1.774380683898925781e+00,1.774219632148742676e+00,1.774058699607849121e+00,1.773897767066955566e+00,1.773736834526062012e+00,1.773575782775878906e+00,1.773414969444274902e+00,1.773254036903381348e+00,1.773093342781066895e+00,1.772932529449462891e+00,1.772771835327148438e+00,1.772611021995544434e+00,1.772450208663940430e+00,1.772289514541625977e+00,1.772128939628601074e+00,1.771968364715576172e+00,1.771807789802551270e+00,6.426908373832702637e-01,6.366410851478576660e-01,6.297007203102111816e-01,6.269847154617309570e-01,6.271755099296569824e-01,6.310742497444152832e-01,1.770684480667114258e+00,1.770524144172668457e+00,1.770363807678222656e+00,1.770203590393066406e+00,1.770043134689331055e+00,1.769882917404174805e+00,1.769722700119018555e+00,1.769562602043151855e+00,1.769402503967285156e+00,1.769242405891418457e+00,1.769082307815551758e+00,1.768922090530395508e+00,1.768761992454528809e+00,1.768602013587951660e+00,1.768442153930664062e+00,1.768282175064086914e+00,1.768122315406799316e+00,1.767962455749511719e+00,1.767802357673645020e+00,1.767642617225646973e+00,1.767482876777648926e+00,4.790175855159759521e-01,4.679355323314666748e-01,4.573546946048736572e-01,4.497878253459930420e-01,4.444261193275451660e-01,4.413333535194396973e-01,4.380278289318084717e-01,4.345690906047821045e-01,4.311644732952117920e-01,4.278128743171691895e-01,4.245129823684692383e-01,4.245980083942413330e-01,4.264608025550842285e-01,4.283400475978851318e-01
1.607705354690551758e+00,1.607573270797729492e+00,1.607441067695617676e+00,1.607308983802795410e+00,1.607176661491394043e+00,1.607044577598571777e+00,1.606912493705749512e+00,1.606780529022216797e+00,1.606648445129394531e+00,1.606516480445861816e+00,1.606384515762329102e+00,1.606252431869506836e+00,1.606120467185974121e+00,1.605988502502441406e+00,1.605856657028198242e+00,1.605724811553955078e+00,1.605592966079711914e+00,1.605461120605468750e+00,1.605329155921936035e+00,1.605197310447692871e+00,1.605065584182739258e+00,1.604933857917785645e+00,1.604802131652832031e+00,1.604670405387878418e+00,1.604538798332214355e+00,1.604406952857971191e+00,1.604275345802307129e+00,1.604143738746643066e+00,1.604012131690979004e+00,1.603880524635314941e+00,1.603749036788940430e+00,1.603617548942565918e+00,1.603485941886901855e+00,1.603354334831237793e+00,1.603222846984863281e+00,1.603091478347778320e+00,1.602959990501403809e+00,1.602828621864318848e+00,1.602697253227233887e+00,1.602565884590148926e+00,6.374191641807556152e-01,6.305117011070251465e-01,6.259173154830932617e-01,6.244605779647827148e-01,6.284691691398620605e-01,6.429181694984436035e-01,1.601646900177001953e+00,1.601515650749206543e+00,1.601384401321411133e+00,1.601253271102905273e+00,1.601122140884399414e+00,1.600991129875183105e+00,1.600859999656677246e+00,1.600728988647460938e+00,1.600597858428955078e+00,1.600466847419738770e+00,1.600335836410522461e+00,1.600204825401306152e+00,1.600073933601379395e+00,1.599942922592163086e+00,1.599812030792236328e+00,1.599681019783020020e+00,1.599550127983093262e+00,1.599419355392456055e+00,1.599288463592529297e+00,1.599157691001892090e+00,4.785922765731811523e-01,4.675297439098358154e-01,4.571382999420166016e-01,4.505321979522705078e-01,4.454590976238250732e-01,4.423519968986511230e-01,4.391175508499145508e-01,4.356416463851928711e-01,4.322203397750854492e-01,4.288523495197296143e-01,4.255364239215850830e-01,4.267678856849670410e-01,4.286498427391052246e-01,4.305484294891357422e-01
1.467227935791015625e+00,1.467117905616760254e+00,1.467007637023925781e+00,1.466897606849670410e+00,1.466787576675415039e+00,1.466677546501159668e+00,1.466567516326904297e+00,1.466457605361938477e+00,1.466347575187683105e+00,1.466237664222717285e+00,1.466127634048461914e+00,1.466017723083496094e+00,1.465907812118530273e+00,1.465797901153564453e+00,1.465687990188598633e+00,1.465578198432922363e+00,1.465468287467956543e+00,1.465358376502990723e+00,1.465248584747314453e+00,1.465138792991638184e+00,1.465029001235961914e+00,1.464919209480285645e+00,1.464809536933898926e+00,1.464699745178222656e+00,1.464589953422546387e+00,1.464480280876159668e+00,1.464370608329772949e+00,1.464260935783386230e+00,1.464151263236999512e+00,1.464041590690612793e+00,1.463932037353515625e+00,1.463822364807128906e+00,1.463712692260742188e+00,1.463603138923645020e+00,1.463493585586547852e+00,1.463384151458740234e+00,1.463274598121643066e+00,1.463165163993835449e+00,1.463055491447448730e+00,1.462946057319641113e+00,6.395688056945800781e-01,6.311100125312805176e-01,6.236708164215087891e-01,6.224715113639831543e-01,6.261381506919860840e-01,6.462879180908203125e-01,1.462180137634277344e+00,1.462070822715759277e+00,1.461961507797241211e+00,1.461852192878723145e+00,1.461742997169494629e+00,1.461633682250976562e+00,1.461524367332458496e+00,1.461415052413940430e+00,1.461305856704711914e+00,1.461196660995483398e+00,1.461087465286254883e+00,1.460978269577026367e+00,1.460869193077087402e+00,1.460759878158569336e+00,1.460650801658630371e+00,1.460541605949401855e+00,1.460432529449462891e+00,1.460323333740234375e+00,1.460214257240295410e+00,1.460105061531066895e+00,4.781677424907684326e-01,4.671245813369750977e-01,4.579072594642639160e-01,4.512790739536285400e-01,4.464969038963317871e-01,4.433753788471221924e-01,4.402127563953399658e-01,4.367195367813110352e-01,4.332813620567321777e-01,4.298968613147735596e-01,4.270754158496856689e-01,4.289600849151611328e-01,4.308614432811737061e-01,4.327797293663024902e-01
1.349326968193054199e+00,1.349233746528625488e+00,1.349140644073486328e+00,1.349047541618347168e+00,1.348954558372497559e+00,1.348861455917358398e+00,1.348768472671508789e+00,1.348675370216369629e+00,1.348582267761230469e+00,1.348489284515380859e+00,1.348396301269531250e+00,1.348303318023681641e+00,1.348210334777832031e+00,1.348117351531982422e+00,1.348024487495422363e+00,1.347931385040283203e+00,1.347838521003723145e+00,1.347745656967163086e+00,1.347652792930603027e+00,1.347559809684753418e+00,1.347467064857482910e+00,1.347374200820922852e+00,1.347281217575073242e+00,1.347188472747802734e+00,1.347095608711242676e+00,1.347002863883972168e+00,1.346909999847412109e+00,1.346817255020141602e+00,1.346724510192871094e+00,1.346631646156311035e+00,1.346538901329040527e+00,1.346446156501770020e+00,1.346353530883789062e+00,1.346260786056518555e+00,1.346168160438537598e+00,1.346075415611267090e+00,1.345982670783996582e+00,1.345890045166015625e+00,1.345797419548034668e+00,1.345704793930053711e+00,1.345612168312072754e+00,6.315553188323974609e-01,6.223732233047485352e-01,6.204100251197814941e-01,6.233110427856445312e-01,1.345149278640747070e+00,1.345056653022766113e+00,1.344964146614074707e+00,1.344871640205383301e+00,1.344779133796691895e+00,1.344686508178710938e+00,1.344594001770019531e+00,1.344501495361328125e+00,1.344408988952636719e+00,1.344316482543945312e+00,1.344224095344543457e+00,1.344131588935852051e+00,1.344039201736450195e+00,1.343946814537048340e+00,1.343854308128356934e+00,1.343762040138244629e+00,1.343669533729553223e+00,1.343577265739440918e+00,1.343484759330749512e+00,1.343392491340637207e+00,1.343300104141235352e+00,4.777440130710601807e-01,4.667201340198516846e-01,4.586788415908813477e-01,4.520284533500671387e-01,4.475395381450653076e-01,4.444034695625305176e-01,4.413110315799713135e-01,4.378027915954589844e-01,4.343475699424743652e-01,4.309464693069458008e-01,4.292707741260528564e-01,4.311749041080474854e-01,4.330959916114807129e-01,4.350342750549316406e-01
1.248964667320251465e+00,1.248884916305541992e+00,1.248805165290832520e+00,1.248725414276123047e+00,1.248645782470703125e+00,1.248566031455993652e+00,1.248486161231994629e+00,1.248406529426574707e+00,1.248326778411865234e+00,1.248247146606445312e+00,1.248167395591735840e+00,1.248087763786315918e+00,1.248008131980895996e+00,1.247928380966186523e+00,1.247848749160766602e+00,1.247769117355346680e+00,1.247689485549926758e+00,1.247609853744506836e+00,1.247530221939086914e+00,1.247450709342956543e+00,1.247370958328247070e+00,1.247291445732116699e+00,1.247211933135986328e+00,1.247132301330566406e+00,1.247052788734436035e+00,1.246973276138305664e+00,1.246893763542175293e+00,1.246814131736755371e+00,1.246734619140625000e+00,1.246655225753784180e+00,1.246575713157653809e+00,1.246496200561523438e+00,1.246416807174682617e+00,1.246337294578552246e+00,1.246257781982421875e+00,1.246178388595581055e+00,1.246098995208740234e+00,1.246019601821899414e+00,1.245940089225769043e+00,1.245860695838928223e+00,1.245781183242797852e+00,6.290748715400695801e-01,6.192125082015991211e-01,6.181439757347106934e-01,6.206290125846862793e-01,6.380832195281982422e-01,1.245304942131042480e+00,1.245225548744201660e+00,1.245146274566650391e+00,1.245066881179809570e+00,1.244987607002258301e+00,1.244908332824707031e+00,1.244828939437866211e+00,1.244749665260314941e+00,1.244670510292053223e+00,1.244591116905212402e+00,1.244511961936950684e+00,1.244432687759399414e+00,1.244353413581848145e+00,1.244274139404296875e+00,1.244194984436035156e+00,1.244115829467773438e+00,1.244036674499511719e+00,1.243957400321960449e+00,1.243878245353698730e+00,1.243799090385437012e+00,4.773209691047668457e-01,4.663252532482147217e-01,4.594529569149017334e-01,4.527802765369415283e-01,4.485870599746704102e-01,4.454363286495208740e-01,4.423295557498931885e-01,4.388914108276367188e-01,4.354190528392791748e-01,4.320012331008911133e-01,4.314888119697570801e-01,4.334127008914947510e-01,4.353538453578948975e-01,4.374070465564727783e-01
1.162498831748962402e+00,1.162429690361022949e+00,1.162360548973083496e+00,1.162291526794433594e+00,1.162222385406494141e+00,1.162153244018554688e+00,1.162084221839904785e+00,1.162015080451965332e+00,1.161946058273315430e+00,1.161877036094665527e+00,1.161808013916015625e+00,1.161738872528076172e+00,1.161669850349426270e+00,1.161600828170776367e+00,1.161531925201416016e+00,1.161462903022766113e+00,1.161393880844116211e+00,1.161324977874755859e+00,1.161255836486816406e+00,1.161186933517456055e+00,1.161117911338806152e+00,1.161049008369445801e+00,1.160980105400085449e+00,1.160911202430725098e+00,1.160842180252075195e+00,1.160773277282714844e+00,1.160704374313354492e+00,1.160635471343994141e+00,1.160566449165344238e+00,1.160497546195983887e+00,1.160428643226623535e+00,1.160359740257263184e+00,1.160290837287902832e+00,1.160222053527832031e+00,1.160153031349182129e+00,1.160084247589111328e+00,1.160015344619750977e+00,1.159946560859680176e+00,1.159877657890319824e+00,1.159808874130249023e+00,1.159739971160888672e+00,6.258053183555603027e-01,6.158014535903930664e-01,6.141629815101623535e-01,6.175435781478881836e-01,6.289607882499694824e-01,1.159327149391174316e+00,1.159258484840393066e+00,1.159189581871032715e+00,1.159120917320251465e+00,1.159052133560180664e+00,1.158983469009399414e+00,1.158914685249328613e+00,1.158846020698547363e+00,1.158777236938476562e+00,1.158708572387695312e+00,1.158639907836914062e+00,1.158571124076843262e+00,1.158502459526062012e+00,1.158433794975280762e+00,1.158365249633789062e+00,1.158296465873718262e+00,1.158227920532226562e+00,1.158159255981445312e+00,1.158090591430664062e+00,1.158021926879882812e+00,4.768986701965332031e-01,4.671254754066467285e-01,4.602297246456146240e-01,4.535346329212188721e-01,4.496395289897918701e-01,4.464740455150604248e-01,4.433528184890747070e-01,4.399855136871337891e-01,4.364958405494689941e-01,4.330611526966094971e-01,4.337298870086669922e-01,4.356738626956939697e-01,4.376464784145355225e-01,4.398416280746459961e-01
1.087229728698730469e+00,1.087169289588928223e+00,1.087108731269836426e+00,1.087048292160034180e+00,1.086987972259521484e+00,1.086927533149719238e+00,1.086867094039916992e+00,1.086806654930114746e+00,1.086746215820312500e+00,1.086685895919799805e+00,1.086625456809997559e+00,1.086565017700195312e+00,1.086504697799682617e+00,1.086444258689880371e+00,1.086383938789367676e+00,1.086323618888854980e+00,1.086263179779052734e+00,1.086202740669250488e+00,1.086142420768737793e+00,1.086081981658935547e+00,1.086021661758422852e+00,1.085961341857910156e+00,1.085901021957397461e+00,1.085840582847595215e+00,1.085780382156372070e+00,1.085720062255859375e+00,1.085659742355346680e+00,1.085599422454833984e+00,1.085539102554321289e+00,1.085478782653808594e+00,1.085418462753295898e+00,1.085358262062072754e+00,1.085297942161560059e+00,1.085237741470336914e+00,1.085177421569824219e+00,1.085117220878601074e+00,1.085056900978088379e+00,1.084996700286865234e+00,1.084936499595642090e+00,1.084876298904418945e+00,1.084815979003906250e+00,6.227883696556091309e-01,6.129954457283020020e-01,6.111748218536376953e-01,6.138662695884704590e-01,6.229552626609802246e-01,1.084454774856567383e+00,1.084394693374633789e+00,1.084334492683410645e+00,1.084274291992187500e+00,1.084214210510253906e+00,1.084154009819030762e+00,1.084093928337097168e+00,1.084033727645874023e+00,1.083973646163940430e+00,1.083913445472717285e+00,1.083853363990783691e+00,1.083793282508850098e+00,1.083733201026916504e+00,1.083673119544982910e+00,1.083613038063049316e+00,1.083552956581115723e+00,1.083492875099182129e+00,1.083432793617248535e+00,1.083372712135314941e+00,5.044870376586914062e-01,4.764771759510040283e-01,4.679283797740936279e-01,4.610090851783752441e-01,4.542914628982543945e-01,4.506969451904296875e-01,4.475165605545043945e-01,4.443808197975158691e-01,4.410850107669830322e-01,4.375780224800109863e-01,4.341263473033905029e-01,4.359943568706512451e-01,4.379587769508361816e-01,4.400837421417236328e-01,4.423034787178039551e-01
1.021114945411682129e+00,1.021061539649963379e+00,1.021008253097534180e+00,1.020954966545104980e+00,1.020901679992675781e+00,1.020848393440246582e+00,1.020794987678527832e+00,1.020741701126098633e+00,1.020688414573669434e+00,1.020635008811950684e+00,1.020581722259521484e+00,1.020528435707092285e+00,1.020475149154663086e+00,1.020421862602233887e+00,1.020368576049804688e+00,1.020315289497375488e+00,1.020262122154235840e+00,1.020208835601806641e+00,1.020155549049377441e+00,1.020102262496948242e+00,1.020049095153808594e+00,1.019995808601379395e+00,1.019942641258239746e+00,1.019889354705810547e+00,1.019836187362670898e+00,1.019782900810241699e+00,1.019729733467102051e+00,1.019676566123962402e+00,1.019623279571533203e+00,1.019570112228393555e+00,1.019516944885253906e+00,1.019463777542114258e+00,1.019410610198974609e+00,1.019357442855834961e+00,1.019304156303405762e+00,1.019251108169555664e+00,1.019197940826416016e+00,1.019144773483276367e+00,1.019091606140136719e+00,1.019038438796997070e+00,1.018985271453857422e+00,6.201491355895996094e-01,6.108607649803161621e-01,6.094278693199157715e-01,6.117922663688659668e-01,6.199589967727661133e-01,1.018666744232177734e+00,1.018613576889038086e+00,1.018560528755187988e+00,1.018507361412048340e+00,1.018454313278198242e+00,1.018401265144348145e+00,1.018348217010498047e+00,1.018295049667358398e+00,1.018242120742797852e+00,1.018188953399658203e+00,1.018136024475097656e+00,1.018082857131958008e+00,1.018029928207397461e+00,1.017976880073547363e+00,1.017923831939697266e+00,1.017870783805847168e+00,1.017817854881286621e+00,1.017764806747436523e+00,1.017711758613586426e+00,5.034494996070861816e-01,4.760563671588897705e-01,4.687341153621673584e-01,4.617911577224731445e-01,4.550508856773376465e-01,4.517593085765838623e-01,4.485639929771423340e-01,4.454135894775390625e-01,4.421900212764739990e-01,4.386655092239379883e-01,4.363153576850891113e-01,4.382826387882232666e-01,4.403261244297027588e-01,4.425482749938964844e-01,4.447929859161376953e-01
9.625800848007202148e-01,9.625325798988342285e-01,9.624851942062377930e-01,9.624378681182861328e-01,9.623904228210449219e-01,9.623429775238037109e-01,9.622955918312072754e-01,9.622482657432556152e-01,9.622009396553039551e-01,9.621534347534179688e-01,9.621061086654663086e-01,9.620587825775146484e-01,9.620114564895629883e-01,9.619640111923217773e-01,9.619166851043701172e-01,9.618693590164184570e-01,9.618220925331115723e-01,9.617746472358703613e-01,9.617273211479187012e-01,9.616800546646118164e-01,9.616327285766601562e-01,9.615854620933532715e-01,9.615380764007568359e-01,9.614908099174499512e-01,9.614435434341430664e-01,9.613962173461914062e-01,9.613488912582397461e-01,9.613016247749328613e-01,9.612543582916259766e-01,9.612070918083190918e-01,9.611597657203674316e-01,9.611124992370605469e-01,9.610652923583984375e-01,9.610180258750915527e-01,9.609706997871398926e-01,9.609234929084777832e-01,9.608762264251708984e-01,9.608290195465087891e-01,9.607816934585571289e-01,9.607344865798950195e-01,9.606872797012329102e-01,6.256433725357055664e-01,6.097393631935119629e-01,6.080312132835388184e-01,6.099143624305725098e-01,6.145287156105041504e-01,9.604040980339050293e-01,9.603568315505981445e-01,9.603096246719360352e-01,9.602624773979187012e-01,9.602153301239013672e-01,9.601680636405944824e-01,9.601209163665771484e-01,9.600737690925598145e-01,9.600266218185424805e-01,9.599794149398803711e-01,9.599322676658630371e-01,9.598851799964904785e-01,9.598380327224731445e-01,9.597908258438110352e-01,9.597436785697937012e-01,9.596965909004211426e-01,9.596495032310485840e-01,9.596022963523864746e-01,9.595552086830139160e-01,9.595081210136413574e-01,4.767224490642547607e-01,4.695426523685455322e-01,4.625758826732635498e-01,4.560832977294921875e-01,4.528267085552215576e-01,4.496163427829742432e-01,4.464511871337890625e-01,4.433006346225738525e-01,4.397584497928619385e-01,4.386069774627685547e-01,4.405950307846069336e-01,4.427933692932128906e-01,4.450405836105346680e-01,4.473107457160949707e-01
9.103921055793762207e-01,9.103497266769409180e-01,9.103073477745056152e-01,9.102649092674255371e-01,9.102225303649902344e-01,9.101801514625549316e-01,9.101377725601196289e-01,9.100953340530395508e-01,9.100529551506042480e-01,9.100106358528137207e-01,9.099682569503784180e-01,9.099258184432983398e-01,9.098834991455078125e-01,9.098411202430725098e-01,9.097988009452819824e-01,9.097563624382019043e-01,9.097140431404113770e-01,9.096717238426208496e-01,9.096294045448303223e-01,9.095870852470397949e-01,9.095447063446044922e-01,9.095023870468139648e-01,9.094600677490234375e-01,9.094178080558776855e-01,9.093754291534423828e-01,9.093331098556518555e-01,9.092908501625061035e-01,9.092485308647155762e-01,9.092061519622802734e-01,9.091638922691345215e-01,9.091216325759887695e-01,9.090793728828430176e-01,9.090369939804077148e-01,9.089947342872619629e-01,9.089524745941162109e-01,9.089102149009704590e-01,9.088678956031799316e-01,9.088256359100341797e-01,9.087834358215332031e-01,9.087411761283874512e-01,9.086989760398864746e-01,9.086565971374511719e-01,6.117274761199951172e-01,6.078396439552307129e-01,6.074281930923461914e-01,6.094028353691101074e-01,6.320481896400451660e-01,9.084032773971557617e-01,9.083610773086547852e-01,9.083187580108642578e-01,9.082765579223632812e-01,9.082343578338623047e-01,9.081922173500061035e-01,9.081498980522155762e-01,9.081077575683593750e-01,9.080655574798583984e-01,9.080234169960021973e-01,9.079811573028564453e-01,9.079390168190002441e-01,9.078968167304992676e-01,9.078546762466430664e-01,9.078124165534973145e-01,9.077702760696411133e-01,9.077281355857849121e-01,9.076859951019287109e-01,9.076438546180725098e-01,9.076016545295715332e-01,4.703539013862609863e-01,4.633632302284240723e-01,4.571712315082550049e-01,4.538992047309875488e-01,4.506736099720001221e-01,4.474936127662658691e-01,4.443581700325012207e-01,4.408568441867828369e-01,4.409228265285491943e-01,4.430387318134307861e-01,4.452884197235107422e-01,4.475611448287963867e-01,4.498571455478668213e-01
8.635721802711486816e-01,8.635339736938476562e-01,8.634958267211914062e-01,8.634576797485351562e-01,8.634195327758789062e-01,8.633813261985778809e-01,8.633432388305664062e-01,8.633050918579101562e-01,8.632670044898986816e-01,8.632287979125976562e-01,8.631907105445861816e-01,8.631525635719299316e-01,8.631144762039184570e-01,8.630763888359069824e-01,8.630381822586059570e-01,8.630000948905944824e-01,8.629620075225830078e-01,8.629239797592163086e-01,8.628857731819152832e-01,8.628476858139038086e-01,8.628096580505371094e-01,8.627715706825256348e-01,8.627334237098693848e-01,8.626953363418579102e-01,8.626573085784912109e-01,8.626192212104797363e-01,8.625810742378234863e-01,8.625430464744567871e-01,8.625050187110900879e-01,8.624669313430786133e-01,8.624288439750671387e-01,8.623907566070556641e-01,8.623527288436889648e-01,8.623147010803222656e-01,8.622766137123107910e-01,8.622385859489440918e-01,8.622005581855773926e-01,8.621625304222106934e-01,8.621245622634887695e-01,8.620864152908325195e-01,8.620484471321105957e-01,8.620104193687438965e-01,8.619724512100219727e-01,6.096392273902893066e-01,6.050351262092590332e-01,6.045089364051818848e-01,6.084007620811462402e-01,8.617823123931884766e-01,8.617443442344665527e-01,8.617063760757446289e-01,8.616684079170227051e-01,8.616303205490112305e-01,8.615923523902893066e-01,8.615543842315673828e-01,8.615164160728454590e-01,8.614783883094787598e-01,8.614404201507568359e-01,8.614025115966796875e-01,8.613645434379577637e-01,8.613265156745910645e-01,8.612885475158691406e-01,8.612506389617919922e-01,8.612127304077148438e-01,8.611747622489929199e-01,8.611367940902709961e-01,8.610988259315490723e-01,8.610609173774719238e-01,4.961481988430023193e-01,4.865070283412933350e-01,4.582643806934356689e-01,4.549767374992370605e-01,4.517358839511871338e-01,4.485409259796142578e-01,4.453908205032348633e-01,4.419607520103454590e-01,4.432843625545501709e-01,4.455365538597106934e-01,4.478118419647216797e-01,4.501104056835174561e-01,4.524326622486114502e-01
8.213323354721069336e-01,8.212978243827819824e-01,8.212633132934570312e-01,8.212287425994873047e-01,8.211942911148071289e-01,8.211597800254821777e-01,8.211253285408020020e-01,8.210907578468322754e-01,8.210562467575073242e-01,8.210217952728271484e-01,8.209873437881469727e-01,8.209528923034667969e-01,8.209183216094970703e-01,8.208838701248168945e-01,8.208494186401367188e-01,8.208149671554565430e-01,8.207803964614868164e-01,8.207459449768066406e-01,8.207114934921264648e-01,8.206770420074462891e-01,8.206425309181213379e-01,8.206080794334411621e-01,8.205736875534057617e-01,8.205392360687255859e-01,8.205047249794006348e-01,8.204702734947204590e-01,8.204358816146850586e-01,8.204014301300048828e-01,8.203669786453247070e-01,8.203325271606445312e-01,8.202981352806091309e-01,8.202637434005737305e-01,8.202292323112487793e-01,8.201948404312133789e-01,8.201604485511779785e-01,8.201259970664978027e-01,8.200916051864624023e-01,8.200571537017822266e-01,8.200227618217468262e-01,8.199883699417114258e-01,8.199539780616760254e-01,8.199195265769958496e-01,8.198851346969604492e-01,8.198508024215698242e-01,6.047748923301696777e-01,6.010958552360534668e-01,6.022862195968627930e-01,8.197132349014282227e-01,8.196788430213928223e-01,8.196443915367126465e-01,8.196100592613220215e-01,8.195757269859313965e-01,8.195413351058959961e-01,8.195069432258605957e-01,8.194726109504699707e-01,8.194382190704345703e-01,8.194038867950439453e-01,8.193695545196533203e-01,8.193351626396179199e-01,8.193008303642272949e-01,8.192664980888366699e-01,8.192321658134460449e-01,8.191977739334106445e-01,8.191634416580200195e-01,8.191291689872741699e-01,8.190948367118835449e-01,8.190604448318481445e-01,4.918523132801055908e-01,4.860546290874481201e-01,4.800149798393249512e-01,4.722200632095336914e-01,4.528031647205352783e-01,4.495931565761566162e-01,4.464283287525177002e-01,4.435950517654418945e-01,4.457849562168121338e-01,4.480627477169036865e-01,4.503639340400695801e-01,4.526888430118560791e-01,4.550378620624542236e-01
7.830320596694946289e-01,7.830005884170532227e-01,7.829692363739013672e-01,7.829378843307495117e-01,7.829065322875976562e-01,7.828751206398010254e-01,7.828438282012939453e-01,7.828124761581420898e-01,7.827811241149902344e-01,7.827497720718383789e-01,7.827183604240417480e-01,7.826870679855346680e-01,7.826557159423828125e-01,7.826244235038757324e-01,7.825930118560791016e-01,7.825616598129272461e-01,7.825303673744201660e-01,7.824990749359130859e-01,7.824676632881164551e-01,7.824363708496093750e-01,7.824050188064575195e-01,7.823737263679504395e-01,7.823423743247985840e-01,7.823110818862915039e-01,7.822797894477844238e-01,7.822484374046325684e-01,7.822170853614807129e-01,7.821857929229736328e-01,7.821545004844665527e-01,7.821232080459594727e-01,7.820918560028076172e-01,7.820606231689453125e-01,7.820293307304382324e-01,7.819980382919311523e-01,7.819668054580688477e-01,7.819354534149169922e-01,7.819041609764099121e-01,7.818729281425476074e-01,7.818416357040405273e-01,7.818102836608886719e-01,7.817790508270263672e-01,7.817478179931640625e-01,7.817165255546569824e-01,7.816852331161499023e-01,7.816539406776428223e-01,6.000902652740478516e-01,5.987193584442138672e-01,6.024088263511657715e-01,7.815289497375488281e-01,7.814977169036865234e-01,7.814664840698242188e-01,7.814351320266723633e-01,7.814038991928100586e-01,7.813727259635925293e-01,7.813414931297302246e-01,7.813102602958679199e-01,7.812789678573608398e-01,7.812477350234985352e-01,7.812165617942810059e-01,7.811853289604187012e-01,7.811540365219116211e-01,7.811228632926940918e-01,7.810916304588317871e-01,7.810604572296142578e-01,7.810291647911071777e-01,7.809979915618896484e-01,4.993510842323303223e-01,4.914657175540924072e-01,4.856887757778167725e-01,4.796616733074188232e-01,4.715448319911956787e-01,4.672117829322814941e-01,4.628610610961914062e-01,4.592662155628204346e-01,4.585470557212829590e-01,4.579504430294036865e-01,4.631473422050476074e-01,4.693374931812286377e-01,7.805924415588378906e-01,7.805612683296203613e-01
7.481445670127868652e-01,7.481158971786499023e-01,7.480872869491577148e-01,7.480586171150207520e-01,7.480300068855285645e-01,7.480013966560363770e-01,7.479727864265441895e-01,7.479441761970520020e-01,7.479155063629150391e-01,7.478868961334228516e-01,7.478582859039306641e-01,7.478296756744384766e-01,7.478010058403015137e-01,7.477723956108093262e-01,7.477437853813171387e-01,7.477152347564697266e-01,7.476865649223327637e-01,7.476579546928405762e-01,7.476294040679931641e-01,7.476007938385009766e-01,7.475721836090087891e-01,7.475435733795166016e-01,7.475150227546691895e-01,7.474864125251770020e-01,7.474578022956848145e-01,7.474291920661926270e-01,7.474006414413452148e-01,7.473720908164978027e-01,7.473435401916503906e-01,7.473148703575134277e-01,7.472863197326660156e-01,7.472577691078186035e-01,7.472292184829711914e-01,7.472006082534790039e-01,7.471720576286315918e-01,7.471435070037841797e-01,7.471149563789367676e-01,7.470863461494445801e-01,7.470577955245971680e-01,7.470292448997497559e-01,7.470006942749023438e-01,7.469720840454101562e-01,7.469435930252075195e-01,7.469150424003601074e-01,7.468864917755126953e-01,7.468579411506652832e-01,5.988847017288208008e-01,5.992738604545593262e-01,7.467723488807678223e-01,7.467437386512756348e-01,7.467152476310729980e-01,7.466867566108703613e-01,7.466582059860229492e-01,7.466297149658203125e-01,7.466011643409729004e-01,7.465726137161254883e-01,7.465441226959228516e-01,7.465156316757202148e-01,7.464870810508728027e-01,7.464585304260253906e-01,7.464300394058227539e-01,7.464015483856201172e-01,7.463729977607727051e-01,7.463445067405700684e-01,7.463160157203674316e-01,5.079479813575744629e-01,4.964343607425689697e-01,4.907276332378387451e-01,4.850295186042785645e-01,4.790616929531097412e-01,4.712271690368652344e-01,4.676050841808319092e-01,4.639868140220642090e-01,4.607967138290405273e-01,4.600555002689361572e-01,4.593077600002288818e-01,4.644244015216827393e-01,4.708333313465118408e-01,7.459172606468200684e-01,7.458887696266174316e-01
7.162333130836486816e-01,7.162070274353027344e-01,7.161807417869567871e-01,7.161545157432556152e-01,7.161282896995544434e-01,7.161020636558532715e-01,7.160757780075073242e-01,7.160495519638061523e-01,7.160233259201049805e-01,7.159971594810485840e-01,7.159708738327026367e-01,7.159446477890014648e-01,7.159184217453002930e-01,7.158921957015991211e-01,7.158659696578979492e-01,7.158397436141967773e-01,7.158135175704956055e-01,7.157873511314392090e-01,7.157610654830932617e-01,7.157348394393920898e-01,7.157086730003356934e-01,7.156824469566345215e-01,7.156562209129333496e-01,7.156300544738769531e-01,7.156038284301757812e-01,7.155776619911193848e-01,7.155514955520629883e-01,7.155252099037170410e-01,7.154990434646606445e-01,7.154728770256042480e-01,7.154467105865478516e-01,7.154204249382019043e-01,7.153942584991455078e-01,7.153680920600891113e-01,7.153419256210327148e-01,7.153156995773315430e-01,7.152895331382751465e-01,7.152633666992187500e-01,7.152372002601623535e-01,7.152109742164611816e-01,7.151848077774047852e-01,7.151587009429931641e-01,7.151325345039367676e-01,7.151063084602355957e-01,7.150801420211791992e-01,7.150539755821228027e-01,7.150278687477111816e-01,7.150016427040100098e-01,7.149755358695983887e-01,7.149493694305419922e-01,7.149232029914855957e-01,7.148970961570739746e-01,7.148708701133728027e-01,7.148447632789611816e-01,7.148186564445495605e-01,7.147924900054931641e-01,7.147663235664367676e-01,7.147401571273803711e-01,7.147140502929687500e-01,7.146879434585571289e-01,7.146617770195007324e-01,7.146356105804443359e-01,7.146095037460327148e-01,7.145833969116210938e-01,7.145572304725646973e-01,5.042533874511718750e-01,4.955801367759704590e-01,4.896119832992553711e-01,4.836612641811370850e-01,4.788834452629089355e-01,4.717075228691101074e-01,4.680821299552917480e-01,4.644384086132049561e-01,4.623245298862457275e-01,4.615693986415863037e-01,4.608167409896850586e-01,4.657085537910461426e-01,4.719251394271850586e-01,7.141916751861572266e-01,7.141655683517456055e-01
6.869329214096069336e-01,6.869087815284729004e-01,6.868846416473388672e-01,6.868605017662048340e-01,6.868363022804260254e-01,6.868122220039367676e-01,6.867880821228027344e-01,6.867639422416687012e-01,6.867398023605346680e-01,6.867156624794006348e-01,6.866915225982666016e-01,6.866674423217773438e-01,6.866432428359985352e-01,6.866191625595092773e-01,6.865950226783752441e-01,6.865709424018859863e-01,6.865468025207519531e-01,6.865226626396179199e-01,6.864985823631286621e-01,6.864744424819946289e-01,6.864503026008605957e-01,6.864262223243713379e-01,6.864021420478820801e-01,6.863780021667480469e-01,6.863539218902587891e-01,6.863297820091247559e-01,6.863057017326354980e-01,6.862816214561462402e-01,6.862575411796569824e-01,6.862334012985229492e-01,6.862093210220336914e-01,6.861852407455444336e-01,6.861611604690551758e-01,6.861370205879211426e-01,6.861129403114318848e-01,6.860888600349426270e-01,6.860647797584533691e-01,6.860406398773193359e-01,6.860165596008300781e-01,6.859925389289855957e-01,6.859684586524963379e-01,6.859443187713623047e-01,6.859202980995178223e-01,6.858962178230285645e-01,6.858721375465393066e-01,6.858481168746948242e-01,6.858239769935607910e-01,6.857999563217163086e-01,6.857758760452270508e-01,6.857518553733825684e-01,6.857277154922485352e-01,6.857036948204040527e-01,6.856796145439147949e-01,6.856555938720703125e-01,6.856315135955810547e-01,6.856074333190917969e-01,6.855834126472473145e-01,6.855593919754028320e-01,6.855353116989135742e-01,6.855112314224243164e-01,6.854872107505798340e-01,6.854631900787353516e-01,6.854391098022460938e-01,6.854150891304016113e-01,5.219882130622863770e-01,5.013982057571411133e-01,4.942514002323150635e-01,4.884288311004638672e-01,4.823760688304901123e-01,4.777038991451263428e-01,4.721311330795288086e-01,4.687770903110504150e-01,4.651225805282592773e-01,4.630909562110900879e-01,4.625673294067382812e-01,4.620442390441894531e-01,4.667200148105621338e-01,4.723033308982849121e-01,4.751977026462554932e-01,4.856901466846466064e-01
6.599356532096862793e-01,6.599133610725402832e-01,6.598910093307495117e-01,6.598687767982482910e-01,6.598464846611022949e-01,6.598242521286010742e-01,6.598019003868103027e-01,6.597796678543090820e-01,6.597573757171630859e-01,6.597351431846618652e-01,6.597128510475158691e-01,6.596905589103698730e-01,6.596683263778686523e-01,6.596460938453674316e-01,6.596237421035766602e-01,6.596015095710754395e-01,6.595792770385742188e-01,6.595570445060729980e-01,6.595346927642822266e-01,6.595124602317810059e-01,6.594902276992797852e-01,6.594679951667785645e-01,6.594457626342773438e-01,6.594234704971313477e-01,6.594012379646301270e-01,6.593790054321289062e-01,6.593567728996276855e-01,6.593344807624816895e-01,6.593122482299804688e-01,6.592900156974792480e-01,6.592677831649780273e-01,6.592454910278320312e-01,6.592232584953308105e-01,6.592010259628295898e-01,6.591788530349731445e-01,6.591565608978271484e-01,6.591343283653259277e-01,6.591120958328247070e-01,6.590899229049682617e-01,6.590676307678222656e-01,6.590453982353210449e-01,6.590232253074645996e-01,6.590009927749633789e-01,6.589788198471069336e-01,6.589565277099609375e-01,6.589343547821044922e-01,6.589121222496032715e-01,6.588899493217468262e-01,6.588676571846008301e-01,6.588454842567443848e-01,6.588232517242431641e-01,6.588010787963867188e-01,6.587788462638854980e-01,6.587566137313842773e-01,6.587344408035278320e-01,6.587122678756713867e-01,6.586900353431701660e-01,6.586678028106689453e-01,6.586456298828125000e-01,6.586234569549560547e-01,6.586012244224548340e-01,6.585790514945983887e-01,6.585568785667419434e-01,6.585346460342407227e-01,5.081704258918762207e-01,4.985752701759338379e-01,4.928610026836395264e-01,4.874211549758911133e-01,4.820374250411987305e-01,4.770666062831878662e-01,4.725555777549743652e-01,4.692352116107940674e-01,4.658087491989135742e-01,4.636687934398651123e-01,4.631406068801879883e-01,4.625304639339447021e-01,4.653077423572540283e-01,4.675569236278533936e-01,4.706253111362457275e-01,4.722736775875091553e-01
6.349800825119018555e-01,6.349595189094543457e-01,6.349388957023620605e-01,6.349182724952697754e-01,6.348975896835327148e-01,6.348769664764404297e-01,6.348563432693481445e-01,6.348357796669006348e-01,6.348150968551635742e-01,6.347944736480712891e-01,6.347739100456237793e-01,6.347532868385314941e-01,6.347326040267944336e-01,6.347120404243469238e-01,6.346914172172546387e-01,6.346707940101623535e-01,6.346502304077148438e-01,6.346295475959777832e-01,6.346089839935302734e-01,6.345883607864379883e-01,6.345677971839904785e-01,6.345471739768981934e-01,6.345265507698059082e-01,6.345059871673583984e-01,6.344853639602661133e-01,6.344647407531738281e-01,6.344441771507263184e-01,6.344235539436340332e-01,6.344029903411865234e-01,6.343823671340942383e-01,6.343618035316467285e-01,6.343411803245544434e-01,6.343206167221069336e-01,6.342999935150146484e-01,6.342794299125671387e-01,6.342588663101196289e-01,6.342383027076721191e-01,6.342176795005798340e-01,6.341971158981323242e-01,6.341764926910400391e-01,6.341559290885925293e-01,6.341353654861450195e-01,6.341148018836975098e-01,6.340942382812500000e-01,6.340736746788024902e-01,6.340531110763549805e-01,6.340324878692626953e-01,6.340119242668151855e-01,6.339913606643676758e-01,6.339707970619201660e-01,6.339502334594726562e-01,6.339296698570251465e-01,6.339091062545776367e-01,6.338885426521301270e-01,6.338679790496826172e-01,6.338474154472351074e-01,6.338268518447875977e-01,6.338063478469848633e-01,6.337857246398925781e-01,6.337652206420898438e-01,6.337446570396423340e-01,6.337240934371948242e-01,6.337035298347473145e-01,6.336830258369445801e-01,5.063184499740600586e-01,4.969185888767242432e-01,4.913939237594604492e-01,4.864177405834197998e-01,4.817456603050231934e-01,4.774703979492187500e-01,4.730571508407592773e-01,4.696875810623168945e-01,4.663746356964111328e-01,4.642422199249267578e-01,4.636291861534118652e-01,4.630177319049835205e-01,4.636570215225219727e-01,4.646541178226470947e-01,4.661274850368499756e-01,4.677571058273315430e-01
6.118432879447937012e-01,6.118241548538208008e-01,6.118049621582031250e-01,6.117858290672302246e-01,6.117666959762573242e-01,6.117475032806396484e-01,6.117283701896667480e-01,6.117092370986938477e-01,6.116901040077209473e-01,6.116709709167480469e-01,6.116517782211303711e-01,6.116326451301574707e-01,6.116135120391845703e-01,6.115943789482116699e-01,6.115752458572387695e-01,6.115560531616210938e-01,6.115369200706481934e-01,6.115178465843200684e-01,6.114987134933471680e-01,6.114795207977294922e-01,6.114603877067565918e-01,6.114413142204284668e-01,6.114221811294555664e-01,6.114029884338378906e-01,6.113839149475097656e-01,6.113647818565368652e-01,6.113456487655639648e-01,6.113265156745910645e-01,6.113073825836181641e-01,6.112883090972900391e-01,6.112691760063171387e-01,6.112500429153442383e-01,6.112309098243713379e-01,6.112117767333984375e-01,6.111927032470703125e-01,6.111735701560974121e-01,6.111544370651245117e-01,6.111353635787963867e-01,6.111162304878234863e-01,6.110971570014953613e-01,6.110780239105224609e-01,6.110588908195495605e-01,6.110398173332214355e-01,6.110207438468933105e-01,6.110016107559204102e-01,6.109824776649475098e-01,6.109634041786193848e-01,6.109443306922912598e-01,6.109251976013183594e-01,6.109060645103454590e-01,6.108869910240173340e-01,6.108679175376892090e-01,6.108487844467163086e-01,6.108297109603881836e-01,6.108106374740600586e-01,6.107915639877319336e-01,6.107724308967590332e-01,6.107533574104309082e-01,6.107342839241027832e-01,6.107152104377746582e-01,6.106961369514465332e-01,6.106770038604736328e-01,6.106579303741455078e-01,6.106388568878173828e-01,5.062277913093566895e-01,4.965246915817260742e-01,4.902670383453369141e-01,4.854183197021484375e-01,4.814543128013610840e-01,4.777583181858062744e-01,4.735774993896484375e-01,4.702005982398986816e-01,4.669728577136993408e-01,4.641593992710113525e-01,4.628822803497314453e-01,4.624353647232055664e-01,4.619893133640289307e-01,4.622992277145385742e-01,4.627030789852142334e-01,4.634427726268768311e-01
5.903331637382507324e-01,5.903153419494628906e-01,5.902975201606750488e-01,5.902796983718872070e-01,5.902618765830993652e-01,5.902440547943115234e-01,5.902262330055236816e-01,5.902084112167358398e-01,5.901905298233032227e-01,5.901727676391601562e-01,5.901549458503723145e-01,5.901371240615844727e-01,5.901193022727966309e-01,5.901014804840087891e-01,5.900836586952209473e-01,5.900658369064331055e-01,5.900480151176452637e-01,5.900301933288574219e-01,5.900123715400695801e-01,5.899946093559265137e-01,5.899767875671386719e-01,5.899589657783508301e-01,5.899411439895629883e-01,5.899233818054199219e-01,5.899055600166320801e-01,5.898877382278442383e-01,5.898699164390563965e-01,5.898521542549133301e-01,5.898343324661254883e-01,5.898165106773376465e-01,5.897987484931945801e-01,5.897809267044067383e-01,5.897631645202636719e-01,5.897453427314758301e-01,5.897275209426879883e-01,5.897097587585449219e-01,5.896919965744018555e-01,5.896741747856140137e-01,5.896563529968261719e-01,5.896385908126831055e-01,5.896208286285400391e-01,5.896030068397521973e-01,5.895851850509643555e-01,5.895674228668212891e-01,5.895496606826782227e-01,5.895318984985351562e-01,5.895140767097473145e-01,5.894963145256042480e-01,5.894785523414611816e-01,5.894607305526733398e-01,5.894429683685302734e-01,5.894251465797424316e-01,5.894073843955993652e-01,5.893896222114562988e-01,5.893718600273132324e-01,5.893540978431701660e-01,5.893363356590270996e-01,5.893185734748840332e-01,5.893008112907409668e-01,5.892829895019531250e-01,5.892652273178100586e-01,5.892474651336669922e-01,5.892297029495239258e-01,5.892119407653808594e-01,5.070252418518066406e-01,4.961519241333007812e-01,4.897881150245666504e-01,4.849124550819396973e-01,4.812121689319610596e-01,4.775557816028594971e-01,4.742254316806793213e-01,4.709628820419311523e-01,4.677449464797973633e-01,4.649335443973541260e-01,4.625822603702545166e-01,4.606575071811676025e-01,4.602148532867431641e-01,4.602375030517578125e-01,4.604392945766448975e-01,4.603126943111419678e-01
