1.934325098991394043e+00,1.961060047149658203e+00,1.988543868064880371e+00,2.016808986663818359e+00,2.045889616012573242e+00,2.075820922851562500e+00,2.106641054153442383e+00,2.138390064239501953e+00,2.171110630035400391e+00,2.204848289489746094e+00,2.239650726318359375e+00,2.275569677352905273e+00,2.312659740447998047e+00,2.350978612899780273e+00,2.390588760375976562e+00,2.431556463241577148e+00,2.473953008651733398e+00,2.517853975296020508e+00,2.563341140747070312e+00,2.610502481460571289e+00,2.659431457519531250e+00,2.710229396820068359e+00,2.763006210327148438e+00,2.817878961563110352e+00,2.874975442886352539e+00,2.934433698654174805e+00,2.996402978897094727e+00,3.061046600341796875e+00,3.128538370132446289e+00,3.199073791503906250e+00,3.272863388061523438e+00,3.350137233734130859e+00,3.431148052215576172e+00,3.516174316406250000e+00,1.958456397056579590e+00,1.818390011787414551e+00,1.773501515388488770e+00,1.748714923858642578e+00,1.733014822006225586e+00,1.721943736076354980e+00,1.722392678260803223e+00,1.735680103302001953e+00,1.753473758697509766e+00,1.784495830535888672e+00,1.773556470870971680e+00,1.751659750938415527e+00,1.753310918807983398e+00,1.778986454010009766e+00,5.000000000000000000e+00,5.000000000000000000e+00,5.000000000000000000e+00,5.000000000000000000e+00,5.000000000000000000e+00,5.000000000000000000e+00,5.000000000000000000e+00,5.000000000000000000e+00,5.000000000000000000e+00,5.000000000000000000e+00,5.000000000000000000e+00,5.000000000000000000e+00,5.000000000000000000e+00,5.000000000000000000e+00,5.000000000000000000e+00,5.000000000000000000e+00,5.000000000000000000e+00,5.000000000000000000e+00,5.000000000000000000e+00,5.000000000000000000e+00,5.000000000000000000e+00,5.000000000000000000e+00,5.000000000000000000e+00,5.000000000000000000e+00,5.000000000000000000e+00,5.000000000000000000e+00,5.000000000000000000e+00,5.000000000000000000e+00,5.000000000000000000e+00,5.000000000000000000e+00,5.000000000000000000e+00,5.000000000000000000e+00
1.934290051460266113e+00,1.961026787757873535e+00,1.988512992858886719e+00,2.016778230667114258e+00,2.045857906341552734e+00,2.075788021087646484e+00,2.106607198715209961e+00,2.138355255126953125e+00,2.171074867248535156e+00,2.204811334609985352e+00,2.239612817764282227e+00,2.275530576705932617e+00,2.312618970870971680e+00,2.350936651229858398e+00,2.390545368194580078e+00,2.431511640548706055e+00,2.473906517028808594e+00,2.517805814743041992e+00,2.563291549682617188e+00,2.610450744628906250e+00,2.659377574920654297e+00,2.710173845291137695e+00,2.762948274612426758e+00,2.817818641662597656e+00,2.874912738800048828e+00,2.934368371963500977e+00,2.996335029602050781e+00,3.060975313186645508e+00,3.128466129302978516e+00,3.198998451232910156e+00,3.272784233093261719e+00,3.350054264068603516e+00,3.431061506271362305e+00,3.516082763671875000e+00,1.959618210792541504e+00,1.829988837242126465e+00,1.779201984405517578e+00,1.746625065803527832e+00,1.720246672630310059e+00,1.713217496871948242e+00,1.715311408042907715e+00,1.724817395210266113e+00,1.743177652359008789e+00,1.795070648193359375e+00,1.793224453926086426e+00,1.763781309127807617e+00,1.758353233337402344e+00,1.778790354728698730e+00,5.000000000000000000e+00,5.000000000000000000e+00,5.000000000000000000e+00,5.000000000000000000e+00,5.000000000000000000e+00,5.000000000000000000e+00,5.000000000000000000e+00,5.000000000000000000e+00,5.000000000000000000e+00,5.000000000000000000e+00,5.000000000000000000e+00,5.000000000000000000e+00,5.000000000000000000e+00,5.000000000000000000e+00,5.000000000000000000e+00,5.000000000000000000e+00,5.000000000000000000e+00,5.000000000000000000e+00,5.000000000000000000e+00,5.000000000000000000e+00,5.000000000000000000e+00,5.000000000000000000e+00,5.000000000000000000e+00,5.000000000000000000e+00,5.000000000000000000e+00,5.000000000000000000e+00,5.000000000000000000e+00,5.000000000000000000e+00,5.000000000000000000e+00,5.000000000000000000e+00,5.000000000000000000e+00,5.000000000000000000e+00
1.934255123138427734e+00,1.960990786552429199e+00,1.988476037979125977e+00,2.016742706298828125e+00,2.045824527740478516e+00,2.075755596160888672e+00,2.106573820114135742e+00,2.138320684432983398e+00,2.171039104461669922e+00,2.204774379730224609e+00,2.239574909210205078e+00,2.275491237640380859e+00,2.312578439712524414e+00,2.350894927978515625e+00,2.390501976013183594e+00,2.431466817855834961e+00,2.473860025405883789e+00,2.517757892608642578e+00,2.563241481781005859e+00,2.610399007797241211e+00,2.659324169158935547e+00,2.710118055343627930e+00,2.762890338897705078e+00,2.817758560180664062e+00,2.874850034713745117e+00,2.934303045272827148e+00,2.996266841888427734e+00,3.060904502868652344e+00,3.128391742706298828e+00,3.198922395706176758e+00,3.272705316543579102e+00,3.349971294403076172e+00,3.430974483489990234e+00,3.515991926193237305e+00,1.953097343444824219e+00,1.810031294822692871e+00,1.773054718971252441e+00,1.735229253768920898e+00,1.713300108909606934e+00,1.708619832992553711e+00,1.712082028388977051e+00,1.722503662109375000e+00,1.736103057861328125e+00,1.763565182685852051e+00,1.812863349914550781e+00,1.774958968162536621e+00,1.760280013084411621e+00,1.772064685821533203e+00,5.000000000000000000e+00,5.000000000000000000e+00,5.000000000000000000e+00,5.000000000000000000e+00,5.000000000000000000e+00,5.000000000000000000e+00,5.000000000000000000e+00,5.000000000000000000e+00,5.000000000000000000e+00,5.000000000000000000e+00,5.000000000000000000e+00,5.000000000000000000e+00,5.000000000000000000e+00,5.000000000000000000e+00,5.000000000000000000e+00,5.000000000000000000e+00,5.000000000000000000e+00,5.000000000000000000e+00,5.000000000000000000e+00,5.000000000000000000e+00,5.000000000000000000e+00,5.000000000000000000e+00,5.000000000000000000e+00,5.000000000000000000e+00,5.000000000000000000e+00,5.000000000000000000e+00,5.000000000000000000e+00,5.000000000000000000e+00,5.000000000000000000e+00,5.000000000000000000e+00,5.000000000000000000e+00,5.000000000000000000e+00
1.934221386909484863e+00,1.960954904556274414e+00,1.988439083099365234e+00,2.016704559326171875e+00,2.045785427093505859e+00,2.075717210769653320e+00,2.106537818908691406e+00,2.138286113739013672e+00,2.171003580093383789e+00,2.204737663269042969e+00,2.239536762237548828e+00,2.275452136993408203e+00,2.312538146972656250e+00,2.350852727890014648e+00,2.390458822250366211e+00,2.431421995162963867e+00,2.473813533782958984e+00,2.517709732055664062e+00,2.563191890716552734e+00,2.610347509384155273e+00,2.659270286560058594e+00,2.710062503814697266e+00,2.762832641601562500e+00,2.817698240280151367e+00,2.874787330627441406e+00,2.934237718582153320e+00,2.996198892593383789e+00,3.060833215713500977e+00,3.128317594528198242e+00,3.198845148086547852e+00,3.272625446319580078e+00,3.349888801574707031e+00,3.430887460708618164e+00,3.515900373458862305e+00,1.959519147872924805e+00,1.800196766853332520e+00,1.762557744979858398e+00,1.730281949043273926e+00,1.731227636337280273e+00,1.722514510154724121e+00,1.718155622482299805e+00,1.724911570549011230e+00,1.734153389930725098e+00,1.754771113395690918e+00,1.817297816276550293e+00,1.768403768539428711e+00,1.751392960548400879e+00,1.765896797180175781e+00,5.000000000000000000e+00,5.000000000000000000e+00,5.000000000000000000e+00,5.000000000000000000e+00,5.000000000000000000e+00,5.000000000000000000e+00,5.000000000000000000e+00,5.000000000000000000e+00,5.000000000000000000e+00,5.000000000000000000e+00,5.000000000000000000e+00,5.000000000000000000e+00,5.000000000000000000e+00,5.000000000000000000e+00,5.000000000000000000e+00,5.000000000000000000e+00,5.000000000000000000e+00,5.000000000000000000e+00,5.000000000000000000e+00,5.000000000000000000e+00,5.000000000000000000e+00,5.000000000000000000e+00,5.000000000000000000e+00,5.000000000000000000e+00,5.000000000000000000e+00,5.000000000000000000e+00,5.000000000000000000e+00,5.000000000000000000e+00,5.000000000000000000e+00,5.000000000000000000e+00,5.000000000000000000e+00,5.000000000000000000e+00
1.934193134307861328e+00,1.960923910140991211e+00,1.988403916358947754e+00,2.016666650772094727e+00,2.045746326446533203e+00,2.075676679611206055e+00,2.106496334075927734e+00,2.138244628906250000e+00,2.170964717864990234e+00,2.204700708389282227e+00,2.239498853683471680e+00,2.275412559509277344e+00,2.312497377395629883e+00,2.350811004638671875e+00,2.390415430068969727e+00,2.431377172470092773e+00,2.473767280578613281e+00,2.517661809921264648e+00,2.563141822814941406e+00,2.610295772552490234e+00,2.659216880798339844e+00,2.710006713867187500e+00,2.762774467468261719e+00,2.817638158798217773e+00,2.874724864959716797e+00,2.934172391891479492e+00,2.996130704879760742e+00,3.060762166976928711e+00,3.128243684768676758e+00,3.198767185211181641e+00,3.272544384002685547e+00,3.349805116653442383e+00,3.430800676345825195e+00,3.515809059143066406e+00,2.001879453659057617e+00,1.822932362556457520e+00,1.766894221305847168e+00,1.744916915893554688e+00,1.727358818054199219e+00,1.720023036003112793e+00,1.716712594032287598e+00,1.716818571090698242e+00,1.736620306968688965e+00,1.771978139877319336e+00,1.810240745544433594e+00,1.761693120002746582e+00,1.747194647789001465e+00,1.761026263236999512e+00,5.000000000000000000e+00,5.000000000000000000e+00,5.000000000000000000e+00,5.000000000000000000e+00,5.000000000000000000e+00,5.000000000000000000e+00,5.000000000000000000e+00,5.000000000000000000e+00,5.000000000000000000e+00,5.000000000000000000e+00,5.000000000000000000e+00,5.000000000000000000e+00,5.000000000000000000e+00,5.000000000000000000e+00,5.000000000000000000e+00,5.000000000000000000e+00,5.000000000000000000e+00,5.000000000000000000e+00,5.000000000000000000e+00,5.000000000000000000e+00,5.000000000000000000e+00,5.000000000000000000e+00,5.000000000000000000e+00,5.000000000000000000e+00,5.000000000000000000e+00,5.000000000000000000e+00,5.000000000000000000e+00,5.000000000000000000e+00,5.000000000000000000e+00,5.000000000000000000e+00,5.000000000000000000e+00,5.000000000000000000e+00
1.934164762496948242e+00,1.960894823074340820e+00,1.988374233245849609e+00,2.016634464263916016e+00,2.045709609985351562e+00,2.075636386871337891e+00,2.106454849243164062e+00,2.138201951980590820e+00,2.170920610427856445e+00,2.204656124114990234e+00,2.239456892013549805e+00,2.275373458862304688e+00,2.312456846237182617e+00,2.350769042968750000e+00,2.390372037887573242e+00,2.431332349777221680e+00,2.473721027374267578e+00,2.517613649368286133e+00,2.563092231750488281e+00,2.610244035720825195e+00,2.659162998199462891e+00,2.709950923919677734e+00,2.762716770172119141e+00,2.817578077316284180e+00,2.874661922454833984e+00,2.934107303619384766e+00,2.996062755584716797e+00,3.060691118240356445e+00,3.128169298171997070e+00,3.198689937591552734e+00,3.272463321685791016e+00,3.349719762802124023e+00,3.430712699890136719e+00,3.515718221664428711e+00,3.605041503906250000e+00,1.817640304565429688e+00,1.765532970428466797e+00,1.747103095054626465e+00,1.731744647026062012e+00,1.718203544616699219e+00,1.710342407226562500e+00,1.705959796905517578e+00,1.727274179458618164e+00,1.762361049652099609e+00,4.832944393157958984e+00,1.757554531097412109e+00,1.745009541511535645e+00,1.764864683151245117e+00,5.000000000000000000e+00,5.000000000000000000e+00,5.000000000000000000e+00,5.000000000000000000e+00,5.000000000000000000e+00,5.000000000000000000e+00,5.000000000000000000e+00,5.000000000000000000e+00,5.000000000000000000e+00,5.000000000000000000e+00,5.000000000000000000e+00,5.000000000000000000e+00,5.000000000000000000e+00,5.000000000000000000e+00,5.000000000000000000e+00,5.000000000000000000e+00,5.000000000000000000e+00,5.000000000000000000e+00,5.000000000000000000e+00,5.000000000000000000e+00,5.000000000000000000e+00,5.000000000000000000e+00,5.000000000000000000e+00,5.000000000000000000e+00,5.000000000000000000e+00,5.000000000000000000e+00,5.000000000000000000e+00,5.000000000000000000e+00,5.000000000000000000e+00,5.000000000000000000e+00,5.000000000000000000e+00,5.000000000000000000e+00
1.934136509895324707e+00,1.960865974426269531e+00,1.988344311714172363e+00,2.016603708267211914e+00,2.045678138732910156e+00,2.075603008270263672e+00,2.106416702270507812e+00,2.138159036636352539e+00,2.170876502990722656e+00,2.204610586166381836e+00,2.239409923553466797e+00,2.275325298309326172e+00,2.312411546707153320e+00,2.350726604461669922e+00,2.390328884124755859e+00,2.431287527084350586e+00,2.473674535751342773e+00,2.517565488815307617e+00,2.563042402267456055e+00,2.610192298889160156e+00,2.659109592437744141e+00,2.709895372390747070e+00,2.762658834457397461e+00,2.817517757415771484e+00,2.874599456787109375e+00,2.934041976928710938e+00,2.995994567871093750e+00,3.060620069503784180e+00,3.128095149993896484e+00,3.198611974716186523e+00,3.272382020950317383e+00,3.349634885787963867e+00,3.430623531341552734e+00,3.515625238418579102e+00,1.923314571380615234e+00,1.823914527893066406e+00,1.783985733985900879e+00,1.763536691665649414e+00,1.748139023780822754e+00,1.700392842292785645e+00,1.686618804931640625e+00,1.694334268569946289e+00,1.721020221710205078e+00,1.755196094512939453e+00,4.832772254943847656e+00,1.752990245819091797e+00,1.742829799652099609e+00,1.774974465370178223e+00,5.000000000000000000e+00,5.000000000000000000e+00,5.000000000000000000e+00,5.000000000000000000e+00,5.000000000000000000e+00,5.000000000000000000e+00,5.000000000000000000e+00,5.000000000000000000e+00,5.000000000000000000e+00,5.000000000000000000e+00,5.000000000000000000e+00,5.000000000000000000e+00,5.000000000000000000e+00,5.000000000000000000e+00,5.000000000000000000e+00,5.000000000000000000e+00,5.000000000000000000e+00,5.000000000000000000e+00,5.000000000000000000e+00,5.000000000000000000e+00,5.000000000000000000e+00,5.000000000000000000e+00,5.000000000000000000e+00,5.000000000000000000e+00,5.000000000000000000e+00,5.000000000000000000e+00,5.000000000000000000e+00,5.000000000000000000e+00,5.000000000000000000e+00,5.000000000000000000e+00,5.000000000000000000e+00,5.000000000000000000e+00
1.934108376502990723e+00,1.960836768150329590e+00,1.988314390182495117e+00,2.016572952270507812e+00,2.045646429061889648e+00,2.075570583343505859e+00,2.106383085250854492e+00,2.138124227523803711e+00,2.170836687088012695e+00,2.204565525054931641e+00,2.239362955093383789e+00,2.275276899337768555e+00,2.312361478805541992e+00,2.350674867630004883e+00,2.390279531478881836e+00,2.431241512298583984e+00,2.473628044128417969e+00,2.517517328262329102e+00,2.562992572784423828e+00,2.610140800476074219e+00,2.659055948257446289e+00,2.709839582443237305e+00,2.762600898742675781e+00,2.817457675933837891e+00,2.874536514282226562e+00,2.933976650238037109e+00,2.995926618576049805e+00,3.060549259185791016e+00,3.128020763397216797e+00,3.198534727096557617e+00,3.272300958633422852e+00,3.349549531936645508e+00,3.430534124374389648e+00,1.932637095451354980e+00,1.905259370803833008e+00,1.832124352455139160e+00,1.806165456771850586e+00,1.771585941314697266e+00,1.676930427551269531e+00,1.670528650283813477e+00,1.664467930793762207e+00,1.681299805641174316e+00,1.709879994392395020e+00,1.753317832946777344e+00,4.832599639892578125e+00,1.743474006652832031e+00,1.735541343688964844e+00,1.757680654525756836e+00,5.000000000000000000e+00,5.000000000000000000e+00,5.000000000000000000e+00,5.000000000000000000e+00,5.000000000000000000e+00,5.000000000000000000e+00,5.000000000000000000e+00,5.000000000000000000e+00,5.000000000000000000e+00,5.000000000000000000e+00,5.000000000000000000e+00,5.000000000000000000e+00,5.000000000000000000e+00,5.000000000000000000e+00,5.000000000000000000e+00,5.000000000000000000e+00,5.000000000000000000e+00,5.000000000000000000e+00,5.000000000000000000e+00,5.000000000000000000e+00,5.000000000000000000e+00,5.000000000000000000e+00,5.000000000000000000e+00,5.000000000000000000e+00,5.000000000000000000e+00,5.000000000000000000e+00,5.000000000000000000e+00,5.000000000000000000e+00,5.000000000000000000e+00,5.000000000000000000e+00,5.000000000000000000e+00,5.000000000000000000e+00
1.934080004692077637e+00,1.960807681083679199e+00,1.988284468650817871e+00,2.016542196273803711e+00,2.045614719390869141e+00,2.075537919998168945e+00,2.106349468231201172e+00,2.138089656829833984e+00,2.170800924301147461e+00,2.204528570175170898e+00,2.239320993423461914e+00,2.275229454040527344e+00,2.312311410903930664e+00,2.350623130798339844e+00,2.390226125717163086e+00,2.431186199188232422e+00,2.473574638366699219e+00,2.517467260360717773e+00,2.562942743301391602e+00,2.610089063644409180e+00,2.659002304077148438e+00,2.709784030914306641e+00,2.762542963027954102e+00,2.817397356033325195e+00,2.874474048614501953e+00,2.933911561965942383e+00,2.995858430862426758e+00,3.060477972030639648e+00,3.127946615219116211e+00,3.198457241058349609e+00,3.272219419479370117e+00,3.349464654922485352e+00,3.430445194244384766e+00,1.894220352172851562e+00,1.895861387252807617e+00,1.829088211059570312e+00,1.818964719772338867e+00,1.695588707923889160e+00,1.665447354316711426e+00,1.659762382507324219e+00,1.654116034507751465e+00,1.677075862884521484e+00,1.703320622444152832e+00,1.750623226165771484e+00,4.832427024841308594e+00,1.739124059677124023e+00,1.731523990631103516e+00,1.755962133407592773e+00,5.000000000000000000e+00,5.000000000000000000e+00,5.000000000000000000e+00,5.000000000000000000e+00,5.000000000000000000e+00,5.000000000000000000e+00,5.000000000000000000e+00,5.000000000000000000e+00,5.000000000000000000e+00,5.000000000000000000e+00,5.000000000000000000e+00,5.000000000000000000e+00,5.000000000000000000e+00,5.000000000000000000e+00,5.000000000000000000e+00,5.000000000000000000e+00,5.000000000000000000e+00,5.000000000000000000e+00,5.000000000000000000e+00,5.000000000000000000e+00,5.000000000000000000e+00,5.000000000000000000e+00,5.000000000000000000e+00,5.000000000000000000e+00,5.000000000000000000e+00,5.000000000000000000e+00,5.000000000000000000e+00,5.000000000000000000e+00,5.000000000000000000e+00,5.000000000000000000e+00,5.000000000000000000e+00,5.000000000000000000e+00
1.934051752090454102e+00,1.960778594017028809e+00,1.988254547119140625e+00,2.016511440277099609e+00,2.045583248138427734e+00,2.075505256652832031e+00,2.106316089630126953e+00,2.138055086135864258e+00,2.170765161514282227e+00,2.204491853713989258e+00,2.239283323287963867e+00,2.275190114974975586e+00,2.312267541885375977e+00,2.350573062896728516e+00,2.390172481536865234e+00,2.431130886077880859e+00,2.473517179489135742e+00,2.517407894134521484e+00,2.562884569168090820e+00,2.610034227371215820e+00,2.658948898315429688e+00,2.709728240966796875e+00,2.762485265731811523e+00,2.817337036132812500e+00,2.874411344528198242e+00,2.933845996856689453e+00,2.995790481567382812e+00,3.060407161712646484e+00,3.127872467041015625e+00,3.198379516601562500e+00,3.272138595581054688e+00,3.349379539489746094e+00,1.890461087226867676e+00,1.881132960319519043e+00,1.896989107131958008e+00,1.822123050689697266e+00,1.812713861465454102e+00,1.662171602249145508e+00,1.656662583351135254e+00,1.651189923286437988e+00,1.646613121032714844e+00,1.669625163078308105e+00,1.705722570419311523e+00,1.756334066390991211e+00,4.832254886627197266e+00,5.000000000000000000e+00,1.739523053169250488e+00,5.000000000000000000e+00,5.000000000000000000e+00,5.000000000000000000e+00,5.000000000000000000e+00,5.000000000000000000e+00,5.000000000000000000e+00,5.000000000000000000e+00,5.000000000000000000e+00,5.000000000000000000e+00,5.000000000000000000e+00,5.000000000000000000e+00,5.000000000000000000e+00,5.000000000000000000e+00,5.000000000000000000e+00,5.000000000000000000e+00,5.000000000000000000e+00,5.000000000000000000e+00,5.000000000000000000e+00,5.000000000000000000e+00,5.000000000000000000e+00,5.000000000000000000e+00,5.000000000000000000e+00,5.000000000000000000e+00,5.000000000000000000e+00,5.000000000000000000e+00,5.000000000000000000e+00,5.000000000000000000e+00,5.000000000000000000e+00,5.000000000000000000e+00,5.000000000000000000e+00,5.000000000000000000e+00,5.000000000000000000e+00,5.000000000000000000e+00
1.934023380279541016e+00,1.960749506950378418e+00,1.988224625587463379e+00,2.016480684280395508e+00,2.045551538467407227e+00,2.075472831726074219e+00,2.106282472610473633e+00,2.138020515441894531e+00,2.170729637145996094e+00,2.204455137252807617e+00,2.239245414733886719e+00,2.275151014328002930e+00,2.312227010726928711e+00,2.350531578063964844e+00,2.390126466751098633e+00,2.431077957153320312e+00,2.473459959030151367e+00,2.517348527908325195e+00,2.562822818756103516e+00,2.609970331192016602e+00,2.658885002136230469e+00,2.709668159484863281e+00,2.762427330017089844e+00,2.817276954650878906e+00,2.874348640441894531e+00,2.933780908584594727e+00,2.995722293853759766e+00,3.060336112976074219e+00,3.127798318862915039e+00,3.198302030563354492e+00,3.272057056427001953e+00,3.349294424057006836e+00,1.885405421257019043e+00,1.884936213493347168e+00,1.875755190849304199e+00,1.812517523765563965e+00,1.804429769515991211e+00,1.654401421546936035e+00,1.648943781852722168e+00,1.644316792488098145e+00,1.650172829627990723e+00,1.674067378044128418e+00,1.708945393562316895e+00,4.672947406768798828e+00,4.832082748413085938e+00,1.736701726913452148e+00,1.731752872467041016e+00,5.000000000000000000e+00,5.000000000000000000e+00,5.000000000000000000e+00,5.000000000000000000e+00,5.000000000000000000e+00,5.000000000000000000e+00,5.000000000000000000e+00,5.000000000000000000e+00,5.000000000000000000e+00,5.000000000000000000e+00,5.000000000000000000e+00,5.000000000000000000e+00,5.000000000000000000e+00,5.000000000000000000e+00,5.000000000000000000e+00,5.000000000000000000e+00,5.000000000000000000e+00,5.000000000000000000e+00,5.000000000000000000e+00,5.000000000000000000e+00,5.000000000000000000e+00,5.000000000000000000e+00,5.000000000000000000e+00,5.000000000000000000e+00,5.000000000000000000e+00,5.000000000000000000e+00,5.000000000000000000e+00,5.000000000000000000e+00,5.000000000000000000e+00,5.000000000000000000e+00,5.000000000000000000e+00,5.000000000000000000e+00,5.000000000000000000e+00
1.933995127677917480e+00,1.960720419883728027e+00,1.988194704055786133e+00,2.016449928283691406e+00,2.045519828796386719e+00,2.075440168380737305e+00,2.106248855590820312e+00,2.137985944747924805e+00,2.170694112777709961e+00,2.204418420791625977e+00,2.239207267761230469e+00,2.275111913681030273e+00,2.312186717987060547e+00,2.350489616394042969e+00,2.390083074569702148e+00,2.431033372879028320e+00,2.473411321640014648e+00,2.517292976379394531e+00,2.562761306762695312e+00,2.609906673431396484e+00,2.658818721771240234e+00,2.709599256515502930e+00,2.762357473373413086e+00,2.817210912704467773e+00,2.874286174774169922e+00,2.933715581893920898e+00,2.995654344558715820e+00,3.060265064239501953e+00,3.127723932266235352e+00,3.198224306106567383e+00,3.271975994110107422e+00,3.349209547042846680e+00,1.844490647315979004e+00,1.903099298477172852e+00,1.870145082473754883e+00,1.809272408485412598e+00,1.707205533981323242e+00,1.646703600883483887e+00,1.642026662826538086e+00,1.638597965240478516e+00,1.654599547386169434e+00,1.678834676742553711e+00,1.718630552291870117e+00,4.672785758972167969e+00,1.741711378097534180e+00,1.725384593009948730e+00,1.724063873291015625e+00,1.749564409255981445e+00,5.000000000000000000e+00,5.000000000000000000e+00,5.000000000000000000e+00,5.000000000000000000e+00,5.000000000000000000e+00,5.000000000000000000e+00,5.000000000000000000e+00,5.000000000000000000e+00,5.000000000000000000e+00,5.000000000000000000e+00,5.000000000000000000e+00,5.000000000000000000e+00,5.000000000000000000e+00,5.000000000000000000e+00,5.000000000000000000e+00,5.000000000000000000e+00,5.000000000000000000e+00,5.000000000000000000e+00,5.000000000000000000e+00,5.000000000000000000e+00,5.000000000000000000e+00,5.000000000000000000e+00,5.000000000000000000e+00,5.000000000000000000e+00,5.000000000000000000e+00,5.000000000000000000e+00,5.000000000000000000e+00,5.000000000000000000e+00,5.000000000000000000e+00,5.000000000000000000e+00,5.000000000000000000e+00,5.000000000000000000e+00
1.933966755867004395e+00,1.960691332817077637e+00,1.988165020942687988e+00,2.016419172286987305e+00,2.045488119125366211e+00,2.075407505035400391e+00,2.106215476989746094e+00,2.137951374053955078e+00,2.170658349990844727e+00,2.204381704330444336e+00,2.239169597625732422e+00,2.275072813034057617e+00,2.312146186828613281e+00,2.350447893142700195e+00,2.390040159225463867e+00,2.430988788604736328e+00,2.473365068435668945e+00,2.517244815826416016e+00,2.562710046768188477e+00,2.609847545623779297e+00,2.658752679824829102e+00,2.709530591964721680e+00,2.762285947799682617e+00,2.817136526107788086e+00,2.874209403991699219e+00,2.933642625808715820e+00,2.995585918426513672e+00,3.060194015502929688e+00,3.127649784088134766e+00,3.198146820068359375e+00,3.271894693374633789e+00,1.812031626701354980e+00,1.874733209609985352e+00,3.515063285827636719e+00,1.870063185691833496e+00,1.809440970420837402e+00,1.679192423820495605e+00,1.639743208885192871e+00,1.636323809623718262e+00,1.633514881134033203e+00,1.659050226211547852e+00,1.688915729522705078e+00,1.728405356407165527e+00,4.672625064849853516e+00,1.730805039405822754e+00,1.719613790512084961e+00,1.721675992012023926e+00,1.740543723106384277e+00,5.000000000000000000e+00,5.000000000000000000e+00,5.000000000000000000e+00,5.000000000000000000e+00,5.000000000000000000e+00,5.000000000000000000e+00,5.000000000000000000e+00,5.000000000000000000e+00,5.000000000000000000e+00,5.000000000000000000e+00,5.000000000000000000e+00,5.000000000000000000e+00,5.000000000000000000e+00,5.000000000000000000e+00,5.000000000000000000e+00,5.000000000000000000e+00,5.000000000000000000e+00,5.000000000000000000e+00,5.000000000000000000e+00,5.000000000000000000e+00,5.000000000000000000e+00,5.000000000000000000e+00,5.000000000000000000e+00,5.000000000000000000e+00,5.000000000000000000e+00,5.000000000000000000e+00,5.000000000000000000e+00,5.000000000000000000e+00,5.000000000000000000e+00,5.000000000000000000e+00,5.000000000000000000e+00,5.000000000000000000e+00
1.933938503265380859e+00,1.960662484169006348e+00,1.988135099411010742e+00,2.016388416290283203e+00,2.045456647872924805e+00,2.075375080108642578e+00,2.106181859970092773e+00,2.137916803359985352e+00,2.170622825622558594e+00,2.204344987869262695e+00,2.239131689071655273e+00,2.275033712387084961e+00,2.312105655670166016e+00,2.350406169891357422e+00,2.389996767044067383e+00,2.430943965911865234e+00,2.473318815231323242e+00,2.517197132110595703e+00,2.562660455703735352e+00,2.609796047210693359e+00,2.658698081970214844e+00,2.709468126296997070e+00,2.762214660644531250e+00,2.817062377929687500e+00,2.874132156372070312e+00,2.933562040328979492e+00,2.995501518249511719e+00,3.060113668441772461e+00,3.127573728561401367e+00,3.198069095611572266e+00,1.832314968109130859e+00,1.867300510406494141e+00,1.901963710784912109e+00,3.514969348907470703e+00,1.877834796905517578e+00,1.812491297721862793e+00,1.653566241264343262e+00,1.631357312202453613e+00,1.628127813339233398e+00,1.638303756713867188e+00,1.663524866104125977e+00,1.698365569114685059e+00,4.523506164550781250e+00,4.672463893890380859e+00,1.728522539138793945e+00,1.705395936965942383e+00,1.716482281684875488e+00,1.735921382904052734e+00,5.000000000000000000e+00,5.000000000000000000e+00,5.000000000000000000e+00,5.000000000000000000e+00,5.000000000000000000e+00,5.000000000000000000e+00,5.000000000000000000e+00,5.000000000000000000e+00,5.000000000000000000e+00,5.000000000000000000e+00,5.000000000000000000e+00,5.000000000000000000e+00,5.000000000000000000e+00,5.000000000000000000e+00,5.000000000000000000e+00,5.000000000000000000e+00,5.000000000000000000e+00,5.000000000000000000e+00,5.000000000000000000e+00,5.000000000000000000e+00,5.000000000000000000e+00,5.000000000000000000e+00,5.000000000000000000e+00,5.000000000000000000e+00,5.000000000000000000e+00,5.000000000000000000e+00,5.000000000000000000e+00,5.000000000000000000e+00,5.000000000000000000e+00,5.000000000000000000e+00,5.000000000000000000e+00,5.000000000000000000e+00
1.933910369873046875e+00,1.960633397102355957e+00,1.988105177879333496e+00,2.016357660293579102e+00,2.045424938201904297e+00,2.075342416763305664e+00,2.106148242950439453e+00,2.137882232666015625e+00,2.170587301254272461e+00,2.204308271408081055e+00,2.239093542098999023e+00,2.274994373321533203e+00,2.312065362930297852e+00,2.350364446640014648e+00,2.389953613281250000e+00,2.430899381637573242e+00,2.473272562026977539e+00,2.517149209976196289e+00,2.562610626220703125e+00,2.609744548797607422e+00,2.658644676208496094e+00,2.709412574768066406e+00,2.762156724929809570e+00,2.816995382308959961e+00,2.874055862426757812e+00,2.933481693267822266e+00,2.995417594909667969e+00,3.060025930404663086e+00,3.127482175827026367e+00,1.806469917297363281e+00,1.850303888320922852e+00,1.898089885711669922e+00,3.429909706115722656e+00,3.514875888824462891e+00,1.892932415008544922e+00,1.815551757812500000e+00,1.631316184997558594e+00,1.621839404106140137e+00,1.622255444526672363e+00,1.643574237823486328e+00,1.670603871345520020e+00,1.707309484481811523e+00,4.523353099822998047e+00,4.672302722930908203e+00,4.831393718719482422e+00,1.698787331581115723e+00,1.711272001266479492e+00,1.732338070869445801e+00,5.000000000000000000e+00,5.000000000000000000e+00,5.000000000000000000e+00,5.000000000000000000e+00,5.000000000000000000e+00,5.000000000000000000e+00,5.000000000000000000e+00,5.000000000000000000e+00,5.000000000000000000e+00,5.000000000000000000e+00,5.000000000000000000e+00,5.000000000000000000e+00,5.000000000000000000e+00,5.000000000000000000e+00,5.000000000000000000e+00,5.000000000000000000e+00,5.000000000000000000e+00,5.000000000000000000e+00,5.000000000000000000e+00,5.000000000000000000e+00,5.000000000000000000e+00,5.000000000000000000e+00,5.000000000000000000e+00,5.000000000000000000e+00,5.000000000000000000e+00,5.000000000000000000e+00,5.000000000000000000e+00,5.000000000000000000e+00,5.000000000000000000e+00,5.000000000000000000e+00,5.000000000000000000e+00,5.000000000000000000e+00
1.933882117271423340e+00,1.960604190826416016e+00,1.988075256347656250e+00,2.016326904296875000e+00,2.045393228530883789e+00,2.075309753417968750e+00,2.106114625930786133e+00,2.137847661972045898e+00,2.170551538467407227e+00,2.204271554946899414e+00,2.239055633544921875e+00,2.274955511093139648e+00,2.312025070190429688e+00,2.350322484970092773e+00,2.389910459518432617e+00,2.430854797363281250e+00,2.473226308822631836e+00,2.517101287841796875e+00,2.562561035156250000e+00,2.609693050384521484e+00,2.658591270446777344e+00,2.709357023239135742e+00,2.762099027633666992e+00,2.816935539245605469e+00,2.873993158340454102e+00,2.933410406112670898e+00,2.995335817337036133e+00,3.059938192367553711e+00,3.127390623092651367e+00,1.832479000091552734e+00,1.865414261817932129e+00,1.893495559692382812e+00,3.429815053939819336e+00,3.514781951904296875e+00,3.604059934616088867e+00,1.673885107040405273e+00,1.615599513053894043e+00,1.614437937736511230e+00,1.622009634971618652e+00,1.648878693580627441e+00,1.680768132209777832e+00,4.383459091186523438e+00,4.523198127746582031e+00,4.672138690948486328e+00,4.831221580505371094e+00,5.000000000000000000e+00,1.709527015686035156e+00,5.000000000000000000e+00,5.000000000000000000e+00,5.000000000000000000e+00,5.000000000000000000e+00,5.000000000000000000e+00,5.000000000000000000e+00,5.000000000000000000e+00,5.000000000000000000e+00,5.000000000000000000e+00,5.000000000000000000e+00,5.000000000000000000e+00,5.000000000000000000e+00,5.000000000000000000e+00,5.000000000000000000e+00,5.000000000000000000e+00,5.000000000000000000e+00,5.000000000000000000e+00,5.000000000000000000e+00,5.000000000000000000e+00,5.000000000000000000e+00,5.000000000000000000e+00,5.000000000000000000e+00,5.000000000000000000e+00,5.000000000000000000e+00,5.000000000000000000e+00,5.000000000000000000e+00,5.000000000000000000e+00,5.000000000000000000e+00,5.000000000000000000e+00,5.000000000000000000e+00,5.000000000000000000e+00,5.000000000000000000e+00,5.000000000000000000e+00
1.933853745460510254e+00,1.960575103759765625e+00,1.988045334815979004e+00,2.016296148300170898e+00,2.045361757278442383e+00,2.075277328491210938e+00,2.106081247329711914e+00,2.137813091278076172e+00,2.170515775680541992e+00,2.204234600067138672e+00,2.239017963409423828e+00,2.274916172027587891e+00,2.311984539031982422e+00,2.350280761718750000e+00,2.389867305755615234e+00,2.430809974670410156e+00,2.473180055618286133e+00,2.517053127288818359e+00,2.562511444091796875e+00,2.609641551971435547e+00,2.658537864685058594e+00,2.709301471710205078e+00,2.762041568756103516e+00,2.816875457763671875e+00,2.873930692672729492e+00,2.933345079421997070e+00,2.995268106460571289e+00,3.059861898422241211e+00,3.127302646636962891e+00,3.197788476943969727e+00,3.271528482437133789e+00,3.348750114440917969e+00,3.429704904556274414e+00,3.514670848846435547e+00,3.603953599929809570e+00,1.649034619331359863e+00,1.606695175170898438e+00,1.611445426940917969e+00,1.627838373184204102e+00,1.655560135841369629e+00,1.687489628791809082e+00,4.383313655853271484e+00,4.523042678833007812e+00,4.671973228454589844e+00,4.831045627593994141e+00,5.000000000000000000e+00,5.000000000000000000e+00,5.000000000000000000e+00,5.000000000000000000e+00,5.000000000000000000e+00,5.000000000000000000e+00,5.000000000000000000e+00,5.000000000000000000e+00,5.000000000000000000e+00,5.000000000000000000e+00,5.000000000000000000e+00,5.000000000000000000e+00,5.000000000000000000e+00,5.000000000000000000e+00,5.000000000000000000e+00,5.000000000000000000e+00,5.000000000000000000e+00,5.000000000000000000e+00,5.000000000000000000e+00,5.000000000000000000e+00,5.000000000000000000e+00,5.000000000000000000e+00,5.000000000000000000e+00,5.000000000000000000e+00,5.000000000000000000e+00,5.000000000000000000e+00,5.000000000000000000e+00,5.000000000000000000e+00,5.000000000000000000e+00,5.000000000000000000e+00,5.000000000000000000e+00,5.000000000000000000e+00,5.000000000000000000e+00,5.000000000000000000e+00,5.000000000000000000e+00
1.933825492858886719e+00,1.960546016693115234e+00,1.988015413284301758e+00,2.016265392303466797e+00,2.045330047607421875e+00,2.075244903564453125e+00,2.106047630310058594e+00,2.137778520584106445e+00,2.170480251312255859e+00,2.204198122024536133e+00,2.238980054855346680e+00,2.274877071380615234e+00,2.311944007873535156e+00,2.350239038467407227e+00,2.389824151992797852e+00,2.430765151977539062e+00,2.473133802413940430e+00,2.517005443572998047e+00,2.562461614608764648e+00,2.609590053558349609e+00,2.658484220504760742e+00,2.709245920181274414e+00,2.761983871459960938e+00,2.816815376281738281e+00,2.873868227005004883e+00,2.933280229568481445e+00,2.995200157165527344e+00,3.059791088104248047e+00,3.127228736877441406e+00,3.197706460952758789e+00,3.271433830261230469e+00,3.348644733428955078e+00,3.429594755172729492e+00,3.514555215835571289e+00,3.603832006454467773e+00,1.630257248878479004e+00,1.603186011314392090e+00,1.609582066535949707e+00,1.633708834648132324e+00,1.662704229354858398e+00,4.251821994781494141e+00,4.383168220520019531e+00,4.522887706756591797e+00,4.671807765960693359e+00,4.830868721008300781e+00,5.000000000000000000e+00,5.000000000000000000e+00,5.000000000000000000e+00,5.000000000000000000e+00,5.000000000000000000e+00,5.000000000000000000e+00,5.000000000000000000e+00,5.000000000000000000e+00,5.000000000000000000e+00,5.000000000000000000e+00,5.000000000000000000e+00,5.000000000000000000e+00,5.000000000000000000e+00,5.000000000000000000e+00,5.000000000000000000e+00,5.000000000000000000e+00,5.000000000000000000e+00,5.000000000000000000e+00,5.000000000000000000e+00,5.000000000000000000e+00,5.000000000000000000e+00,5.000000000000000000e+00,5.000000000000000000e+00,5.000000000000000000e+00,5.000000000000000000e+00,5.000000000000000000e+00,5.000000000000000000e+00,5.000000000000000000e+00,5.000000000000000000e+00,5.000000000000000000e+00,5.000000000000000000e+00,5.000000000000000000e+00,5.000000000000000000e+00,5.000000000000000000e+00,5.000000000000000000e+00
1.933797121047973633e+00,1.960516929626464844e+00,1.987985491752624512e+00,2.016234636306762695e+00,2.045298576354980469e+00,2.075212240219116211e+00,2.106014013290405273e+00,2.137743949890136719e+00,2.170444726943969727e+00,2.204161167144775391e+00,2.238941907882690430e+00,2.274837970733642578e+00,2.311903715133666992e+00,2.350197315216064453e+00,2.389780759811401367e+00,2.430720567703247070e+00,2.473087549209594727e+00,2.516957521438598633e+00,2.562412023544311523e+00,2.609538555145263672e+00,2.658431053161621094e+00,2.709190368652343750e+00,2.761925935745239258e+00,2.816755294799804688e+00,2.873805999755859375e+00,2.933215141296386719e+00,2.995132446289062500e+00,3.059720039367675781e+00,3.127154827117919922e+00,3.197628974914550781e+00,3.271352767944335938e+00,3.348556280136108398e+00,3.429492235183715820e+00,3.514439582824707031e+00,3.603710412979125977e+00,1.622168898582458496e+00,1.603741049766540527e+00,1.612552881240844727e+00,1.640190243721008301e+00,1.666346073150634766e+00,4.251685142517089844e+00,4.383022308349609375e+00,4.522732734680175781e+00,4.671642303466796875e+00,4.830691814422607422e+00,5.000000000000000000e+00,5.000000000000000000e+00,5.000000000000000000e+00,5.000000000000000000e+00,5.000000000000000000e+00,5.000000000000000000e+00,5.000000000000000000e+00,5.000000000000000000e+00,5.000000000000000000e+00,5.000000000000000000e+00,5.000000000000000000e+00,5.000000000000000000e+00,5.000000000000000000e+00,5.000000000000000000e+00,5.000000000000000000e+00,5.000000000000000000e+00,5.000000000000000000e+00,5.000000000000000000e+00,5.000000000000000000e+00,5.000000000000000000e+00,5.000000000000000000e+00,5.000000000000000000e+00,5.000000000000000000e+00,5.000000000000000000e+00,5.000000000000000000e+00,5.000000000000000000e+00,5.000000000000000000e+00,5.000000000000000000e+00,5.000000000000000000e+00,5.000000000000000000e+00,5.000000000000000000e+00,5.000000000000000000e+00,5.000000000000000000e+00,5.000000000000000000e+00,5.000000000000000000e+00
1.933768868446350098e+00,1.960487842559814453e+00,1.987955570220947266e+00,2.016203880310058594e+00,2.045266866683959961e+00,2.075179576873779297e+00,2.105980396270751953e+00,2.137709379196166992e+00,2.170408964157104492e+00,2.204124450683593750e+00,2.238903999328613281e+00,2.274798870086669922e+00,2.311863183975219727e+00,2.350155591964721680e+00,2.389737606048583984e+00,2.430675983428955078e+00,2.473041296005249023e+00,2.516909599304199219e+00,2.562362432479858398e+00,2.609487056732177734e+00,2.658377408981323242e+00,2.709134817123413086e+00,2.761868238449096680e+00,2.816695451736450195e+00,2.873743534088134766e+00,2.933150053024291992e+00,2.995064496994018555e+00,3.059649467468261719e+00,3.127080917358398438e+00,3.197551727294921875e+00,3.271271705627441406e+00,3.348471641540527344e+00,3.429403066635131836e+00,3.514343500137329102e+00,3.603598594665527344e+00,1.633397936820983887e+00,1.609289407730102539e+00,1.617664217948913574e+00,1.639710426330566406e+00,1.674358010292053223e+00,4.251529693603515625e+00,4.382873058319091797e+00,4.522577285766601562e+00,4.671476840972900391e+00,4.830514907836914062e+00,5.000000000000000000e+00,5.000000000000000000e+00,5.000000000000000000e+00,5.000000000000000000e+00,5.000000000000000000e+00,5.000000000000000000e+00,5.000000000000000000e+00,5.000000000000000000e+00,5.000000000000000000e+00,5.000000000000000000e+00,5.000000000000000000e+00,5.000000000000000000e+00,5.000000000000000000e+00,5.000000000000000000e+00,5.000000000000000000e+00,5.000000000000000000e+00,5.000000000000000000e+00,5.000000000000000000e+00,5.000000000000000000e+00,5.000000000000000000e+00,5.000000000000000000e+00,5.000000000000000000e+00,5.000000000000000000e+00,5.000000000000000000e+00,5.000000000000000000e+00,5.000000000000000000e+00,5.000000000000000000e+00,5.000000000000000000e+00,5.000000000000000000e+00,5.000000000000000000e+00,5.000000000000000000e+00,5.000000000000000000e+00,5.000000000000000000e+00,5.000000000000000000e+00,5.000000000000000000e+00
1.933740496635437012e+00,1.960458993911743164e+00,1.987925887107849121e+00,2.016173124313354492e+00,2.045235157012939453e+00,2.075147151947021484e+00,2.105947017669677734e+00,2.137674808502197266e+00,2.170373439788818359e+00,2.204087972640991211e+00,2.238866329193115234e+00,2.274759769439697266e+00,2.311822891235351562e+00,2.350113868713378906e+00,2.389694452285766602e+00,2.430631160736083984e+00,2.472995042800903320e+00,2.516861677169799805e+00,2.562312841415405273e+00,2.609435558319091797e+00,2.658324003219604492e+00,2.709079504013061523e+00,2.761810779571533203e+00,2.816635370254516602e+00,2.873680830001831055e+00,2.933085203170776367e+00,2.994996786117553711e+00,3.059578657150268555e+00,3.127006769180297852e+00,3.197474479675292969e+00,3.271191120147705078e+00,3.348386764526367188e+00,3.429314136505126953e+00,3.514250516891479492e+00,3.603500604629516602e+00,1.655550241470336914e+00,1.619425177574157715e+00,1.625947713851928711e+00,1.638054847717285156e+00,1.670001745223999023e+00,4.251360893249511719e+00,4.382693290710449219e+00,4.522398948669433594e+00,4.671304702758789062e+00,4.830338001251220703e+00,5.000000000000000000e+00,5.000000000000000000e+00,5.000000000000000000e+00,5.000000000000000000e+00,5.000000000000000000e+00,5.000000000000000000e+00,5.000000000000000000e+00,5.000000000000000000e+00,5.000000000000000000e+00,5.000000000000000000e+00,5.000000000000000000e+00,5.000000000000000000e+00,5.000000000000000000e+00,5.000000000000000000e+00,5.000000000000000000e+00,5.000000000000000000e+00,5.000000000000000000e+00,5.000000000000000000e+00,5.000000000000000000e+00,5.000000000000000000e+00,5.000000000000000000e+00,5.000000000000000000e+00,5.000000000000000000e+00,5.000000000000000000e+00,5.000000000000000000e+00,5.000000000000000000e+00,5.000000000000000000e+00,5.000000000000000000e+00,5.000000000000000000e+00,5.000000000000000000e+00,5.000000000000000000e+00,5.000000000000000000e+00,5.000000000000000000e+00,5.000000000000000000e+00,5.000000000000000000e+00
1.933712482452392578e+00,1.960429906845092773e+00,1.987895965576171875e+00,2.016142368316650391e+00,2.045203685760498047e+00,2.075114488601684570e+00,2.105913400650024414e+00,2.137640237808227539e+00,2.170337915420532227e+00,2.204051017761230469e+00,2.238828420639038086e+00,2.274720668792724609e+00,2.311782598495483398e+00,2.350072145462036133e+00,2.389651298522949219e+00,2.430586576461791992e+00,2.472948789596557617e+00,2.516813755035400391e+00,2.562263011932373047e+00,2.609384059906005859e+00,2.658270835876464844e+00,2.709023952484130859e+00,2.761753082275390625e+00,2.816575527191162109e+00,2.873618602752685547e+00,2.933020114898681641e+00,2.994928836822509766e+00,3.059507846832275391e+00,3.126933097839355469e+00,3.197397232055664062e+00,3.271110057830810547e+00,3.348301887512207031e+00,3.429225444793701172e+00,3.514156818389892578e+00,3.603402376174926758e+00,1.838381767272949219e+00,1.629904985427856445e+00,1.634241938591003418e+00,1.639873743057250977e+00,1.663000583648681641e+00,1.943734049797058105e+00,4.382513523101806641e+00,4.522207736968994141e+00,4.671100139617919922e+00,4.830131530761718750e+00,5.000000000000000000e+00,5.000000000000000000e+00,5.000000000000000000e+00,5.000000000000000000e+00,5.000000000000000000e+00,5.000000000000000000e+00,5.000000000000000000e+00,5.000000000000000000e+00,5.000000000000000000e+00,5.000000000000000000e+00,5.000000000000000000e+00,5.000000000000000000e+00,5.000000000000000000e+00,5.000000000000000000e+00,5.000000000000000000e+00,5.000000000000000000e+00,5.000000000000000000e+00,5.000000000000000000e+00,5.000000000000000000e+00,5.000000000000000000e+00,5.000000000000000000e+00,5.000000000000000000e+00,5.000000000000000000e+00,5.000000000000000000e+00,5.000000000000000000e+00,5.000000000000000000e+00,5.000000000000000000e+00,5.000000000000000000e+00,5.000000000000000000e+00,5.000000000000000000e+00,5.000000000000000000e+00,5.000000000000000000e+00,5.000000000000000000e+00,5.000000000000000000e+00,5.000000000000000000e+00
1.933684110641479492e+00,1.960400819778442383e+00,1.987866044044494629e+00,2.016111850738525391e+00,2.045171976089477539e+00,2.075081825256347656e+00,2.105879783630371094e+00,2.137605905532836914e+00,2.170302152633666992e+00,2.204014301300048828e+00,2.238790273666381836e+00,2.274681568145751953e+00,2.311742067337036133e+00,2.350030183792114258e+00,2.389608144760131836e+00,2.430541992187500000e+00,2.472902536392211914e+00,2.516765832901000977e+00,2.562213420867919922e+00,2.609332799911499023e+00,2.658217191696166992e+00,2.708968400955200195e+00,2.761695384979248047e+00,2.816515684127807617e+00,2.873556137084960938e+00,2.932955026626586914e+00,2.994860887527465820e+00,3.059437274932861328e+00,3.126859188079833984e+00,3.197319746017456055e+00,3.271028995513916016e+00,3.348217487335205078e+00,3.429136514663696289e+00,3.514063358306884766e+00,3.603304147720336914e+00,3.697195768356323242e+00,1.649857401847839355e+00,1.642621397972106934e+00,1.644599080085754395e+00,1.658633828163146973e+00,1.919582724571228027e+00,1.984354853630065918e+00,4.522016525268554688e+00,4.670896053314208984e+00,4.829913139343261719e+00,5.000000000000000000e+00,5.000000000000000000e+00,5.000000000000000000e+00,5.000000000000000000e+00,5.000000000000000000e+00,5.000000000000000000e+00,5.000000000000000000e+00,5.000000000000000000e+00,5.000000000000000000e+00,5.000000000000000000e+00,5.000000000000000000e+00,5.000000000000000000e+00,5.000000000000000000e+00,5.000000000000000000e+00,5.000000000000000000e+00,5.000000000000000000e+00,5.000000000000000000e+00,5.000000000000000000e+00,5.000000000000000000e+00,5.000000000000000000e+00,5.000000000000000000e+00,5.000000000000000000e+00,5.000000000000000000e+00,5.000000000000000000e+00,5.000000000000000000e+00,5.000000000000000000e+00,5.000000000000000000e+00,5.000000000000000000e+00,5.000000000000000000e+00,5.000000000000000000e+00,5.000000000000000000e+00,5.000000000000000000e+00,5.000000000000000000e+00,5.000000000000000000e+00,5.000000000000000000e+00
1.933655858039855957e+00,1.960371732711791992e+00,1.987836122512817383e+00,2.016081094741821289e+00,2.045140266418457031e+00,2.075049400329589844e+00,2.105846405029296875e+00,2.137571334838867188e+00,2.170266628265380859e+00,2.203977584838867188e+00,2.238752603530883789e+00,2.274642467498779297e+00,2.311701536178588867e+00,2.349988460540771484e+00,2.389564990997314453e+00,2.430497169494628906e+00,2.472856283187866211e+00,2.516717910766601562e+00,2.562163829803466797e+00,2.609281301498413086e+00,2.658163785934448242e+00,2.708912849426269531e+00,2.761637687683105469e+00,2.816455602645874023e+00,2.873493671417236328e+00,2.932889699935913086e+00,2.994793415069580078e+00,3.059366464614868164e+00,3.126785039901733398e+00,3.197242498397827148e+00,3.270948410034179688e+00,3.348132610321044922e+00,3.429047346115112305e+00,3.513969898223876953e+00,3.603206157684326172e+00,3.697092294692993164e+00,1.684899091720581055e+00,1.648956537246704102e+00,1.649169087409973145e+00,1.662938356399536133e+00,1.713161945343017578e+00,1.960581421852111816e+00,4.521851062774658203e+00,4.670701026916503906e+00,4.829694747924804688e+00,4.999904632568359375e+00,5.000000000000000000e+00,5.000000000000000000e+00,5.000000000000000000e+00,5.000000000000000000e+00,5.000000000000000000e+00,5.000000000000000000e+00,5.000000000000000000e+00,5.000000000000000000e+00,5.000000000000000000e+00,5.000000000000000000e+00,5.000000000000000000e+00,5.000000000000000000e+00,5.000000000000000000e+00,5.000000000000000000e+00,5.000000000000000000e+00,5.000000000000000000e+00,5.000000000000000000e+00,5.000000000000000000e+00,5.000000000000000000e+00,5.000000000000000000e+00,5.000000000000000000e+00,5.000000000000000000e+00,5.000000000000000000e+00,5.000000000000000000e+00,5.000000000000000000e+00,5.000000000000000000e+00,5.000000000000000000e+00,5.000000000000000000e+00,5.000000000000000000e+00,5.000000000000000000e+00,5.000000000000000000e+00,5.000000000000000000e+00,5.000000000000000000e+00,5.000000000000000000e+00
1.933627605438232422e+00,1.960342645645141602e+00,1.987806200981140137e+00,2.016050338745117188e+00,2.045108556747436523e+00,2.075016975402832031e+00,2.105812788009643555e+00,2.137536764144897461e+00,2.170230865478515625e+00,2.203940868377685547e+00,2.238714694976806641e+00,2.274603128433227539e+00,2.311661243438720703e+00,2.349946737289428711e+00,2.389521837234497070e+00,2.430452585220336914e+00,2.472810029983520508e+00,2.516670227050781250e+00,2.562114238739013672e+00,2.609229564666748047e+00,2.658110141754150391e+00,2.708857536315917969e+00,2.761579990386962891e+00,2.816395521163940430e+00,2.873431205749511719e+00,2.932824850082397461e+00,2.994725465774536133e+00,3.059295415878295898e+00,3.126711130142211914e+00,3.197165250778198242e+00,3.270867347717285156e+00,3.348047733306884766e+00,3.428958415985107422e+00,3.513876914978027344e+00,3.603107929229736328e+00,3.696988821029663086e+00,1.689567685127258301e+00,1.650313854217529297e+00,1.653457045555114746e+00,1.667117476463317871e+00,1.717544198036193848e+00,1.969798564910888672e+00,2.015133619308471680e+00,4.670536518096923828e+00,4.829508781433105469e+00,4.999684810638427734e+00,5.000000000000000000e+00,5.000000000000000000e+00,5.000000000000000000e+00,5.000000000000000000e+00,5.000000000000000000e+00,5.000000000000000000e+00,5.000000000000000000e+00,5.000000000000000000e+00,5.000000000000000000e+00,5.000000000000000000e+00,5.000000000000000000e+00,5.000000000000000000e+00,5.000000000000000000e+00,5.000000000000000000e+00,5.000000000000000000e+00,5.000000000000000000e+00,5.000000000000000000e+00,5.000000000000000000e+00,5.000000000000000000e+00,5.000000000000000000e+00,5.000000000000000000e+00,5.000000000000000000e+00,5.000000000000000000e+00,5.000000000000000000e+00,5.000000000000000000e+00,5.000000000000000000e+00,5.000000000000000000e+00,5.000000000000000000e+00,5.000000000000000000e+00,5.000000000000000000e+00,5.000000000000000000e+00,5.000000000000000000e+00,5.000000000000000000e+00,5.000000000000000000e+00
1.933599233627319336e+00,1.960313558578491211e+00,1.987776279449462891e+00,2.016019582748413086e+00,2.045077085494995117e+00,2.074984312057495117e+00,2.105779409408569336e+00,2.137502193450927734e+00,2.170195341110229492e+00,2.203904151916503906e+00,2.238676786422729492e+00,2.274564027786254883e+00,2.311620950698852539e+00,2.349905014038085938e+00,2.389478683471679688e+00,2.430407762527465820e+00,2.472764015197753906e+00,2.516622304916381836e+00,2.562064647674560547e+00,2.609178066253662109e+00,2.658056974411010742e+00,2.708801984786987305e+00,2.761522293090820312e+00,2.816335439682006836e+00,2.873368978500366211e+00,2.932759761810302734e+00,2.994657516479492188e+00,3.059224605560302734e+00,3.126637458801269531e+00,3.197088003158569336e+00,3.270786523818969727e+00,3.347962856292724609e+00,3.428869724273681641e+00,3.513783454895019531e+00,3.603009700775146484e+00,3.696885347366333008e+00,1.691161751747131348e+00,1.651673555374145508e+00,1.657784581184387207e+00,1.671317696571350098e+00,1.977960348129272461e+00,1.982503890991210938e+00,2.008953094482421875e+00,2.073993444442749023e+00,4.829332351684570312e+00,4.999495506286621094e+00,5.000000000000000000e+00,5.000000000000000000e+00,5.000000000000000000e+00,5.000000000000000000e+00,5.000000000000000000e+00,5.000000000000000000e+00,5.000000000000000000e+00,5.000000000000000000e+00,5.000000000000000000e+00,5.000000000000000000e+00,5.000000000000000000e+00,5.000000000000000000e+00,5.000000000000000000e+00,5.000000000000000000e+00,5.000000000000000000e+00,5.000000000000000000e+00,5.000000000000000000e+00,5.000000000000000000e+00,5.000000000000000000e+00,5.000000000000000000e+00,5.000000000000000000e+00,5.000000000000000000e+00,5.000000000000000000e+00,5.000000000000000000e+00,5.000000000000000000e+00,5.000000000000000000e+00,5.000000000000000000e+00,5.000000000000000000e+00,5.000000000000000000e+00,5.000000000000000000e+00,5.000000000000000000e+00,5.000000000000000000e+00,5.000000000000000000e+00,5.000000000000000000e+00
1.933570981025695801e+00,1.960284471511840820e+00,1.987746357917785645e+00,2.015988826751708984e+00,2.045045375823974609e+00,2.074951648712158203e+00,2.105745792388916016e+00,2.137467622756958008e+00,2.170159816741943359e+00,2.203867435455322266e+00,2.238638639450073242e+00,2.274524927139282227e+00,2.311580419540405273e+00,2.349863290786743164e+00,2.389435291290283203e+00,2.430363416671752930e+00,2.472717523574829102e+00,2.516574382781982422e+00,2.562014818191528320e+00,2.609126806259155273e+00,2.658003568649291992e+00,2.708746433258056641e+00,2.761464595794677734e+00,2.816275596618652344e+00,2.873306512832641602e+00,2.932694673538208008e+00,2.994589805603027344e+00,3.059154033660888672e+00,3.126563310623168945e+00,3.197010517120361328e+00,3.270705461502075195e+00,3.347878217697143555e+00,3.428780794143676758e+00,3.513689994812011719e+00,3.602911472320556641e+00,3.696782112121582031e+00,1.692714810371398926e+00,1.653892755508422852e+00,1.662134885787963867e+00,1.675539135932922363e+00,2.011451959609985352e+00,2.011380434036254883e+00,2.025178432464599609e+00,2.055862188339233398e+00,4.829155921936035156e+00,4.999306678771972656e+00,5.000000000000000000e+00,5.000000000000000000e+00,5.000000000000000000e+00,5.000000000000000000e+00,5.000000000000000000e+00,5.000000000000000000e+00,5.000000000000000000e+00,5.000000000000000000e+00,5.000000000000000000e+00,5.000000000000000000e+00,5.000000000000000000e+00,5.000000000000000000e+00,5.000000000000000000e+00,5.000000000000000000e+00,5.000000000000000000e+00,5.000000000000000000e+00,5.000000000000000000e+00,5.000000000000000000e+00,5.000000000000000000e+00,5.000000000000000000e+00,5.000000000000000000e+00,5.000000000000000000e+00,5.000000000000000000e+00,5.000000000000000000e+00,5.000000000000000000e+00,5.000000000000000000e+00,5.000000000000000000e+00,5.000000000000000000e+00,5.000000000000000000e+00,5.000000000000000000e+00,5.000000000000000000e+00,5.000000000000000000e+00,5.000000000000000000e+00,5.000000000000000000e+00
1.933542609214782715e+00,1.960255622863769531e+00,1.987716674804687500e+00,2.015958070755004883e+00,2.045013666152954102e+00,2.074919223785400391e+00,2.105712413787841797e+00,2.137433052062988281e+00,2.170124053955078125e+00,2.203830718994140625e+00,2.238600969314575195e+00,2.274485826492309570e+00,2.311539888381958008e+00,2.349821567535400391e+00,2.389392375946044922e+00,2.430318593978881836e+00,2.472671270370483398e+00,2.516526460647583008e+00,2.561965465545654297e+00,2.609075307846069336e+00,2.657949924468994141e+00,2.708691120147705078e+00,2.761407136917114258e+00,2.816215515136718750e+00,2.873243808746337891e+00,2.932629823684692383e+00,2.994522094726562500e+00,3.059083223342895508e+00,3.126489400863647461e+00,3.196933507919311523e+00,3.270624876022338867e+00,3.347793340682983398e+00,3.428691864013671875e+00,3.513596773147583008e+00,3.602813482284545898e+00,3.696678876876831055e+00,1.694271445274353027e+00,1.657296538352966309e+00,1.666507959365844727e+00,1.679857015609741211e+00,4.250360012054443359e+00,2.047945261001586914e+00,2.048812627792358398e+00,2.072008848190307617e+00,2.112092733383178711e+00,2.192848205566406250e+00,5.000000000000000000e+00,5.000000000000000000e+00,5.000000000000000000e+00,5.000000000000000000e+00,5.000000000000000000e+00,5.000000000000000000e+00,5.000000000000000000e+00,5.000000000000000000e+00,5.000000000000000000e+00,5.000000000000000000e+00,5.000000000000000000e+00,5.000000000000000000e+00,5.000000000000000000e+00,5.000000000000000000e+00,5.000000000000000000e+00,5.000000000000000000e+00,5.000000000000000000e+00,5.000000000000000000e+00,5.000000000000000000e+00,5.000000000000000000e+00,5.000000000000000000e+00,5.000000000000000000e+00,5.000000000000000000e+00,5.000000000000000000e+00,5.000000000000000000e+00,5.000000000000000000e+00,5.000000000000000000e+00,5.000000000000000000e+00,5.000000000000000000e+00,5.000000000000000000e+00,5.000000000000000000e+00,5.000000000000000000e+00,5.000000000000000000e+00,5.000000000000000000e+00
1.933514595031738281e+00,1.960226535797119141e+00,1.987686872482299805e+00,2.015927314758300781e+00,2.044982194900512695e+00,2.074886560440063477e+00,2.105678796768188477e+00,2.137398481369018555e+00,2.170088529586791992e+00,2.203794002532958984e+00,2.238563060760498047e+00,2.274446725845336914e+00,2.311499595642089844e+00,2.349779844284057617e+00,2.389348983764648438e+00,2.430273771286010742e+00,2.472625255584716797e+00,2.516478538513183594e+00,2.561915636062622070e+00,2.609023809432983398e+00,2.657896757125854492e+00,2.708635568618774414e+00,2.761349439620971680e+00,2.816155672073364258e+00,2.873181581497192383e+00,2.932564735412597656e+00,2.994454145431518555e+00,3.059012413024902344e+00,3.126415729522705078e+00,3.196856260299682617e+00,3.270543813705444336e+00,3.347708702087402344e+00,3.428603172302246094e+00,3.513503313064575195e+00,3.602715253829956055e+00,3.696575403213500977e+00,1.698692083358764648e+00,1.664046406745910645e+00,1.671342611312866211e+00,1.684635043144226074e+00,4.250223636627197266e+00,4.381468772888183594e+00,4.521078109741210938e+00,2.092047929763793945e+00,2.123752832412719727e+00,2.172636747360229492e+00,5.000000000000000000e+00,5.000000000000000000e+00,5.000000000000000000e+00,5.000000000000000000e+00,5.000000000000000000e+00,5.000000000000000000e+00,5.000000000000000000e+00,5.000000000000000000e+00,5.000000000000000000e+00,5.000000000000000000e+00,5.000000000000000000e+00,5.000000000000000000e+00,5.000000000000000000e+00,5.000000000000000000e+00,5.000000000000000000e+00,5.000000000000000000e+00,5.000000000000000000e+00,5.000000000000000000e+00,5.000000000000000000e+00,5.000000000000000000e+00,5.000000000000000000e+00,5.000000000000000000e+00,5.000000000000000000e+00,5.000000000000000000e+00,5.000000000000000000e+00,5.000000000000000000e+00,5.000000000000000000e+00,5.000000000000000000e+00,5.000000000000000000e+00,5.000000000000000000e+00,5.000000000000000000e+00,5.000000000000000000e+00,5.000000000000000000e+00,5.000000000000000000e+00
1.933486223220825195e+00,1.960197448730468750e+00,1.987656950950622559e+00,2.015896797180175781e+00,2.044950485229492188e+00,2.074854135513305664e+00,2.105645179748535156e+00,2.137363910675048828e+00,2.170053005218505859e+00,2.203757286071777344e+00,2.238525152206420898e+00,2.274407625198364258e+00,2.311459302902221680e+00,2.349737882614135742e+00,2.389305830001831055e+00,2.430229425430297852e+00,2.472579002380371094e+00,2.516430616378784180e+00,2.561866044998168945e+00,2.608972311019897461e+00,2.657843351364135742e+00,2.708580255508422852e+00,2.761291742324829102e+00,2.816095829010009766e+00,2.873119115829467773e+00,2.932499647140502930e+00,2.994386434555053711e+00,3.058941841125488281e+00,3.126341819763183594e+00,3.196778774261474609e+00,3.270462751388549805e+00,3.347624063491821289e+00,3.428514242172241211e+00,3.513409852981567383e+00,3.602617025375366211e+00,3.696472406387329102e+00,1.703135967254638672e+00,1.672181725502014160e+00,1.676506996154785156e+00,1.689881801605224609e+00,4.250086784362792969e+00,4.381323337554931641e+00,4.520923137664794922e+00,4.669712066650390625e+00,2.129055261611938477e+00,4.998739719390869141e+00,5.000000000000000000e+00,5.000000000000000000e+00,5.000000000000000000e+00,5.000000000000000000e+00,5.000000000000000000e+00,5.000000000000000000e+00,5.000000000000000000e+00,5.000000000000000000e+00,5.000000000000000000e+00,5.000000000000000000e+00,5.000000000000000000e+00,5.000000000000000000e+00,5.000000000000000000e+00,5.000000000000000000e+00,5.000000000000000000e+00,5.000000000000000000e+00,5.000000000000000000e+00,5.000000000000000000e+00,5.000000000000000000e+00,5.000000000000000000e+00,5.000000000000000000e+00,5.000000000000000000e+00,5.000000000000000000e+00,5.000000000000000000e+00,5.000000000000000000e+00,5.000000000000000000e+00,5.000000000000000000e+00,5.000000000000000000e+00,5.000000000000000000e+00,5.000000000000000000e+00,5.000000000000000000e+00,5.000000000000000000e+00,5.000000000000000000e+00,5.000000000000000000e+00
1.933457970619201660e+00,1.960168361663818359e+00,1.987627029418945312e+00,2.015866041183471680e+00,2.044919013977050781e+00,2.074821472167968750e+00,2.105611801147460938e+00,2.137329339981079102e+00,2.170017242431640625e+00,2.203720569610595703e+00,2.238487243652343750e+00,2.274368524551391602e+00,2.311418771743774414e+00,2.349696159362792969e+00,2.389262914657592773e+00,2.430184602737426758e+00,2.472532749176025391e+00,2.516382694244384766e+00,2.561816453933715820e+00,2.608920812606811523e+00,2.657789707183837891e+00,2.708524703979492188e+00,2.761234283447265625e+00,2.816035747528076172e+00,2.873056650161743164e+00,2.932434558868408203e+00,2.994318723678588867e+00,3.058871030807495117e+00,3.126267671585083008e+00,3.196701526641845703e+00,3.270382165908813477e+00,3.347539186477661133e+00,3.428425073623657227e+00,3.513316631317138672e+00,3.602519035339355469e+00,3.696368932723999023e+00,3.795239210128784180e+00,1.675872802734375000e+00,1.681862354278564453e+00,1.695161461830139160e+00,4.249950408935546875e+00,4.381178379058837891e+00,4.520769119262695312e+00,4.669547080993652344e+00,2.131330013275146484e+00,4.819959640502929688e+00,4.818771839141845703e+00,4.817584991455078125e+00,4.816398620605468750e+00,4.815212249755859375e+00,4.814027309417724609e+00,4.812842369079589844e+00,4.811658382415771484e+00,4.810474872589111328e+00,4.809291839599609375e+00,4.808109760284423828e+00,4.806927680969238281e+00,4.805746555328369141e+00,4.804565906524658203e+00,4.803385734558105469e+00,4.802206039428710938e+00,4.801027297973632812e+00,4.799849033355712891e+00,4.798671245574951172e+00,4.797493934631347656e+00,4.796317577362060547e+00,4.795141696929931641e+00,4.793966293334960938e+00,4.792791366577148438e+00,4.791616916656494141e+00,4.790443420410156250e+00,4.789270401000976562e+00,4.788097858428955078e+00,4.786925792694091797e+00,4.785754680633544922e+00,4.784583568572998047e+00,4.783413410186767578e+00,4.782243251800537109e+00,4.781074523925781250e+00,4.779905796051025391e+00
1.933429718017578125e+00,1.960139274597167969e+00,1.987597107887268066e+00,2.015835285186767578e+00,2.044887304306030273e+00,2.074789047241210938e+00,2.105578184127807617e+00,2.137294769287109375e+00,2.169981718063354492e+00,2.203683853149414062e+00,2.238449335098266602e+00,2.274329423904418945e+00,2.311378240585327148e+00,2.349654436111450195e+00,2.389219522476196289e+00,2.430140018463134766e+00,2.472486495971679688e+00,2.516335010528564453e+00,2.561766862869262695e+00,2.608869314193725586e+00,2.657736301422119141e+00,2.708469390869140625e+00,2.761176586151123047e+00,2.815975666046142578e+00,2.872994184494018555e+00,2.932369709014892578e+00,2.994250774383544922e+00,3.058800220489501953e+00,3.126193761825561523e+00,3.196624517440795898e+00,3.270301103591918945e+00,3.347454547882080078e+00,3.428336143493652344e+00,3.513223409652709961e+00,3.602420806884765625e+00,3.696265459060668945e+00,3.751460075378417969e+00,1.679580211639404297e+00,1.687266230583190918e+00,1.700474262237548828e+00,3.748584270477294922e+00,3.747865676879882812e+00,3.747147798538208008e+00,3.746430397033691406e+00,2.136396169662475586e+00,2.138655662536621094e+00,3.744278192520141602e+00,3.743561267852783203e+00,3.742845296859741211e+00,3.742128849029541016e+00,3.741412878036499023e+00,3.740697145462036133e+00,3.739982128143310547e+00,3.739267110824584961e+00,3.738552093505859375e+00,3.737837791442871094e+00,3.737123489379882812e+00,3.736409425735473633e+00,3.735695600509643555e+00,3.734982490539550781e+00,3.734269142150878906e+00,3.733556032180786133e+00,3.732843399047851562e+00,3.732131242752075195e+00,3.731419086456298828e+00,3.730707168579101562e+00,3.729995489120483398e+00,3.729284524917602539e+00,3.728573560714721680e+00,3.727862596511840820e+00,3.727152585983276367e+00,3.726442098617553711e+00,3.725732088088989258e+00,3.725022315979003906e+00,3.724313259124755859e+00,3.723604202270507812e+00,3.722895145416259766e+00,3.722186565399169922e+00,3.721478462219238281e+00,3.720770359039306641e+00
1.933401346206665039e+00,1.960110187530517578e+00,1.987567186355590820e+00,2.015804290771484375e+00,2.044855833053588867e+00,2.074756383895874023e+00,2.105544567108154297e+00,2.137260198593139648e+00,2.169946193695068359e+00,2.203647136688232422e+00,2.238411426544189453e+00,2.274290323257446289e+00,2.311338186264038086e+00,2.349612712860107422e+00,2.389176368713378906e+00,2.430095195770263672e+00,2.472440242767333984e+00,2.516287088394165039e+00,2.561717033386230469e+00,2.608817815780639648e+00,2.657683134078979492e+00,2.708413839340209961e+00,2.761118650436401367e+00,2.815915822982788086e+00,2.872931957244873047e+00,2.932304620742797852e+00,2.994183063507080078e+00,3.058729410171508789e+00,3.070250034332275391e+00,3.069768428802490234e+00,3.069286584854125977e+00,3.068805217742919922e+00,3.068323850631713867e+00,3.067842483520507812e+00,3.067361593246459961e+00,3.066880464553833008e+00,3.066399812698364258e+00,1.699086427688598633e+00,1.702869772911071777e+00,3.064958572387695312e+00,3.064478158950805664e+00,3.063998222351074219e+00,3.063518285751342773e+00,3.063038587570190430e+00,2.142619371414184570e+00,3.062079429626464844e+00,3.061600446701049805e+00,3.061120986938476562e+00,3.060642004013061523e+00,3.060163021087646484e+00,3.059684276580810547e+00,3.059205770492553711e+00,3.058727264404296875e+00,3.058248996734619141e+00,3.057770729064941406e+00,3.057292699813842773e+00,3.056814670562744141e+00,3.056337118148803711e+00,3.055859565734863281e+00,3.055382013320922852e+00,3.054904699325561523e+00,3.054427862167358398e+00,3.053950786590576172e+00,3.053473949432373047e+00,3.052997112274169922e+00,3.052520751953125000e+00,3.052044391632080078e+00,3.051568031311035156e+00,3.051092147827148438e+00,3.050616264343261719e+00,3.050140380859375000e+00,3.049664497375488281e+00,3.049189329147338867e+00,3.048713922500610352e+00,3.048238754272460938e+00,3.047763586044311523e+00,3.047288894653320312e+00,3.046813964843750000e+00,3.046339511871337891e+00,3.045864820480346680e+00
1.933373093605041504e+00,1.960081100463867188e+00,1.987537264823913574e+00,2.015773773193359375e+00,2.044824123382568359e+00,2.074723720550537109e+00,2.105510950088500977e+00,2.137225866317749023e+00,2.169910430908203125e+00,2.203610420227050781e+00,2.238373517990112305e+00,2.274251222610473633e+00,2.311297655105590820e+00,2.349570989608764648e+00,2.389133214950561523e+00,2.430050611495971680e+00,2.472393989562988281e+00,2.516239166259765625e+00,2.561667442321777344e+00,2.598761558532714844e+00,2.598416090011596680e+00,2.598071098327636719e+00,2.597725868225097656e+00,2.597381114959716797e+00,2.597036123275756836e+00,2.596691370010375977e+00,2.596346855163574219e+00,2.596002101898193359e+00,2.595657825469970703e+00,2.595313310623168945e+00,2.594969034194946289e+00,2.594624757766723633e+00,2.594280719757080078e+00,2.593936681747436523e+00,2.593592643737792969e+00,2.593248844146728516e+00,2.592905044555664062e+00,1.698606014251708984e+00,1.702531218528747559e+00,1.749780893325805664e+00,2.591531038284301758e+00,2.591187715530395508e+00,2.590844631195068359e+00,2.590501308441162109e+00,2.590158224105834961e+00,2.589815378189086914e+00,2.589472532272338867e+00,2.589129924774169922e+00,2.588787078857421875e+00,2.588444471359252930e+00,2.588102102279663086e+00,2.587759733200073242e+00,2.587417364120483398e+00,2.587074995040893555e+00,2.586732625961303711e+00,2.586390733718872070e+00,2.586048603057861328e+00,2.585706710815429688e+00,2.585364818572998047e+00,2.585023403167724609e+00,2.584681510925292969e+00,2.584340095520019531e+00,2.583998441696166992e+00,2.583657264709472656e+00,2.583315849304199219e+00,2.582974672317504883e+00,2.582633495330810547e+00,2.582292795181274414e+00,2.581951618194580078e+00,2.581610918045043945e+00,2.581270217895507812e+00,2.580929517745971680e+00,2.580588817596435547e+00,2.580248355865478516e+00,2.579908132553100586e+00,2.579567909240722656e+00,2.579227447509765625e+00,2.578887462615966797e+00,2.578547477722167969e+00,2.578207492828369141e+00
1.933344721794128418e+00,1.960052013397216797e+00,1.987507581710815430e+00,2.015743017196655273e+00,2.044792413711547852e+00,2.074691295623779297e+00,2.105477571487426758e+00,2.137191295623779297e+00,2.169874906539916992e+00,2.203573703765869141e+00,2.238335847854614258e+00,2.252545833587646484e+00,2.252286434173583984e+00,2.252027034759521484e+00,2.251767873764038086e+00,2.251508712768554688e+00,2.251249551773071289e+00,2.250990390777587891e+00,2.250731468200683594e+00,2.250472545623779297e+00,2.250213623046875000e+00,2.249954700469970703e+00,2.249696016311645508e+00,2.249437332153320312e+00,2.249178647994995117e+00,2.248919963836669922e+00,2.248661518096923828e+00,2.248403072357177734e+00,2.248144626617431641e+00,2.247886419296264648e+00,2.247627973556518555e+00,2.247369766235351562e+00,2.247111558914184570e+00,2.246853351593017578e+00,2.246595382690429688e+00,2.246337413787841797e+00,1.677686333656311035e+00,1.683503746986389160e+00,1.699734449386596680e+00,1.739397287368774414e+00,2.245048284530639648e+00,2.244790554046630859e+00,2.244533061981201172e+00,2.244275569915771484e+00,2.244018077850341797e+00,2.243760585784912109e+00,2.243503093719482422e+00,2.243245840072631836e+00,2.242988824844360352e+00,2.242731571197509766e+00,2.242474555969238281e+00,2.242217302322387695e+00,2.241960287094116211e+00,2.241703271865844727e+00,2.241446495056152344e+00,2.241189718246459961e+00,2.240932703018188477e+00,2.240676164627075195e+00,2.240419387817382812e+00,2.240162849426269531e+00,2.239906072616577148e+00,2.239649772644042969e+00,2.239393234252929688e+00,2.239136934280395508e+00,2.238880395889282227e+00,2.238624334335327148e+00,2.238368034362792969e+00,2.238111734390258789e+00,2.237855911254882812e+00,2.237599849700927734e+00,2.237343788146972656e+00,2.237087726593017578e+00,2.236831903457641602e+00,2.236576080322265625e+00,2.236320257186889648e+00,2.236064672470092773e+00,2.235809087753295898e+00,2.235553503036499023e+00,2.235297918319702148e+00,2.235042333602905273e+00
1.933316707611083984e+00,1.960023164749145508e+00,1.987477779388427734e+00,1.987733244895935059e+00,1.987531423568725586e+00,1.987329363822937012e+00,1.987127423286437988e+00,1.986925482749938965e+00,1.986723899841308594e+00,1.986522078514099121e+00,1.986320257186889648e+00,1.986118793487548828e+00,1.985917091369628906e+00,1.985715389251708984e+00,1.985513806343078613e+00,1.985312461853027344e+00,1.985110878944396973e+00,1.984909415245056152e+00,1.984708189964294434e+00,1.984506726264953613e+00,1.984305262565612793e+00,1.984103918075561523e+00,1.983902931213378906e+00,1.983701586723327637e+00,1.983500480651855469e+00,1.983299493789672852e+00,1.983098387718200684e+00,1.982897281646728516e+00,1.982696175575256348e+00,1.982495427131652832e+00,1.982294440269470215e+00,1.982093453407287598e+00,1.981892824172973633e+00,1.981691956520080566e+00,1.661693096160888672e+00,1.652756452560424805e+00,1.655658602714538574e+00,1.667460918426513672e+00,1.694489479064941406e+00,1.737377405166625977e+00,1.980287551879882812e+00,1.980087041854858398e+00,1.979886531829833984e+00,1.979686379432678223e+00,1.979485988616943359e+00,1.979285597801208496e+00,1.979085445404052734e+00,1.978885173797607422e+00,1.978684902191162109e+00,1.978484749794006348e+00,1.978284835815429688e+00,1.978084683418273926e+00,1.977884531021118164e+00,1.977684736251831055e+00,1.977484703063964844e+00,1.977284789085388184e+00,1.977084875106811523e+00,1.976885199546813965e+00,1.976685404777526855e+00,1.976485610008239746e+00,1.976285815238952637e+00,1.976086139678955078e+00,1.975886344909667969e+00,1.975687026977539062e+00,1.975487351417541504e+00,1.975287795066833496e+00,1.975088238716125488e+00,1.974888801574707031e+00,1.974689364433288574e+00,1.974489927291870117e+00,1.974290847778320312e+00,1.974091529846191406e+00,1.973892211914062500e+00,1.973693013191223145e+00,1.973493814468383789e+00,1.973294615745544434e+00,1.973095536231994629e+00,1.972896456718444824e+00,1.972697615623474121e+00,1.972498655319213867e+00
1.777826189994812012e+00,1.777664542198181152e+00,1.777503132820129395e+00,1.777341604232788086e+00,1.777180075645446777e+00,1.777018785476684570e+00,1.776857256889343262e+00,1.776695847511291504e+00,1.776534438133239746e+00,1.776373267173767090e+00,1.776211857795715332e+00,1.776050567626953125e+00,1.775889396667480469e+00,1.775728106498718262e+00,1.775566935539245605e+00,1.775405645370483398e+00,1.775244712829589844e+00,1.775083541870117188e+00,1.774922370910644531e+00,1.774761557579040527e+00,1.774600386619567871e+00,1.774439334869384766e+00,1.774278402328491211e+00,1.774117588996887207e+00,1.773956656455993652e+00,1.773795723915100098e+00,1.773635029792785645e+00,1.773474097251892090e+00,1.773313283920288086e+00,1.773152470588684082e+00,1.772991895675659180e+00,1.772831201553344727e+00,1.633008956909179688e+00,1.620482444763183594e+00,1.618131399154663086e+00,1.617581248283386230e+00,1.628543019294738770e+00,1.662802934646606445e+00,1.771707177162170410e+00,1.771546602249145508e+00,1.771386265754699707e+00,1.771225810050964355e+00,1.771065354347229004e+00,1.770905017852783203e+00,1.770744800567626953e+00,1.770584464073181152e+00,1.770424127578735352e+00,1.770264029502868652e+00,1.770103812217712402e+00,1.769943594932556152e+00,1.769783377647399902e+00,1.769623398780822754e+00,1.769463300704956055e+00,1.769303202629089355e+00,1.769143223762512207e+00,1.768983244895935059e+00,1.768823266029357910e+00,1.768663167953491211e+00,1.768503427505493164e+00,1.768343567848205566e+00,1.768183588981628418e+00,1.768023848533630371e+00,1.767864108085632324e+00,1.767704248428344727e+00,1.767544507980346680e+00,1.767384648323059082e+00,1.767224907875061035e+00,1.767065286636352539e+00,1.766905784606933594e+00,1.766746163368225098e+00,1.766586542129516602e+00,1.766426920890808105e+00,1.766267418861389160e+00,1.766107797622680664e+00,1.765948295593261719e+00,1.765788912773132324e+00,1.765629649162292480e+00,1.765470266342163086e+00,1.765310883522033691e+00,1.765151500701904297e+00
1.607621192932128906e+00,1.607488989830017090e+00,1.607356905937194824e+00,1.607224941253662109e+00,1.607092738151550293e+00,1.606960773468017578e+00,1.606828808784484863e+00,1.606696844100952148e+00,1.606564760208129883e+00,1.606432795524597168e+00,1.606300950050354004e+00,1.606169104576110840e+00,1.606037139892578125e+00,1.605905413627624512e+00,1.605773448944091797e+00,1.605641603469848633e+00,1.605509757995605469e+00,1.605378150939941406e+00,1.605246305465698242e+00,1.605114579200744629e+00,1.604982972145080566e+00,1.604851245880126953e+00,1.604719519615173340e+00,1.604587912559509277e+00,1.604456424713134766e+00,1.604324698448181152e+00,1.604193091392517090e+00,1.604061722755432129e+00,1.603930115699768066e+00,1.603798508644104004e+00,1.603667020797729492e+00,1.603535652160644531e+00,1.603404164314270020e+00,1.603272676467895508e+00,1.603141427040100098e+00,1.603009939193725586e+00,1.602878570556640625e+00,1.602747201919555664e+00,1.602615952491760254e+00,1.602484703063964844e+00,1.602353334426879883e+00,1.602222204208374023e+00,1.602090954780578613e+00,1.601959705352783203e+00,1.601828455924987793e+00,1.601697444915771484e+00,1.601566195487976074e+00,1.601435065269470215e+00,1.601304054260253906e+00,1.601172924041748047e+00,1.601041793823242188e+00,1.600910782814025879e+00,1.600779891014099121e+00,1.600648760795593262e+00,1.600517749786376953e+00,1.600386977195739746e+00,1.600255966186523438e+00,1.600125074386596680e+00,1.599994063377380371e+00,1.599863290786743164e+00,1.599732398986816406e+00,1.599601507186889648e+00,1.599470853805541992e+00,1.599340081214904785e+00,1.599209189414978027e+00,1.599078416824340820e+00,1.598947882652282715e+00,1.598817110061645508e+00,1.598686456680297852e+00,1.598555684089660645e+00,1.598425030708312988e+00,1.598294377326965332e+00,1.598163723945617676e+00,1.598033189773559570e+00,1.597902655601501465e+00,1.597772121429443359e+00,1.597641587257385254e+00,1.597511053085327148e+00,1.597380518913269043e+00,1.597250103950500488e+00
1.467158555984497070e+00,1.467048645019531250e+00,1.466938495635986328e+00,1.466828465461730957e+00,1.466718554496765137e+00,1.466608643531799316e+00,1.466498613357543945e+00,1.466388702392578125e+00,1.466278791427612305e+00,1.466168880462646484e+00,1.466058969497680664e+00,1.465949177742004395e+00,1.465839266777038574e+00,1.465729355812072754e+00,1.465619683265686035e+00,1.465509772300720215e+00,1.465399980545043945e+00,1.465290188789367676e+00,1.465180516242980957e+00,1.465070724487304688e+00,1.464960932731628418e+00,1.464851260185241699e+00,1.464741587638854980e+00,1.464631915092468262e+00,1.464522123336791992e+00,1.464412569999694824e+00,1.464302897453308105e+00,1.464193344116210938e+00,1.464083790779113770e+00,1.463974237442016602e+00,1.463864564895629883e+00,1.463755011558532715e+00,1.463645577430725098e+00,1.463536024093627930e+00,1.463426470756530762e+00,1.463317036628723145e+00,1.463207602500915527e+00,1.463098168373107910e+00,1.462988615036010742e+00,1.462879300117492676e+00,1.462769865989685059e+00,1.462660431861877441e+00,1.462551236152648926e+00,1.462441802024841309e+00,1.462332487106323242e+00,1.462223052978515625e+00,1.462113857269287109e+00,1.462004542350769043e+00,1.461895227432250977e+00,1.461786150932312012e+00,1.461676836013793945e+00,1.461567640304565430e+00,1.461458325386047363e+00,1.461349248886108398e+00,1.461240053176879883e+00,1.461130857467651367e+00,1.461021900177001953e+00,1.460912704467773438e+00,1.460803508758544922e+00,1.460694432258605957e+00,1.460585474967956543e+00,1.460476398468017578e+00,1.460367321968078613e+00,1.460258364677429199e+00,1.460149288177490234e+00,1.460040330886840820e+00,1.459931254386901855e+00,1.459822416305541992e+00,1.459713459014892578e+00,1.459604501724243164e+00,1.459495663642883301e+00,1.459386706352233887e+00,1.459277868270874023e+00,1.459168910980224609e+00,1.459060072898864746e+00,1.458951115608215332e+00,1.458842277526855469e+00,1.458733439445495605e+00,1.458624720573425293e+00,1.458515882492065430e+00
1.349269032478332520e+00,1.349175930023193359e+00,1.349082946777343750e+00,1.348989844322204590e+00,1.348896861076354980e+00,1.348803877830505371e+00,1.348710894584655762e+00,1.348617792129516602e+00,1.348524808883666992e+00,1.348431944847106934e+00,1.348338961601257324e+00,1.348245978355407715e+00,1.348153114318847656e+00,1.348060250282287598e+00,1.347967267036437988e+00,1.347874402999877930e+00,1.347781538963317871e+00,1.347688674926757812e+00,1.347595810890197754e+00,1.347503066062927246e+00,1.347410202026367188e+00,1.347317337989807129e+00,1.347224593162536621e+00,1.347131848335266113e+00,1.347039103507995605e+00,1.346946239471435547e+00,1.346853613853454590e+00,1.346760869026184082e+00,1.346668124198913574e+00,1.346575498580932617e+00,1.346482753753662109e+00,1.346390008926391602e+00,1.346297264099121094e+00,1.346204757690429688e+00,1.346112012863159180e+00,1.346019387245178223e+00,1.345926880836486816e+00,1.345834255218505859e+00,1.345741629600524902e+00,1.345649003982543945e+00,1.345556497573852539e+00,1.345463871955871582e+00,1.345371365547180176e+00,1.345278859138488770e+00,1.345186352729797363e+00,1.345093846321105957e+00,1.345001339912414551e+00,1.344908833503723145e+00,1.344816446304321289e+00,1.344723939895629883e+00,1.344631552696228027e+00,1.344539046287536621e+00,1.344446659088134766e+00,1.344354152679443359e+00,1.344261884689331055e+00,1.344169497489929199e+00,1.344077110290527344e+00,1.343984842300415039e+00,1.343892455101013184e+00,1.343800067901611328e+00,1.343707680702209473e+00,1.343615531921386719e+00,1.343523144721984863e+00,1.343430876731872559e+00,1.343338727951049805e+00,1.343246459960937500e+00,1.343154191970825195e+00,1.343061923980712891e+00,1.342969775199890137e+00,1.342877507209777832e+00,1.342785358428955078e+00,1.342693209648132324e+00,1.342601060867309570e+00,1.342508792877197266e+00,1.342416644096374512e+00,1.342324614524841309e+00,1.342232465744018555e+00,1.342140197753906250e+00,1.342048287391662598e+00,1.341956138610839844e+00
1.248915791511535645e+00,1.248836040496826172e+00,1.248756289482116699e+00,1.248676657676696777e+00,1.248596906661987305e+00,1.248517274856567383e+00,1.248437643051147461e+00,1.248357892036437988e+00,1.248278260231018066e+00,1.248198509216308594e+00,1.248118996620178223e+00,1.248039245605468750e+00,1.247959613800048828e+00,1.247880101203918457e+00,1.247800469398498535e+00,1.247720837593078613e+00,1.247641205787658691e+00,1.247561693191528320e+00,1.247482061386108398e+00,1.247402548789978027e+00,1.247323036193847656e+00,1.247243523597717285e+00,1.247163891792297363e+00,1.247084379196166992e+00,1.247004985809326172e+00,1.246925473213195801e+00,1.246845960617065430e+00,1.246766567230224609e+00,1.246687054634094238e+00,1.246607542037963867e+00,1.246528029441833496e+00,1.246448755264282227e+00,1.246369242668151855e+00,1.246289849281311035e+00,1.246210455894470215e+00,1.246131062507629395e+00,1.246051669120788574e+00,1.245972275733947754e+00,1.245893001556396484e+00,1.245813608169555664e+00,1.245734214782714844e+00,1.245654940605163574e+00,1.245575666427612305e+00,1.245496273040771484e+00,1.245416998863220215e+00,1.245337724685668945e+00,1.245258450508117676e+00,1.245179057121276855e+00,1.245099902153015137e+00,1.245020627975463867e+00,1.244941353797912598e+00,1.244862198829650879e+00,1.244782924652099609e+00,1.244703769683837891e+00,1.244624495506286621e+00,1.244545340538024902e+00,1.244466185569763184e+00,1.244387030601501465e+00,1.244307875633239746e+00,1.244228720664978027e+00,1.244149565696716309e+00,1.244070410728454590e+00,1.243991374969482422e+00,1.243912220001220703e+00,1.243833065032958984e+00,1.243754029273986816e+00,1.243674993515014648e+00,1.243595838546752930e+00,1.243516802787780762e+00,1.243437767028808594e+00,1.243358731269836426e+00,1.243279695510864258e+00,1.243200659751892090e+00,1.243121623992919922e+00,1.243042707443237305e+00,1.242963671684265137e+00,1.242884755134582520e+00,1.242805719375610352e+00,1.242726802825927734e+00,1.242647886276245117e+00
1.162456989288330078e+00,1.162387847900390625e+00,1.162318825721740723e+00,1.162249684333801270e+00,1.162180662155151367e+00,1.162111639976501465e+00,1.162042617797851562e+00,1.161973595619201660e+00,1.161904573440551758e+00,1.161835551261901855e+00,1.161766529083251953e+00,1.161697506904602051e+00,1.161628603935241699e+00,1.161559581756591797e+00,1.161490678787231445e+00,1.161421656608581543e+00,1.161352634429931641e+00,1.161283731460571289e+00,1.161214828491210938e+00,1.161145806312561035e+00,1.161076903343200684e+00,1.161008000373840332e+00,1.160939097404479980e+00,1.160870194435119629e+00,1.160801291465759277e+00,1.160732388496398926e+00,1.160663485527038574e+00,1.160594701766967773e+00,1.160525798797607422e+00,1.160457015037536621e+00,1.160388112068176270e+00,1.160319209098815918e+00,1.160250425338745117e+00,1.160181641578674316e+00,1.160112857818603516e+00,1.160044074058532715e+00,1.159975290298461914e+00,1.159906387329101562e+00,1.159837603569030762e+00,1.159768939018249512e+00,1.159700155258178711e+00,1.159631371498107910e+00,1.159562706947326660e+00,1.159493923187255859e+00,1.159425139427185059e+00,1.159356355667114258e+00,1.159287810325622559e+00,1.159219026565551758e+00,1.159150362014770508e+00,1.159081697463989258e+00,1.159012913703918457e+00,1.158944249153137207e+00,1.158875584602355957e+00,1.158807039260864258e+00,1.158738374710083008e+00,1.158669710159301758e+00,1.158601045608520508e+00,1.158532381057739258e+00,1.158463835716247559e+00,1.158395171165466309e+00,1.158326625823974609e+00,1.158258080482482910e+00,1.158189415931701660e+00,1.158120870590209961e+00,1.158052325248718262e+00,1.157983779907226562e+00,1.157915234565734863e+00,1.157846689224243164e+00,1.157778143882751465e+00,1.157709598541259766e+00,1.157641172409057617e+00,1.157572627067565918e+00,1.157504081726074219e+00,1.157435655593872070e+00,1.157367110252380371e+00,1.157298684120178223e+00,1.157230138778686523e+00,1.157161712646484375e+00,1.157093286514282227e+00,1.157024860382080078e+00
1.087193608283996582e+00,1.087133169174194336e+00,1.087072730064392090e+00,1.087012410163879395e+00,1.086951971054077148e+00,1.086891531944274902e+00,1.086831212043762207e+00,1.086770772933959961e+00,1.086710453033447266e+00,1.086650013923645020e+00,1.086589694023132324e+00,1.086529254913330078e+00,1.086468935012817383e+00,1.086408615112304688e+00,1.086348295211791992e+00,1.086287975311279297e+00,1.086227655410766602e+00,1.086167335510253906e+00,1.086107015609741211e+00,1.086046695709228516e+00,1.085986375808715820e+00,1.085926055908203125e+00,1.085865855216979980e+00,1.085805535316467285e+00,1.085745334625244141e+00,1.085685014724731445e+00,1.085624814033508301e+00,1.085564494132995605e+00,1.085504293441772461e+00,1.085444092750549316e+00,1.085383772850036621e+00,1.085323572158813477e+00,1.085263371467590332e+00,1.085203170776367188e+00,1.085142970085144043e+00,1.085082769393920898e+00,1.085022568702697754e+00,1.084962368011474609e+00,1.084902167320251465e+00,1.084842085838317871e+00,1.084781885147094727e+00,1.084721684455871582e+00,1.084661602973937988e+00,1.084601402282714844e+00,1.084541320800781250e+00,1.084481120109558105e+00,1.084421038627624512e+00,1.084360957145690918e+00,1.084300875663757324e+00,1.084240674972534180e+00,1.084180593490600586e+00,1.084120512008666992e+00,1.084060430526733398e+00,1.084000349044799805e+00,1.083940267562866211e+00,1.083880186080932617e+00,1.083820223808288574e+00,1.083760142326354980e+00,1.083700060844421387e+00,1.083640098571777344e+00,1.083580017089843750e+00,1.083520054817199707e+00,1.083459973335266113e+00,1.083400011062622070e+00,1.083340048789978027e+00,1.083279967308044434e+00,1.083220005035400391e+00,1.083159923553466797e+00,1.083100080490112305e+00,1.083039999008178711e+00,1.082980036735534668e+00,1.082920193672180176e+00,1.082860231399536133e+00,1.082800269126892090e+00,1.082740306854248047e+00,1.082680344581604004e+00,1.082620501518249512e+00,1.082560539245605469e+00,1.082500696182250977e+00,1.082440733909606934e+00
1.021083474159240723e+00,1.021030187606811523e+00,1.020976901054382324e+00,1.020923614501953125e+00,1.020870327949523926e+00,1.020817041397094727e+00,1.020763874053955078e+00,1.020710587501525879e+00,1.020657300949096680e+00,1.020604014396667480e+00,1.020550727844238281e+00,1.020497560501098633e+00,1.020444273948669434e+00,1.020391106605529785e+00,1.020337820053100586e+00,1.020284652709960938e+00,1.020231366157531738e+00,1.020178198814392090e+00,1.020125031471252441e+00,1.020071744918823242e+00,1.020018577575683594e+00,1.019965410232543945e+00,1.019912242889404297e+00,1.019859075546264648e+00,1.019805908203125000e+00,1.019752740859985352e+00,1.019699573516845703e+00,1.019646406173706055e+00,1.019593238830566406e+00,1.019540071487426758e+00,1.019487023353576660e+00,1.019433856010437012e+00,1.019380688667297363e+00,1.019327521324157715e+00,1.019274473190307617e+00,1.019221305847167969e+00,1.019168257713317871e+00,1.019115209579467773e+00,1.019062042236328125e+00,1.019008994102478027e+00,1.018955826759338379e+00,1.018902778625488281e+00,1.018849730491638184e+00,1.018796682357788086e+00,1.018743634223937988e+00,1.018690586090087891e+00,1.018637537956237793e+00,1.018584489822387695e+00,1.018531441688537598e+00,1.018478393554687500e+00,1.018425345420837402e+00,1.018372416496276855e+00,1.018319368362426758e+00,1.018266320228576660e+00,1.018213272094726562e+00,1.018160343170166016e+00,1.018107295036315918e+00,1.018054366111755371e+00,1.018001317977905273e+00,1.017948389053344727e+00,1.017895340919494629e+00,1.017842411994934082e+00,1.017789483070373535e+00,1.017736554145812988e+00,1.017683506011962891e+00,1.017630696296691895e+00,1.017577648162841797e+00,1.017524719238281250e+00,1.017471790313720703e+00,1.017418861389160156e+00,1.017365932464599609e+00,1.017313003540039062e+00,1.017260193824768066e+00,1.017207264900207520e+00,1.017154335975646973e+00,1.017101407051086426e+00,1.017048597335815430e+00,1.016995668411254883e+00,1.016942858695983887e+00,1.016889929771423340e+00
9.625526666641235352e-01,9.625052809715270996e-01,9.624579548835754395e-01,9.624105691909790039e-01,9.623631834983825684e-01,9.623157978057861328e-01,9.622684717178344727e-01,9.622212052345275879e-01,9.621738791465759277e-01,9.621265530586242676e-01,9.620791673660278320e-01,9.620318412780761719e-01,9.619845151901245117e-01,9.619371891021728516e-01,9.618899822235107422e-01,9.618427157402038574e-01,9.617953896522521973e-01,9.617480635643005371e-01,9.617007970809936523e-01,9.616534709930419922e-01,9.616062045097351074e-01,9.615589976310729980e-01,9.615117311477661133e-01,9.614644646644592285e-01,9.614171981811523438e-01,9.613699316978454590e-01,9.613226652145385742e-01,9.612753987312316895e-01,9.612282514572143555e-01,9.611809849739074707e-01,9.611337780952453613e-01,9.610865116119384766e-01,9.610393047332763672e-01,9.609920382499694824e-01,9.609448313713073730e-01,9.608976840972900391e-01,9.608504772186279297e-01,9.608032703399658203e-01,9.607560634613037109e-01,9.607088565826416016e-01,9.606616497039794922e-01,9.606145024299621582e-01,9.605674147605895996e-01,9.605202078819274902e-01,9.604730606079101562e-01,9.604258537292480469e-01,9.603787064552307129e-01,9.603314995765686035e-01,9.602843523025512695e-01,9.602373242378234863e-01,9.601901769638061523e-01,9.601430296897888184e-01,9.600958824157714844e-01,9.600487351417541504e-01,9.600015878677368164e-01,9.599544405937194824e-01,9.599074721336364746e-01,9.598603248596191406e-01,9.598132371902465820e-01,9.597660899162292480e-01,9.597190022468566895e-01,9.596719145774841309e-01,9.596248269081115723e-01,9.595777988433837891e-01,9.595307111740112305e-01,9.594836235046386719e-01,9.594365954399108887e-01,9.593895077705383301e-01,9.593424201011657715e-01,9.592953324317932129e-01,9.592484235763549805e-01,9.592013359069824219e-01,9.591543078422546387e-01,9.591072797775268555e-01,9.590601921081542969e-01,9.590131640434265137e-01,9.589661359786987305e-01,9.589192271232604980e-01,9.588721990585327148e-01,9.588251709938049316e-01
9.103681445121765137e-01,9.103258252143859863e-01,9.102834463119506836e-01,9.102410674095153809e-01,9.101987481117248535e-01,9.101563692092895508e-01,9.101139903068542480e-01,9.100716114044189453e-01,9.100293517112731934e-01,9.099870324134826660e-01,9.099446535110473633e-01,9.099023342132568359e-01,9.098600149154663086e-01,9.098176360130310059e-01,9.097753167152404785e-01,9.097331166267395020e-01,9.096907973289489746e-01,9.096484780311584473e-01,9.096061587333679199e-01,9.095638394355773926e-01,9.095215201377868652e-01,9.094792008399963379e-01,9.094370007514953613e-01,9.093947410583496094e-01,9.093524217605590820e-01,9.093101620674133301e-01,9.092678427696228027e-01,9.092255830764770508e-01,9.091833233833312988e-01,9.091411232948303223e-01,9.090988636016845703e-01,9.090566039085388184e-01,9.090143442153930664e-01,9.089720845222473145e-01,9.089298248291015625e-01,9.088875651359558105e-01,9.088454246520996094e-01,9.088032245635986328e-01,9.087609648704528809e-01,9.087187647819519043e-01,9.086765050888061523e-01,9.086343050003051758e-01,9.085920453071594238e-01,9.085499644279479980e-01,9.085077047348022461e-01,9.084655046463012695e-01,9.084233045578002930e-01,9.083811044692993164e-01,9.083389043807983398e-01,9.082967042922973633e-01,9.082546234130859375e-01,9.082124233245849609e-01,9.081702828407287598e-01,9.081280827522277832e-01,9.080859422683715820e-01,9.080437421798706055e-01,9.080016016960144043e-01,9.079595208168029785e-01,9.079173803329467773e-01,9.078752398490905762e-01,9.078330397605895996e-01,9.077908992767333984e-01,9.077487587928771973e-01,9.077066183090209961e-01,9.076645970344543457e-01,9.076224565505981445e-01,9.075803160667419434e-01,9.075382351875305176e-01,9.074960947036743164e-01,9.074540138244628906e-01,9.074118733406066895e-01,9.073698520660400391e-01,9.073277711868286133e-01,9.072856903076171875e-01,9.072435498237609863e-01,9.072014689445495605e-01,9.071593880653381348e-01,9.071173071861267090e-01,9.070753455162048340e-01,9.070332646369934082e-01
8.635510206222534180e-01,8.635128736495971680e-01,8.634748458862304688e-01,8.634366989135742188e-01,8.633986115455627441e-01,8.633604645729064941e-01,8.633223176002502441e-01,8.632842302322387695e-01,8.632461428642272949e-01,8.632081151008605957e-01,8.631699681282043457e-01,8.631318807601928711e-01,8.630937933921813965e-01,8.630557060241699219e-01,8.630176186561584473e-01,8.629795312881469727e-01,8.629415035247802734e-01,8.629034161567687988e-01,8.628653883934020996e-01,8.628273010253906250e-01,8.627892136573791504e-01,8.627511262893676758e-01,8.627130985260009766e-01,8.626751303672790527e-01,8.626370429992675781e-01,8.625990152359008789e-01,8.625609278678894043e-01,8.625229001045227051e-01,8.624848723411560059e-01,8.624468445777893066e-01,8.624088764190673828e-01,8.623708486557006836e-01,8.623328208923339844e-01,8.622947931289672852e-01,8.622567653656005859e-01,8.622187376022338867e-01,8.621807098388671875e-01,8.621428012847900391e-01,8.621047735214233398e-01,8.620667457580566406e-01,8.620287775993347168e-01,8.619907498359680176e-01,8.619527816772460938e-01,8.619147539138793945e-01,8.618768453598022461e-01,8.618388772010803223e-01,8.618009090423583984e-01,8.617629408836364746e-01,8.617249727249145508e-01,8.616869449615478516e-01,8.616489768028259277e-01,8.616111278533935547e-01,8.615731596946716309e-01,8.615351915359497070e-01,8.614972233772277832e-01,8.614592552185058594e-01,8.614213466644287109e-01,8.613833785057067871e-01,8.613455295562744141e-01,8.613075613975524902e-01,8.612696528434753418e-01,8.612317442893981934e-01,8.611937761306762695e-01,8.611558675765991211e-01,8.611179590225219727e-01,8.610801100730895996e-01,8.610422015190124512e-01,8.610042929649353027e-01,8.609663844108581543e-01,8.609284758567810059e-01,8.608905673027038574e-01,8.608526587486267090e-01,8.608148694038391113e-01,8.607769608497619629e-01,8.607390522956848145e-01,8.607011437416076660e-01,8.606632947921752930e-01,8.606253862380981445e-01,8.605875372886657715e-01,8.605497479438781738e-01
