5.000000000000000000e+00,5.000000000000000000e+00,5.000000000000000000e+00,5.000000000000000000e+00,5.000000000000000000e+00,5.000000000000000000e+00,5.000000000000000000e+00,5.000000000000000000e+00,5.000000000000000000e+00,5.000000000000000000e+00,5.000000000000000000e+00,5.000000000000000000e+00,5.000000000000000000e+00,5.000000000000000000e+00,5.000000000000000000e+00,5.000000000000000000e+00,5.000000000000000000e+00,5.000000000000000000e+00,5.000000000000000000e+00,5.000000000000000000e+00,5.000000000000000000e+00,5.000000000000000000e+00,5.000000000000000000e+00,5.000000000000000000e+00,5.000000000000000000e+00,5.000000000000000000e+00,5.000000000000000000e+00,5.000000000000000000e+00,5.000000000000000000e+00,5.000000000000000000e+00,5.000000000000000000e+00,5.000000000000000000e+00,5.000000000000000000e+00,5.000000000000000000e+00,5.000000000000000000e+00,5.000000000000000000e+00,5.000000000000000000e+00,5.000000000000000000e+00,5.000000000000000000e+00,4.484422206878662109e+00,4.367652893066406250e+00,4.256809234619140625e+00,4.151453018188476562e+00,4.051186084747314453e+00,3.955648422241210938e+00,3.864512205123901367e+00,3.777481555938720703e+00,3.694284439086914062e+00,3.614673137664794922e+00,3.538420200347900391e+00,3.465318441390991211e+00,3.395175933837890625e+00,3.327816247940063477e+00,3.263077974319458008e+00,3.200810194015502930e+00,3.140874385833740234e+00,3.083141803741455078e+00,3.027493238449096680e+00,2.973818302154541016e+00,2.922013044357299805e+00,2.871981859207153320e+00,2.823635339736938477e+00,2.776889562606811523e+00,2.731666088104248047e+00,2.687892198562622070e+00,2.645498991012573242e+00,2.604422330856323242e+00,2.564601659774780273e+00,2.525980472564697266e+00,2.488505125045776367e+00,2.452125787734985352e+00,2.416794300079345703e+00,2.382470846176147461e+00,2.349110126495361328e+00,2.316670656204223633e+00,2.285114765167236328e+00,2.254406929016113281e+00,2.224513769149780273e+00,2.195402860641479492e+00,2.167044162750244141e+00
5.000000000000000000e+00,5.000000000000000000e+00,5.000000000000000000e+00,5.000000000000000000e+00,5.000000000000000000e+00,5.000000000000000000e+00,5.000000000000000000e+00,5.000000000000000000e+00,5.000000000000000000e+00,5.000000000000000000e+00,5.000000000000000000e+00,5.000000000000000000e+00,5.000000000000000000e+00,5.000000000000000000e+00,5.000000000000000000e+00,5.000000000000000000e+00,5.000000000000000000e+00,5.000000000000000000e+00,5.000000000000000000e+00,5.000000000000000000e+00,5.000000000000000000e+00,5.000000000000000000e+00,5.000000000000000000e+00,5.000000000000000000e+00,5.000000000000000000e+00,5.000000000000000000e+00,5.000000000000000000e+00,5.000000000000000000e+00,5.000000000000000000e+00,5.000000000000000000e+00,5.000000000000000000e+00,5.000000000000000000e+00,5.000000000000000000e+00,5.000000000000000000e+00,5.000000000000000000e+00,5.000000000000000000e+00,5.000000000000000000e+00,4.737834453582763672e+00,4.607686042785644531e+00,4.484496593475341797e+00,4.367722988128662109e+00,4.256876468658447266e+00,4.151516914367675781e+00,4.051246643066406250e+00,3.955705642700195312e+00,3.864567518234252930e+00,3.777534246444702148e+00,3.694334745407104492e+00,3.614721059799194336e+00,3.538466453552246094e+00,3.465362787246704102e+00,3.395218372344970703e+00,3.327857255935668945e+00,3.263117313385009766e+00,3.200848102569580078e+00,3.140910863876342773e+00,3.083176851272583008e+00,3.027527093887329102e+00,2.973850965499877930e+00,2.922044515609741211e+00,2.872012376785278320e+00,2.823664665222167969e+00,2.776917934417724609e+00,2.731693506240844727e+00,2.687918901443481445e+00,2.645524740219116211e+00,2.604447364807128906e+00,2.564625978469848633e+00,2.526009321212768555e+00,2.488539218902587891e+00,2.452164411544799805e+00,2.416837692260742188e+00,2.382514476776123047e+00,2.349152088165283203e+00,2.316711425781250000e+00,2.285154581069946289e+00,2.254446029663085938e+00,2.224551677703857422e+00,2.195439815521240234e+00,2.167080163955688477e+00
5.000000000000000000e+00,5.000000000000000000e+00,5.000000000000000000e+00,5.000000000000000000e+00,5.000000000000000000e+00,5.000000000000000000e+00,5.000000000000000000e+00,5.000000000000000000e+00,5.000000000000000000e+00,5.000000000000000000e+00,5.000000000000000000e+00,5.000000000000000000e+00,5.000000000000000000e+00,5.000000000000000000e+00,5.000000000000000000e+00,5.000000000000000000e+00,5.000000000000000000e+00,5.000000000000000000e+00,5.000000000000000000e+00,5.000000000000000000e+00,5.000000000000000000e+00,5.000000000000000000e+00,5.000000000000000000e+00,5.000000000000000000e+00,5.000000000000000000e+00,5.000000000000000000e+00,5.000000000000000000e+00,5.000000000000000000e+00,5.000000000000000000e+00,5.000000000000000000e+00,5.000000000000000000e+00,5.000000000000000000e+00,5.000000000000000000e+00,5.000000000000000000e+00,5.000000000000000000e+00,5.000000000000000000e+00,4.875637054443359375e+00,4.737917423248291016e+00,4.607764244079589844e+00,4.484570980072021484e+00,4.367793560028076172e+00,4.256943225860595703e+00,4.151580333709716797e+00,4.051307201385498047e+00,3.955763578414916992e+00,3.864622592926025391e+00,3.777586936950683594e+00,3.694385290145874023e+00,3.614769220352172852e+00,3.538512706756591797e+00,3.465407133102416992e+00,3.395261049270629883e+00,3.327898025512695312e+00,3.263156652450561523e+00,3.200886011123657227e+00,3.140947103500366211e+00,3.083211898803710938e+00,3.027561187744140625e+00,2.973883628845214844e+00,2.922075986862182617e+00,2.872042894363403320e+00,2.823694229125976562e+00,2.776946544647216797e+00,2.731721162796020508e+00,2.687952280044555664e+00,2.645564079284667969e+00,2.604491949081420898e+00,2.564675569534301758e+00,2.526058197021484375e+00,2.488586664199829102e+00,2.452210426330566406e+00,2.416882276535034180e+00,2.382557630538940430e+00,2.349194288253784180e+00,2.316752672195434570e+00,2.285194635391235352e+00,2.254480600357055664e+00,2.224580764770507812e+00,2.195463418960571289e+00,2.167098522186279297e+00
5.000000000000000000e+00,5.000000000000000000e+00,5.000000000000000000e+00,5.000000000000000000e+00,5.000000000000000000e+00,5.000000000000000000e+00,5.000000000000000000e+00,5.000000000000000000e+00,5.000000000000000000e+00,5.000000000000000000e+00,5.000000000000000000e+00,5.000000000000000000e+00,5.000000000000000000e+00,5.000000000000000000e+00,5.000000000000000000e+00,5.000000000000000000e+00,5.000000000000000000e+00,5.000000000000000000e+00,5.000000000000000000e+00,5.000000000000000000e+00,5.000000000000000000e+00,5.000000000000000000e+00,5.000000000000000000e+00,5.000000000000000000e+00,5.000000000000000000e+00,5.000000000000000000e+00,5.000000000000000000e+00,5.000000000000000000e+00,5.000000000000000000e+00,5.000000000000000000e+00,5.000000000000000000e+00,5.000000000000000000e+00,5.000000000000000000e+00,5.000000000000000000e+00,5.000000000000000000e+00,5.000000000000000000e+00,4.875724315643310547e+00,4.738000392913818359e+00,4.607842445373535156e+00,4.484645366668701172e+00,4.367864131927490234e+00,4.257010459899902344e+00,4.151644229888916016e+00,4.051367759704589844e+00,3.955821275711059570e+00,3.864677906036376953e+00,3.777639865875244141e+00,3.694435358047485352e+00,3.614817619323730469e+00,3.538558959960937500e+00,3.465451478958129883e+00,3.395303249359130859e+00,3.327939033508300781e+00,3.263195991516113281e+00,3.200923919677734375e+00,3.140983343124389648e+00,3.083247184753417969e+00,3.027595043182373047e+00,2.973916292190551758e+00,2.922108888626098633e+00,2.872082471847534180e+00,2.823739767074584961e+00,2.776998043060302734e+00,2.731778144836425781e+00,2.688007831573486328e+00,2.645617723464965820e+00,2.604543924331665039e+00,2.564725875854492188e+00,2.526107072830200195e+00,2.488633871078491211e+00,2.452256441116333008e+00,2.416927099227905273e+00,2.382596015930175781e+00,2.349226236343383789e+00,2.316778421401977539e+00,2.285214662551879883e+00,2.254499673843383789e+00,2.224599123001098633e+00,2.195481300354003906e+00,2.167115926742553711e+00
5.000000000000000000e+00,5.000000000000000000e+00,5.000000000000000000e+00,5.000000000000000000e+00,5.000000000000000000e+00,5.000000000000000000e+00,5.000000000000000000e+00,5.000000000000000000e+00,5.000000000000000000e+00,5.000000000000000000e+00,5.000000000000000000e+00,5.000000000000000000e+00,5.000000000000000000e+00,5.000000000000000000e+00,5.000000000000000000e+00,5.000000000000000000e+00,5.000000000000000000e+00,5.000000000000000000e+00,5.000000000000000000e+00,5.000000000000000000e+00,5.000000000000000000e+00,5.000000000000000000e+00,5.000000000000000000e+00,5.000000000000000000e+00,5.000000000000000000e+00,5.000000000000000000e+00,5.000000000000000000e+00,5.000000000000000000e+00,5.000000000000000000e+00,5.000000000000000000e+00,5.000000000000000000e+00,5.000000000000000000e+00,5.000000000000000000e+00,5.000000000000000000e+00,5.000000000000000000e+00,5.000000000000000000e+00,4.875812053680419922e+00,4.738083362579345703e+00,4.607921123504638672e+00,4.484719276428222656e+00,4.367934226989746094e+00,4.257077217102050781e+00,4.151707649230957031e+00,4.051428318023681641e+00,3.955879211425781250e+00,3.864732980728149414e+00,3.777692556381225586e+00,3.694485664367675781e+00,3.614865779876708984e+00,3.538605213165283203e+00,3.465495824813842773e+00,3.395345926284790039e+00,3.327980041503906250e+00,3.263235330581665039e+00,3.200961589813232422e+00,3.141022443771362305e+00,3.083293914794921875e+00,3.027648687362670898e+00,2.973976612091064453e+00,2.922173976898193359e+00,2.872145414352416992e+00,2.823800802230834961e+00,2.777056932449340820e+00,2.731835365295410156e+00,2.688063144683837891e+00,2.645671367645263672e+00,2.604595899581909180e+00,2.564775943756103516e+00,2.526149272918701172e+00,2.488669157028198242e+00,2.452284812927246094e+00,2.416949033737182617e+00,2.382616996765136719e+00,2.349246978759765625e+00,2.316798210144042969e+00,2.285234212875366211e+00,2.254518508911132812e+00,2.224617481231689453e+00,2.195499181747436523e+00,2.167133569717407227e+00
5.000000000000000000e+00,5.000000000000000000e+00,5.000000000000000000e+00,5.000000000000000000e+00,5.000000000000000000e+00,5.000000000000000000e+00,5.000000000000000000e+00,5.000000000000000000e+00,5.000000000000000000e+00,5.000000000000000000e+00,5.000000000000000000e+00,5.000000000000000000e+00,5.000000000000000000e+00,5.000000000000000000e+00,5.000000000000000000e+00,5.000000000000000000e+00,5.000000000000000000e+00,5.000000000000000000e+00,5.000000000000000000e+00,5.000000000000000000e+00,5.000000000000000000e+00,5.000000000000000000e+00,5.000000000000000000e+00,5.000000000000000000e+00,5.000000000000000000e+00,5.000000000000000000e+00,5.000000000000000000e+00,5.000000000000000000e+00,5.000000000000000000e+00,5.000000000000000000e+00,5.000000000000000000e+00,5.000000000000000000e+00,5.000000000000000000e+00,5.000000000000000000e+00,5.000000000000000000e+00,5.000000000000000000e+00,4.875900268554687500e+00,4.738165855407714844e+00,4.607999324798583984e+00,4.484793663024902344e+00,4.368004798889160156e+00,4.257143974304199219e+00,4.151771545410156250e+00,4.051488876342773438e+00,3.955937147140502930e+00,3.864788293838500977e+00,3.777745246887207031e+00,3.694536209106445312e+00,3.614914178848266602e+00,3.538651466369628906e+00,3.465539932250976562e+00,3.395392894744873047e+00,3.328035831451416016e+00,3.263298988342285156e+00,3.201032876968383789e+00,3.141098022460937500e+00,3.083366632461547852e+00,3.027718782424926758e+00,2.974044084548950195e+00,2.922239303588867188e+00,2.872208595275878906e+00,2.823862075805664062e+00,2.777116060256958008e+00,2.731891393661499023e+00,2.688110351562500000e+00,2.645710229873657227e+00,2.604627132415771484e+00,2.564800262451171875e+00,2.526173114776611328e+00,2.488692283630371094e+00,2.452306985855102539e+00,2.416970729827880859e+00,2.382638216018676758e+00,2.349267244338989258e+00,2.316818237304687500e+00,2.285253763198852539e+00,2.254537343978881836e+00,2.224635839462280273e+00,2.195517063140869141e+00,2.167150974273681641e+00
5.000000000000000000e+00,5.000000000000000000e+00,5.000000000000000000e+00,5.000000000000000000e+00,5.000000000000000000e+00,5.000000000000000000e+00,5.000000000000000000e+00,5.000000000000000000e+00,5.000000000000000000e+00,5.000000000000000000e+00,5.000000000000000000e+00,5.000000000000000000e+00,5.000000000000000000e+00,5.000000000000000000e+00,5.000000000000000000e+00,5.000000000000000000e+00,5.000000000000000000e+00,5.000000000000000000e+00,5.000000000000000000e+00,5.000000000000000000e+00,5.000000000000000000e+00,5.000000000000000000e+00,5.000000000000000000e+00,5.000000000000000000e+00,5.000000000000000000e+00,5.000000000000000000e+00,5.000000000000000000e+00,5.000000000000000000e+00,5.000000000000000000e+00,5.000000000000000000e+00,5.000000000000000000e+00,5.000000000000000000e+00,5.000000000000000000e+00,5.000000000000000000e+00,5.000000000000000000e+00,5.000000000000000000e+00,4.875988006591796875e+00,4.738248825073242188e+00,4.608078002929687500e+00,4.484868049621582031e+00,4.368075370788574219e+00,4.257211208343505859e+00,4.151834964752197266e+00,4.051549434661865234e+00,3.955994844436645508e+00,3.864843368530273438e+00,3.777797460556030273e+00,3.694593667984008789e+00,3.614981412887573242e+00,3.538727998733520508e+00,3.465625047683715820e+00,3.395481348037719727e+00,3.328120708465576172e+00,3.263380527496337891e+00,3.201111316680908203e+00,3.141173362731933594e+00,3.083439111709594727e+00,3.027788877487182617e+00,2.974111795425415039e+00,2.922302722930908203e+00,2.872261524200439453e+00,2.823905706405639648e+00,2.777151107788085938e+00,2.731919050216674805e+00,2.688137054443359375e+00,2.645736455917358398e+00,2.604652166366577148e+00,2.564824581146240234e+00,2.526196956634521484e+00,2.488715171813964844e+00,2.452329397201538086e+00,2.416992425918579102e+00,2.382659196853637695e+00,2.349287748336791992e+00,2.316838264465332031e+00,2.285273075103759766e+00,2.254556179046630859e+00,2.224654197692871094e+00,2.195534944534301758e+00,2.167168378829956055e+00
5.000000000000000000e+00,5.000000000000000000e+00,5.000000000000000000e+00,5.000000000000000000e+00,5.000000000000000000e+00,5.000000000000000000e+00,5.000000000000000000e+00,5.000000000000000000e+00,5.000000000000000000e+00,5.000000000000000000e+00,5.000000000000000000e+00,5.000000000000000000e+00,5.000000000000000000e+00,5.000000000000000000e+00,5.000000000000000000e+00,5.000000000000000000e+00,5.000000000000000000e+00,5.000000000000000000e+00,5.000000000000000000e+00,5.000000000000000000e+00,5.000000000000000000e+00,5.000000000000000000e+00,5.000000000000000000e+00,5.000000000000000000e+00,5.000000000000000000e+00,5.000000000000000000e+00,5.000000000000000000e+00,5.000000000000000000e+00,5.000000000000000000e+00,5.000000000000000000e+00,5.000000000000000000e+00,5.000000000000000000e+00,5.000000000000000000e+00,5.000000000000000000e+00,5.000000000000000000e+00,5.000000000000000000e+00,4.876075267791748047e+00,4.738331794738769531e+00,4.608156204223632812e+00,4.484942436218261719e+00,4.368145465850830078e+00,4.257277965545654297e+00,4.151898384094238281e+00,4.051620960235595703e+00,3.956077814102172852e+00,3.864936590194702148e+00,3.777900457382202148e+00,3.694698095321655273e+00,3.615081548690795898e+00,3.538823843002319336e+00,3.465717077255249023e+00,3.395569562911987305e+00,3.328205347061157227e+00,3.263461828231811523e+00,3.201189517974853516e+00,3.141245841979980469e+00,3.083499431610107422e+00,3.027838468551635742e+00,2.974151134490966797e+00,2.922334194183349609e+00,2.872292280197143555e+00,2.823935508728027344e+00,2.777179479598999023e+00,2.731946706771850586e+00,2.688163995742797852e+00,2.645762205123901367e+00,2.604677438735961914e+00,2.564849138259887695e+00,2.526220321655273438e+00,2.488738059997558594e+00,2.452351808547973633e+00,2.417014122009277344e+00,2.382680416107177734e+00,2.349308490753173828e+00,2.316858053207397461e+00,2.285292387008666992e+00,2.254575252532958984e+00,2.224672555923461914e+00,2.195553064346313477e+00,2.167185783386230469e+00
5.000000000000000000e+00,5.000000000000000000e+00,5.000000000000000000e+00,5.000000000000000000e+00,5.000000000000000000e+00,5.000000000000000000e+00,5.000000000000000000e+00,5.000000000000000000e+00,5.000000000000000000e+00,5.000000000000000000e+00,5.000000000000000000e+00,5.000000000000000000e+00,5.000000000000000000e+00,5.000000000000000000e+00,5.000000000000000000e+00,5.000000000000000000e+00,5.000000000000000000e+00,5.000000000000000000e+00,5.000000000000000000e+00,5.000000000000000000e+00,5.000000000000000000e+00,5.000000000000000000e+00,5.000000000000000000e+00,5.000000000000000000e+00,5.000000000000000000e+00,5.000000000000000000e+00,5.000000000000000000e+00,5.000000000000000000e+00,5.000000000000000000e+00,5.000000000000000000e+00,5.000000000000000000e+00,5.000000000000000000e+00,5.000000000000000000e+00,5.000000000000000000e+00,5.000000000000000000e+00,5.000000000000000000e+00,4.876163482666015625e+00,4.738414764404296875e+00,4.608234405517578125e+00,4.485032081604003906e+00,4.368248939514160156e+00,4.257393360137939453e+00,4.152025222778320312e+00,4.051746368408203125e+00,3.956197261810302734e+00,3.865051031112670898e+00,3.778009891510009766e+00,3.694802761077880859e+00,3.615181684494018555e+00,3.538919925689697266e+00,3.465809106826782227e+00,3.395652770996093750e+00,3.328274726867675781e+00,3.263518333435058594e+00,3.201234102249145508e+00,3.141282320022583008e+00,3.083534955978393555e+00,3.027872562408447266e+00,2.974183797836303711e+00,2.922366142272949219e+00,2.872323036193847656e+00,2.823964834213256836e+00,2.777208328247070312e+00,2.731974601745605469e+00,2.688190698623657227e+00,2.645788192749023438e+00,2.604702711105346680e+00,2.564873456954956055e+00,2.526244163513183594e+00,2.488761186599731445e+00,2.452374219894409180e+00,2.417035818099975586e+00,2.382701635360717773e+00,2.349328756332397461e+00,2.316878080368041992e+00,2.285311937332153320e+00,2.254593849182128906e+00,2.224691152572631836e+00,2.195570945739746094e+00,2.167203187942504883e+00
5.000000000000000000e+00,5.000000000000000000e+00,5.000000000000000000e+00,5.000000000000000000e+00,5.000000000000000000e+00,5.000000000000000000e+00,5.000000000000000000e+00,5.000000000000000000e+00,5.000000000000000000e+00,5.000000000000000000e+00,5.000000000000000000e+00,5.000000000000000000e+00,5.000000000000000000e+00,5.000000000000000000e+00,5.000000000000000000e+00,5.000000000000000000e+00,5.000000000000000000e+00,5.000000000000000000e+00,5.000000000000000000e+00,5.000000000000000000e+00,5.000000000000000000e+00,5.000000000000000000e+00,5.000000000000000000e+00,5.000000000000000000e+00,5.000000000000000000e+00,5.000000000000000000e+00,5.000000000000000000e+00,5.000000000000000000e+00,5.000000000000000000e+00,5.000000000000000000e+00,5.000000000000000000e+00,5.000000000000000000e+00,5.000000000000000000e+00,5.000000000000000000e+00,5.000000000000000000e+00,5.000000000000000000e+00,4.876295089721679688e+00,4.738560676574707031e+00,4.608393192291259766e+00,4.485186100006103516e+00,4.368395328521728516e+00,4.257532119750976562e+00,4.152156829833984375e+00,4.051872253417968750e+00,3.956317186355590820e+00,3.865165472030639648e+00,3.778119087219238281e+00,3.694899797439575195e+00,3.615262269973754883e+00,3.538984775543212891e+00,3.465859889984130859e+00,3.395695686340332031e+00,3.328315734863281250e+00,3.263558149337768555e+00,3.201272010803222656e+00,3.141319036483764648e+00,3.083570480346679688e+00,3.027906417846679688e+00,2.974216699600219727e+00,2.922397851943969727e+00,2.872353553771972656e+00,2.823994636535644531e+00,2.777236938476562500e+00,2.732002258300781250e+00,2.688217639923095703e+00,2.645814418792724609e+00,2.604727745056152344e+00,2.564898014068603516e+00,2.526268005371093750e+00,2.488784074783325195e+00,2.452396392822265625e+00,2.417057514190673828e+00,2.382722616195678711e+00,2.349349260330200195e+00,2.316898107528686523e+00,2.285331249237060547e+00,2.254612922668457031e+00,2.224709510803222656e+00,2.195588827133178711e+00,2.167220830917358398e+00
5.000000000000000000e+00,5.000000000000000000e+00,5.000000000000000000e+00,5.000000000000000000e+00,5.000000000000000000e+00,5.000000000000000000e+00,5.000000000000000000e+00,5.000000000000000000e+00,5.000000000000000000e+00,5.000000000000000000e+00,5.000000000000000000e+00,5.000000000000000000e+00,5.000000000000000000e+00,5.000000000000000000e+00,5.000000000000000000e+00,5.000000000000000000e+00,5.000000000000000000e+00,5.000000000000000000e+00,5.000000000000000000e+00,5.000000000000000000e+00,5.000000000000000000e+00,5.000000000000000000e+00,5.000000000000000000e+00,5.000000000000000000e+00,5.000000000000000000e+00,5.000000000000000000e+00,5.000000000000000000e+00,5.000000000000000000e+00,5.000000000000000000e+00,5.000000000000000000e+00,5.000000000000000000e+00,5.000000000000000000e+00,5.000000000000000000e+00,5.000000000000000000e+00,5.000000000000000000e+00,5.000000000000000000e+00,4.876477241516113281e+00,4.738732814788818359e+00,4.608555793762207031e+00,4.485340118408203125e+00,4.368541240692138672e+00,4.257670879364013672e+00,4.152288913726806641e+00,4.051987171173095703e+00,3.956412315368652344e+00,3.865241527557373047e+00,3.778178215026855469e+00,3.694950819015502930e+00,3.615310668945312500e+00,3.539031505584716797e+00,3.465904712677001953e+00,3.395738363265991211e+00,3.328356981277465820e+00,3.263597488403320312e+00,3.201310157775878906e+00,3.141355752944946289e+00,3.083605527877807617e+00,3.027940511703491211e+00,2.974249601364135742e+00,2.922429561614990234e+00,2.872384309768676758e+00,2.824024200439453125e+00,2.777265548706054688e+00,2.732029914855957031e+00,2.688244581222534180e+00,2.645840167999267578e+00,2.604753017425537109e+00,2.564922571182250977e+00,2.526291608810424805e+00,2.488807201385498047e+00,2.452418804168701172e+00,2.417079210281372070e+00,2.382743597030639648e+00,2.349370002746582031e+00,2.316917896270751953e+00,2.285350561141967773e+00,2.254631757736206055e+00,2.224727869033813477e+00,2.195606708526611328e+00,2.167238235473632812e+00
5.000000000000000000e+00,5.000000000000000000e+00,5.000000000000000000e+00,5.000000000000000000e+00,5.000000000000000000e+00,5.000000000000000000e+00,5.000000000000000000e+00,5.000000000000000000e+00,5.000000000000000000e+00,5.000000000000000000e+00,5.000000000000000000e+00,5.000000000000000000e+00,5.000000000000000000e+00,5.000000000000000000e+00,5.000000000000000000e+00,5.000000000000000000e+00,5.000000000000000000e+00,5.000000000000000000e+00,5.000000000000000000e+00,5.000000000000000000e+00,5.000000000000000000e+00,5.000000000000000000e+00,5.000000000000000000e+00,5.000000000000000000e+00,5.000000000000000000e+00,5.000000000000000000e+00,5.000000000000000000e+00,5.000000000000000000e+00,5.000000000000000000e+00,5.000000000000000000e+00,5.000000000000000000e+00,5.000000000000000000e+00,5.000000000000000000e+00,5.000000000000000000e+00,5.000000000000000000e+00,5.000000000000000000e+00,4.876659393310546875e+00,4.738904476165771484e+00,4.608718395233154297e+00,4.485479354858398438e+00,4.368655204772949219e+00,4.257761955261230469e+00,4.152358531951904297e+00,4.052048683166503906e+00,3.956470251083374023e+00,3.865297079086303711e+00,3.778231382369995117e+00,3.695001125335693359e+00,3.615359306335449219e+00,3.539078235626220703e+00,3.465949058532714844e+00,3.395781278610229492e+00,3.328397989273071289e+00,3.263637065887451172e+00,3.201348304748535156e+00,3.141392230987548828e+00,3.083641052246093750e+00,3.027974605560302734e+00,2.974282503128051758e+00,2.922461271286010742e+00,2.872415065765380859e+00,2.824053764343261719e+00,2.777294158935546875e+00,2.732057809829711914e+00,2.688271284103393555e+00,2.645866394042968750e+00,2.604778289794921875e+00,2.564946889877319336e+00,2.526315450668334961e+00,2.488830327987670898e+00,2.452441215515136719e+00,2.417100906372070312e+00,2.382764816284179688e+00,2.349390268325805664e+00,2.316937923431396484e+00,2.285370111465454102e+00,2.254650592803955078e+00,2.224746227264404297e+00,2.195624589920043945e+00,2.167255640029907227e+00
5.000000000000000000e+00,5.000000000000000000e+00,5.000000000000000000e+00,5.000000000000000000e+00,5.000000000000000000e+00,5.000000000000000000e+00,5.000000000000000000e+00,5.000000000000000000e+00,5.000000000000000000e+00,5.000000000000000000e+00,5.000000000000000000e+00,5.000000000000000000e+00,5.000000000000000000e+00,5.000000000000000000e+00,5.000000000000000000e+00,5.000000000000000000e+00,5.000000000000000000e+00,5.000000000000000000e+00,5.000000000000000000e+00,5.000000000000000000e+00,5.000000000000000000e+00,5.000000000000000000e+00,5.000000000000000000e+00,5.000000000000000000e+00,5.000000000000000000e+00,5.000000000000000000e+00,5.000000000000000000e+00,5.000000000000000000e+00,5.000000000000000000e+00,5.000000000000000000e+00,5.000000000000000000e+00,5.000000000000000000e+00,5.000000000000000000e+00,5.000000000000000000e+00,5.000000000000000000e+00,5.000000000000000000e+00,4.876798629760742188e+00,4.739014625549316406e+00,4.608801841735839844e+00,4.485554218292236328e+00,4.368726253509521484e+00,4.257829189300537109e+00,4.152422904968261719e+00,4.052109241485595703e+00,3.956528425216674805e+00,3.865352869033813477e+00,3.778284311294555664e+00,3.695052146911621094e+00,3.615407943725585938e+00,3.539124488830566406e+00,3.465993881225585938e+00,3.395823955535888672e+00,3.328439235687255859e+00,3.263676881790161133e+00,3.201386213302612305e+00,3.141428947448730469e+00,3.083676338195800781e+00,3.028008699417114258e+00,2.974315404891967773e+00,2.922493219375610352e+00,2.872445583343505859e+00,2.824083566665649414e+00,2.777323007583618164e+00,2.732085466384887695e+00,2.688298225402832031e+00,2.645892381668090820e+00,2.604803562164306641e+00,2.564971446990966797e+00,2.526339054107666016e+00,2.488853216171264648e+00,2.452463626861572266e+00,2.417122602462768555e+00,2.382785797119140625e+00,2.349410772323608398e+00,2.316957950592041016e+00,2.285389423370361328e+00,2.254669666290283203e+00,2.224764585494995117e+00,2.195642471313476562e+00,2.167273044586181641e+00
5.000000000000000000e+00,5.000000000000000000e+00,5.000000000000000000e+00,5.000000000000000000e+00,5.000000000000000000e+00,5.000000000000000000e+00,5.000000000000000000e+00,5.000000000000000000e+00,5.000000000000000000e+00,5.000000000000000000e+00,5.000000000000000000e+00,5.000000000000000000e+00,5.000000000000000000e+00,5.000000000000000000e+00,5.000000000000000000e+00,5.000000000000000000e+00,5.000000000000000000e+00,5.000000000000000000e+00,5.000000000000000000e+00,5.000000000000000000e+00,5.000000000000000000e+00,5.000000000000000000e+00,5.000000000000000000e+00,5.000000000000000000e+00,5.000000000000000000e+00,5.000000000000000000e+00,5.000000000000000000e+00,5.000000000000000000e+00,5.000000000000000000e+00,5.000000000000000000e+00,5.000000000000000000e+00,5.000000000000000000e+00,5.000000000000000000e+00,5.000000000000000000e+00,5.000000000000000000e+00,5.000000000000000000e+00,4.876887321472167969e+00,4.739098072052001953e+00,4.608880996704101562e+00,4.485629081726074219e+00,4.368796825408935547e+00,4.257896423339843750e+00,4.152486801147460938e+00,4.052170276641845703e+00,3.956586837768554688e+00,3.865407943725585938e+00,3.778337478637695312e+00,3.695102930068969727e+00,3.615456342697143555e+00,3.539170980453491211e+00,3.466038227081298828e+00,3.395866870880126953e+00,3.328480482101440430e+00,3.263716220855712891e+00,3.201424360275268555e+00,3.141465663909912109e+00,3.083711624145507812e+00,3.028042793273925781e+00,2.974348306655883789e+00,2.922524690628051758e+00,2.872476339340209961e+00,2.824113130569458008e+00,2.777351379394531250e+00,2.732113122940063477e+00,2.688325166702270508e+00,2.645918369293212891e+00,2.604828834533691406e+00,2.564995765686035156e+00,2.526362657546997070e+00,2.488876104354858398e+00,2.452486038208007812e+00,2.417144298553466797e+00,2.382807016372680664e+00,2.349431514739990234e+00,2.316977739334106445e+00,2.285408735275268555e+00,2.254688501358032227e+00,2.224782943725585938e+00,2.195660352706909180e+00,2.167290687561035156e+00
5.000000000000000000e+00,5.000000000000000000e+00,5.000000000000000000e+00,5.000000000000000000e+00,5.000000000000000000e+00,5.000000000000000000e+00,5.000000000000000000e+00,5.000000000000000000e+00,5.000000000000000000e+00,5.000000000000000000e+00,5.000000000000000000e+00,5.000000000000000000e+00,5.000000000000000000e+00,5.000000000000000000e+00,5.000000000000000000e+00,5.000000000000000000e+00,5.000000000000000000e+00,5.000000000000000000e+00,5.000000000000000000e+00,5.000000000000000000e+00,5.000000000000000000e+00,5.000000000000000000e+00,5.000000000000000000e+00,5.000000000000000000e+00,5.000000000000000000e+00,5.000000000000000000e+00,5.000000000000000000e+00,5.000000000000000000e+00,5.000000000000000000e+00,5.000000000000000000e+00,5.000000000000000000e+00,5.000000000000000000e+00,5.000000000000000000e+00,5.000000000000000000e+00,5.000000000000000000e+00,5.000000000000000000e+00,4.876975536346435547e+00,4.739181518554687500e+00,4.608960151672363281e+00,4.485703468322753906e+00,4.368867874145507812e+00,4.257963657379150391e+00,4.152550697326660156e+00,4.052231311798095703e+00,3.956644773483276367e+00,3.865463733673095703e+00,3.778390645980834961e+00,3.695153474807739258e+00,3.615504980087280273e+00,3.539217710494995117e+00,3.466083049774169922e+00,3.395909786224365234e+00,3.328521490097045898e+00,3.263755798339843750e+00,3.201462507247924805e+00,3.141502141952514648e+00,3.083746910095214844e+00,3.028076887130737305e+00,2.974380970001220703e+00,2.922556400299072266e+00,2.872507095336914062e+00,2.824142694473266602e+00,2.777380228042602539e+00,2.732141017913818359e+00,2.688351869583129883e+00,2.645944356918334961e+00,2.604854106903076172e+00,2.565020084381103516e+00,2.526386499404907227e+00,2.488899230957031250e+00,2.452508211135864258e+00,2.417165994644165039e+00,2.382827997207641602e+00,2.349451780319213867e+00,2.316997766494750977e+00,2.285428285598754883e+00,2.254707336425781250e+00,2.224801301956176758e+00,2.195678472518920898e+00,2.167307853698730469e+00
5.000000000000000000e+00,5.000000000000000000e+00,5.000000000000000000e+00,5.000000000000000000e+00,5.000000000000000000e+00,5.000000000000000000e+00,5.000000000000000000e+00,5.000000000000000000e+00,5.000000000000000000e+00,5.000000000000000000e+00,5.000000000000000000e+00,5.000000000000000000e+00,5.000000000000000000e+00,5.000000000000000000e+00,5.000000000000000000e+00,5.000000000000000000e+00,5.000000000000000000e+00,5.000000000000000000e+00,5.000000000000000000e+00,5.000000000000000000e+00,5.000000000000000000e+00,5.000000000000000000e+00,5.000000000000000000e+00,5.000000000000000000e+00,5.000000000000000000e+00,5.000000000000000000e+00,5.000000000000000000e+00,5.000000000000000000e+00,5.000000000000000000e+00,5.000000000000000000e+00,5.000000000000000000e+00,5.000000000000000000e+00,5.000000000000000000e+00,5.000000000000000000e+00,5.000000000000000000e+00,5.000000000000000000e+00,4.877063751220703125e+00,4.739264965057373047e+00,4.609038829803466797e+00,4.485778331756591797e+00,4.368938922882080078e+00,4.258030891418457031e+00,4.152615070343017578e+00,4.052292346954345703e+00,3.956702947616577148e+00,3.865519285202026367e+00,3.778443336486816406e+00,3.695204257965087891e+00,3.615553855895996094e+00,3.539263963699340820e+00,3.466127872467041016e+00,3.395952463150024414e+00,3.328562736511230469e+00,3.263795375823974609e+00,3.201500415802001953e+00,3.141539096832275391e+00,3.083782434463500977e+00,3.028110742568969727e+00,2.974413871765136719e+00,2.922588348388671875e+00,2.872537374496459961e+00,2.824172496795654297e+00,2.777408838272094727e+00,2.732168674468994141e+00,2.688378810882568359e+00,2.645970344543457031e+00,2.604879140853881836e+00,2.565044641494750977e+00,2.526410341262817383e+00,2.488922119140625000e+00,2.452530622482299805e+00,2.417187929153442383e+00,2.382848978042602539e+00,2.349472284317016602e+00,2.317017793655395508e+00,2.285447597503662109e+00,2.254726171493530273e+00,2.224819898605346680e+00,2.195696115493774414e+00,2.167325496673583984e+00
5.000000000000000000e+00,5.000000000000000000e+00,5.000000000000000000e+00,5.000000000000000000e+00,5.000000000000000000e+00,5.000000000000000000e+00,5.000000000000000000e+00,5.000000000000000000e+00,5.000000000000000000e+00,5.000000000000000000e+00,5.000000000000000000e+00,5.000000000000000000e+00,5.000000000000000000e+00,5.000000000000000000e+00,5.000000000000000000e+00,5.000000000000000000e+00,5.000000000000000000e+00,5.000000000000000000e+00,5.000000000000000000e+00,5.000000000000000000e+00,5.000000000000000000e+00,5.000000000000000000e+00,5.000000000000000000e+00,5.000000000000000000e+00,5.000000000000000000e+00,5.000000000000000000e+00,5.000000000000000000e+00,5.000000000000000000e+00,5.000000000000000000e+00,5.000000000000000000e+00,5.000000000000000000e+00,5.000000000000000000e+00,5.000000000000000000e+00,5.000000000000000000e+00,5.000000000000000000e+00,5.000000000000000000e+00,4.877152442932128906e+00,4.739348411560058594e+00,4.609117984771728516e+00,4.485853195190429688e+00,4.369009494781494141e+00,4.258098602294921875e+00,4.152678966522216797e+00,4.052353382110595703e+00,3.956761360168457031e+00,3.865574598312377930e+00,3.778496503829956055e+00,3.695255041122436523e+00,3.615602016448974609e+00,3.539310693740844727e+00,3.466172218322753906e+00,3.395995378494262695e+00,3.328603982925415039e+00,3.263834953308105469e+00,3.201538562774658203e+00,3.141575813293457031e+00,3.083817481994628906e+00,3.028144836425781250e+00,2.974447011947631836e+00,2.922619819641113281e+00,2.872568130493164062e+00,2.824202060699462891e+00,2.777437448501586914e+00,2.732196331024169922e+00,2.688405752182006836e+00,2.645996332168579102e+00,2.604904413223266602e+00,2.565069198608398438e+00,2.526433944702148438e+00,2.488945245742797852e+00,2.452553033828735352e+00,2.417209386825561523e+00,2.382870197296142578e+00,2.349493026733398438e+00,2.317037582397460938e+00,2.285467147827148438e+00,2.254745244979858398e+00,2.224838018417358398e+00,2.195714235305786133e+00,2.167342901229858398e+00
5.000000000000000000e+00,5.000000000000000000e+00,5.000000000000000000e+00,5.000000000000000000e+00,5.000000000000000000e+00,5.000000000000000000e+00,5.000000000000000000e+00,5.000000000000000000e+00,5.000000000000000000e+00,5.000000000000000000e+00,5.000000000000000000e+00,5.000000000000000000e+00,5.000000000000000000e+00,5.000000000000000000e+00,5.000000000000000000e+00,5.000000000000000000e+00,5.000000000000000000e+00,5.000000000000000000e+00,5.000000000000000000e+00,5.000000000000000000e+00,5.000000000000000000e+00,5.000000000000000000e+00,5.000000000000000000e+00,5.000000000000000000e+00,5.000000000000000000e+00,5.000000000000000000e+00,5.000000000000000000e+00,5.000000000000000000e+00,5.000000000000000000e+00,5.000000000000000000e+00,5.000000000000000000e+00,5.000000000000000000e+00,5.000000000000000000e+00,5.000000000000000000e+00,5.000000000000000000e+00,5.000000000000000000e+00,4.877231121063232422e+00,4.739424228668212891e+00,4.609190464019775391e+00,4.485923290252685547e+00,4.369077205657958984e+00,4.258163928985595703e+00,4.152742385864257812e+00,4.052414417266845703e+00,3.956819295883178711e+00,3.865630149841308594e+00,3.778549671173095703e+00,3.695305585861206055e+00,3.615650653839111328e+00,3.539356946945190430e+00,3.466216802597045898e+00,3.396038293838500977e+00,3.328644990921020508e+00,3.263874530792236328e+00,3.201576709747314453e+00,3.141612291336059570e+00,3.083853006362915039e+00,3.028179168701171875e+00,2.974479675292968750e+00,2.922651767730712891e+00,2.872598886489868164e+00,2.824231624603271484e+00,2.777466297149658203e+00,2.732224225997924805e+00,2.688432455062866211e+00,2.646022319793701172e+00,2.604929685592651367e+00,2.565093517303466797e+00,2.526457548141479492e+00,2.488968372344970703e+00,2.452575206756591797e+00,2.417231082916259766e+00,2.382891416549682617e+00,2.349513292312622070e+00,2.317057609558105469e+00,2.285486459732055664e+00,2.254763841629028320e+00,2.224856615066528320e+00,2.195732116699218750e+00,2.167360305786132812e+00
5.000000000000000000e+00,5.000000000000000000e+00,5.000000000000000000e+00,5.000000000000000000e+00,5.000000000000000000e+00,5.000000000000000000e+00,5.000000000000000000e+00,5.000000000000000000e+00,5.000000000000000000e+00,5.000000000000000000e+00,5.000000000000000000e+00,5.000000000000000000e+00,5.000000000000000000e+00,5.000000000000000000e+00,5.000000000000000000e+00,5.000000000000000000e+00,5.000000000000000000e+00,5.000000000000000000e+00,5.000000000000000000e+00,5.000000000000000000e+00,5.000000000000000000e+00,5.000000000000000000e+00,5.000000000000000000e+00,5.000000000000000000e+00,5.000000000000000000e+00,5.000000000000000000e+00,5.000000000000000000e+00,5.000000000000000000e+00,5.000000000000000000e+00,5.000000000000000000e+00,5.000000000000000000e+00,5.000000000000000000e+00,5.000000000000000000e+00,5.000000000000000000e+00,5.000000000000000000e+00,5.000000000000000000e+00,4.877305507659912109e+00,4.739494800567626953e+00,4.609257221221923828e+00,4.485986709594726562e+00,4.369137287139892578e+00,4.258221149444580078e+00,4.152796745300292969e+00,4.052466392517089844e+00,3.956869602203369141e+00,3.865679264068603516e+00,3.778597354888916016e+00,3.695352315902709961e+00,3.615695953369140625e+00,3.539401531219482422e+00,3.466260194778442383e+00,3.396080255508422852e+00,3.328686237335205078e+00,3.263914108276367188e+00,3.201614618301391602e+00,3.141649007797241211e+00,3.083888292312622070e+00,3.028213024139404297e+00,2.974512577056884766e+00,2.922683477401733398e+00,2.872629404067993164e+00,2.824261188507080078e+00,2.777494907379150391e+00,2.732251882553100586e+00,2.688459396362304688e+00,2.646048545837402344e+00,2.604954719543457031e+00,2.565118074417114258e+00,2.526481389999389648e+00,2.488991260528564453e+00,2.452597618103027344e+00,2.417253017425537109e+00,2.382912397384643555e+00,2.349534034729003906e+00,2.317077636718750000e+00,2.285505771636962891e+00,2.254782915115356445e+00,2.224874973297119141e+00,2.195749998092651367e+00,2.167377710342407227e+00
5.000000000000000000e+00,5.000000000000000000e+00,5.000000000000000000e+00,5.000000000000000000e+00,5.000000000000000000e+00,5.000000000000000000e+00,5.000000000000000000e+00,5.000000000000000000e+00,5.000000000000000000e+00,5.000000000000000000e+00,5.000000000000000000e+00,5.000000000000000000e+00,5.000000000000000000e+00,5.000000000000000000e+00,5.000000000000000000e+00,5.000000000000000000e+00,5.000000000000000000e+00,5.000000000000000000e+00,5.000000000000000000e+00,5.000000000000000000e+00,5.000000000000000000e+00,5.000000000000000000e+00,5.000000000000000000e+00,5.000000000000000000e+00,5.000000000000000000e+00,5.000000000000000000e+00,5.000000000000000000e+00,5.000000000000000000e+00,5.000000000000000000e+00,5.000000000000000000e+00,5.000000000000000000e+00,5.000000000000000000e+00,5.000000000000000000e+00,5.000000000000000000e+00,5.000000000000000000e+00,5.000000000000000000e+00,4.877380371093750000e+00,4.739565372467041016e+00,4.609323978424072266e+00,4.486049652099609375e+00,4.369197368621826172e+00,4.258277893066406250e+00,4.152850627899169922e+00,4.052517890930175781e+00,3.956918954849243164e+00,3.865726470947265625e+00,3.778641939163208008e+00,3.695395231246948242e+00,3.615737199783325195e+00,3.539440631866455078e+00,3.466297864913940430e+00,3.396116733551025391e+00,3.328721284866333008e+00,3.263948202133178711e+00,3.201648235321044922e+00,3.141681909561157227e+00,3.083920717239379883e+00,3.028244733810424805e+00,2.974543809890747070e+00,2.922713994979858398e+00,2.872659683227539062e+00,2.824290752410888672e+00,2.777523517608642578e+00,2.732279539108276367e+00,2.688486337661743164e+00,2.646074295043945312e+00,2.604979991912841797e+00,2.565142631530761719e+00,2.526504993438720703e+00,2.489014387130737305e+00,2.452620029449462891e+00,2.417274475097656250e+00,2.382933616638183594e+00,2.349554538726806641e+00,2.317097425460815430e+00,2.285525321960449219e+00,2.254801750183105469e+00,2.224893331527709961e+00,2.195767879486083984e+00,2.167395114898681641e+00
5.000000000000000000e+00,5.000000000000000000e+00,5.000000000000000000e+00,5.000000000000000000e+00,5.000000000000000000e+00,5.000000000000000000e+00,5.000000000000000000e+00,5.000000000000000000e+00,5.000000000000000000e+00,5.000000000000000000e+00,5.000000000000000000e+00,5.000000000000000000e+00,5.000000000000000000e+00,5.000000000000000000e+00,5.000000000000000000e+00,5.000000000000000000e+00,5.000000000000000000e+00,5.000000000000000000e+00,5.000000000000000000e+00,5.000000000000000000e+00,5.000000000000000000e+00,5.000000000000000000e+00,5.000000000000000000e+00,5.000000000000000000e+00,5.000000000000000000e+00,5.000000000000000000e+00,5.000000000000000000e+00,5.000000000000000000e+00,5.000000000000000000e+00,5.000000000000000000e+00,5.000000000000000000e+00,5.000000000000000000e+00,5.000000000000000000e+00,5.000000000000000000e+00,5.000000000000000000e+00,5.000000000000000000e+00,4.877454757690429688e+00,4.739635944366455078e+00,4.609390735626220703e+00,4.486113071441650391e+00,4.369257450103759766e+00,4.258335113525390625e+00,4.152904987335205078e+00,4.052569866180419922e+00,3.956968069076538086e+00,3.865773200988769531e+00,3.778687238693237305e+00,3.695437908172607422e+00,3.615778207778930664e+00,3.539480209350585938e+00,3.466335773468017578e+00,3.396152734756469727e+00,3.328755855560302734e+00,3.263981819152832031e+00,3.201680660247802734e+00,3.141712903976440430e+00,3.083950519561767578e+00,3.028273582458496094e+00,2.974571704864501953e+00,2.922740697860717773e+00,2.872685432434082031e+00,2.824316024780273438e+00,2.777548313140869141e+00,2.732303857803344727e+00,2.688510179519653320e+00,2.646098136901855469e+00,2.605003356933593750e+00,2.565165519714355469e+00,2.526527881622314453e+00,2.489036798477172852e+00,2.452642202377319336e+00,2.417296409606933594e+00,2.382954597473144531e+00,2.349574804306030273e+00,2.317117452621459961e+00,2.285544633865356445e+00,2.254820585250854492e+00,2.224911689758300781e+00,2.195785760879516602e+00,2.167412757873535156e+00
5.000000000000000000e+00,5.000000000000000000e+00,5.000000000000000000e+00,5.000000000000000000e+00,5.000000000000000000e+00,5.000000000000000000e+00,5.000000000000000000e+00,5.000000000000000000e+00,5.000000000000000000e+00,5.000000000000000000e+00,5.000000000000000000e+00,5.000000000000000000e+00,5.000000000000000000e+00,5.000000000000000000e+00,5.000000000000000000e+00,5.000000000000000000e+00,5.000000000000000000e+00,5.000000000000000000e+00,5.000000000000000000e+00,5.000000000000000000e+00,5.000000000000000000e+00,5.000000000000000000e+00,5.000000000000000000e+00,5.000000000000000000e+00,5.000000000000000000e+00,5.000000000000000000e+00,5.000000000000000000e+00,5.000000000000000000e+00,5.000000000000000000e+00,5.000000000000000000e+00,5.000000000000000000e+00,5.000000000000000000e+00,5.000000000000000000e+00,5.000000000000000000e+00,5.000000000000000000e+00,5.000000000000000000e+00,4.877529621124267578e+00,4.739706516265869141e+00,4.609457492828369141e+00,4.486176490783691406e+00,4.369317531585693359e+00,4.258391857147216797e+00,4.152959346771240234e+00,4.052621364593505859e+00,3.957017421722412109e+00,3.865819931030273438e+00,3.778731822967529297e+00,3.695481061935424805e+00,3.615819454193115234e+00,3.539519309997558594e+00,3.466373443603515625e+00,3.396189212799072266e+00,3.328790903091430664e+00,3.264015197753906250e+00,3.201712608337402344e+00,3.141743898391723633e+00,3.083980560302734375e+00,3.028302431106567383e+00,2.974599361419677734e+00,2.922767877578735352e+00,2.872711420059204102e+00,2.824340820312500000e+00,2.777572393417358398e+00,2.732327461242675781e+00,2.688532829284667969e+00,2.646120071411132812e+00,2.605024814605712891e+00,2.565186262130737305e+00,2.526547670364379883e+00,2.489056110382080078e+00,2.452661037445068359e+00,2.417315006256103516e+00,2.382972955703735352e+00,2.349593162536621094e+00,2.317135572433471680e+00,2.285562753677368164e+00,2.254838228225708008e+00,2.224929332733154297e+00,2.195803165435791016e+00,2.167429924011230469e+00
5.000000000000000000e+00,5.000000000000000000e+00,5.000000000000000000e+00,5.000000000000000000e+00,5.000000000000000000e+00,5.000000000000000000e+00,5.000000000000000000e+00,5.000000000000000000e+00,5.000000000000000000e+00,5.000000000000000000e+00,5.000000000000000000e+00,5.000000000000000000e+00,5.000000000000000000e+00,5.000000000000000000e+00,5.000000000000000000e+00,5.000000000000000000e+00,5.000000000000000000e+00,5.000000000000000000e+00,5.000000000000000000e+00,5.000000000000000000e+00,5.000000000000000000e+00,5.000000000000000000e+00,5.000000000000000000e+00,5.000000000000000000e+00,5.000000000000000000e+00,5.000000000000000000e+00,5.000000000000000000e+00,5.000000000000000000e+00,5.000000000000000000e+00,5.000000000000000000e+00,5.000000000000000000e+00,5.000000000000000000e+00,5.000000000000000000e+00,5.000000000000000000e+00,5.000000000000000000e+00,5.000000000000000000e+00,4.877604484558105469e+00,4.739777088165283203e+00,4.609524250030517578e+00,4.486239910125732422e+00,4.369377613067626953e+00,4.258449077606201172e+00,4.153013229370117188e+00,4.052672863006591797e+00,3.957066535949707031e+00,3.865867137908935547e+00,3.778776884078979492e+00,3.695523738861083984e+00,3.615860462188720703e+00,3.539558887481689453e+00,3.466411352157592773e+00,3.396225452423095703e+00,3.328825473785400391e+00,3.264048814773559570e+00,3.201745033264160156e+00,3.141774892807006836e+00,3.084010124206542969e+00,3.028331279754638672e+00,2.974627256393432617e+00,2.922794580459594727e+00,2.872737407684326172e+00,2.824366092681884766e+00,2.777596473693847656e+00,2.732350826263427734e+00,2.688555717468261719e+00,2.646142244338989258e+00,2.605046033859252930e+00,2.565206766128540039e+00,2.526567935943603516e+00,2.489075899124145508e+00,2.452679872512817383e+00,2.417333364486694336e+00,2.382990837097167969e+00,2.349610567092895508e+00,2.317152500152587891e+00,2.285578966140747070e+00,2.254854440689086914e+00,2.224944829940795898e+00,2.195818424224853516e+00,2.167444705963134766e+00
5.000000000000000000e+00,5.000000000000000000e+00,5.000000000000000000e+00,5.000000000000000000e+00,5.000000000000000000e+00,5.000000000000000000e+00,5.000000000000000000e+00,5.000000000000000000e+00,5.000000000000000000e+00,5.000000000000000000e+00,5.000000000000000000e+00,5.000000000000000000e+00,5.000000000000000000e+00,5.000000000000000000e+00,5.000000000000000000e+00,5.000000000000000000e+00,5.000000000000000000e+00,5.000000000000000000e+00,5.000000000000000000e+00,5.000000000000000000e+00,5.000000000000000000e+00,5.000000000000000000e+00,5.000000000000000000e+00,5.000000000000000000e+00,5.000000000000000000e+00,5.000000000000000000e+00,5.000000000000000000e+00,5.000000000000000000e+00,5.000000000000000000e+00,5.000000000000000000e+00,5.000000000000000000e+00,5.000000000000000000e+00,5.000000000000000000e+00,5.000000000000000000e+00,5.000000000000000000e+00,5.000000000000000000e+00,4.877679347991943359e+00,4.739847660064697266e+00,4.609591484069824219e+00,4.486302852630615234e+00,4.369437217712402344e+00,4.258505821228027344e+00,4.153067588806152344e+00,4.052724361419677734e+00,3.957115888595581055e+00,3.865913867950439453e+00,3.778821706771850586e+00,3.695566892623901367e+00,3.615901708602905273e+00,3.539598226547241211e+00,3.466449022293090820e+00,3.396261692047119141e+00,3.328860521316528320e+00,3.264082193374633789e+00,3.201777219772338867e+00,3.141806125640869141e+00,3.084039926528930664e+00,3.028360128402709961e+00,2.974654912948608398e+00,2.922821521759033203e+00,2.872763156890869141e+00,2.824391126632690430e+00,2.777621030807495117e+00,2.732374429702758789e+00,2.688578367233276367e+00,2.646164178848266602e+00,2.605067253112792969e+00,2.565227746963500977e+00,2.526587963104248047e+00,2.489095211029052734e+00,2.452698945999145508e+00,2.417351722717285156e+00,2.383008718490600586e+00,2.349627971649169922e+00,2.317169427871704102e+00,2.285595417022705078e+00,2.254870414733886719e+00,2.224960327148437500e+00,2.195833444595336914e+00,2.167459487915039062e+00
5.000000000000000000e+00,5.000000000000000000e+00,5.000000000000000000e+00,5.000000000000000000e+00,5.000000000000000000e+00,5.000000000000000000e+00,5.000000000000000000e+00,5.000000000000000000e+00,5.000000000000000000e+00,5.000000000000000000e+00,5.000000000000000000e+00,5.000000000000000000e+00,5.000000000000000000e+00,5.000000000000000000e+00,5.000000000000000000e+00,5.000000000000000000e+00,5.000000000000000000e+00,5.000000000000000000e+00,5.000000000000000000e+00,5.000000000000000000e+00,5.000000000000000000e+00,5.000000000000000000e+00,5.000000000000000000e+00,5.000000000000000000e+00,5.000000000000000000e+00,5.000000000000000000e+00,5.000000000000000000e+00,5.000000000000000000e+00,5.000000000000000000e+00,5.000000000000000000e+00,5.000000000000000000e+00,5.000000000000000000e+00,5.000000000000000000e+00,5.000000000000000000e+00,5.000000000000000000e+00,5.000000000000000000e+00,4.877754211425781250e+00,4.739918231964111328e+00,4.609658241271972656e+00,4.486365795135498047e+00,4.369497299194335938e+00,4.258563041687011719e+00,4.153121948242187500e+00,4.052775859832763672e+00,3.957165002822875977e+00,3.865961074829101562e+00,3.778866767883300781e+00,3.695609569549560547e+00,3.615942478179931641e+00,3.539637804031372070e+00,3.466486930847167969e+00,3.396297931671142578e+00,3.328895330429077148e+00,3.264115810394287109e+00,3.201809167861938477e+00,3.141836881637573242e+00,3.084069967269897461e+00,3.028388977050781250e+00,2.974682569503784180e+00,2.922848224639892578e+00,2.872789382934570312e+00,2.824416399002075195e+00,2.777645111083984375e+00,2.732397794723510742e+00,2.688601016998291016e+00,2.646186113357543945e+00,2.605088710784912109e+00,2.565248250961303711e+00,2.526607990264892578e+00,2.489114761352539062e+00,2.452717781066894531e+00,2.417370080947875977e+00,2.383026599884033203e+00,2.349645137786865234e+00,2.317186117172241211e+00,2.285611867904663086e+00,2.254886388778686523e+00,2.224975824356079102e+00,2.195848703384399414e+00,2.167474269866943359e+00
5.000000000000000000e+00,5.000000000000000000e+00,5.000000000000000000e+00,5.000000000000000000e+00,5.000000000000000000e+00,5.000000000000000000e+00,5.000000000000000000e+00,5.000000000000000000e+00,5.000000000000000000e+00,5.000000000000000000e+00,5.000000000000000000e+00,5.000000000000000000e+00,5.000000000000000000e+00,5.000000000000000000e+00,5.000000000000000000e+00,5.000000000000000000e+00,5.000000000000000000e+00,5.000000000000000000e+00,5.000000000000000000e+00,5.000000000000000000e+00,5.000000000000000000e+00,5.000000000000000000e+00,5.000000000000000000e+00,5.000000000000000000e+00,5.000000000000000000e+00,5.000000000000000000e+00,5.000000000000000000e+00,5.000000000000000000e+00,5.000000000000000000e+00,5.000000000000000000e+00,5.000000000000000000e+00,5.000000000000000000e+00,5.000000000000000000e+00,5.000000000000000000e+00,5.000000000000000000e+00,5.000000000000000000e+00,4.877829074859619141e+00,4.739988803863525391e+00,4.609724998474121094e+00,4.486429214477539062e+00,4.369557380676269531e+00,4.258619785308837891e+00,4.153176307678222656e+00,4.052827835083007812e+00,3.957214355468750000e+00,3.866007804870605469e+00,3.778911352157592773e+00,3.695652723312377930e+00,3.615983963012695312e+00,3.539676904678344727e+00,3.466524600982666016e+00,3.396334409713745117e+00,3.328929901123046875e+00,3.264149188995361328e+00,3.201841592788696289e+00,3.141868114471435547e+00,3.084099769592285156e+00,3.028417825698852539e+00,2.974710702896118164e+00,2.922875165939331055e+00,2.872815132141113281e+00,2.824441194534301758e+00,2.777669429779052734e+00,2.732421398162841797e+00,2.688623666763305664e+00,2.646208047866821289e+00,2.605109930038452148e+00,2.565268993377685547e+00,2.526628017425537109e+00,2.489134073257446289e+00,2.452736854553222656e+00,2.417388200759887695e+00,2.383044481277465820e+00,2.349662542343139648e+00,2.317203044891357422e+00,2.285628080368041992e+00,2.254902362823486328e+00,2.224991559982299805e+00,2.195863962173461914e+00,2.167489051818847656e+00
5.000000000000000000e+00,5.000000000000000000e+00,5.000000000000000000e+00,5.000000000000000000e+00,5.000000000000000000e+00,5.000000000000000000e+00,5.000000000000000000e+00,5.000000000000000000e+00,5.000000000000000000e+00,5.000000000000000000e+00,5.000000000000000000e+00,5.000000000000000000e+00,5.000000000000000000e+00,5.000000000000000000e+00,5.000000000000000000e+00,5.000000000000000000e+00,5.000000000000000000e+00,5.000000000000000000e+00,5.000000000000000000e+00,5.000000000000000000e+00,5.000000000000000000e+00,5.000000000000000000e+00,5.000000000000000000e+00,5.000000000000000000e+00,5.000000000000000000e+00,5.000000000000000000e+00,5.000000000000000000e+00,5.000000000000000000e+00,5.000000000000000000e+00,5.000000000000000000e+00,5.000000000000000000e+00,5.000000000000000000e+00,5.000000000000000000e+00,5.000000000000000000e+00,5.000000000000000000e+00,5.000000000000000000e+00,4.877903938293457031e+00,4.740059375762939453e+00,4.609791755676269531e+00,4.486492633819580078e+00,4.369617462158203125e+00,4.258677005767822266e+00,4.153230190277099609e+00,4.052879333496093750e+00,3.957263469696044922e+00,3.866055250167846680e+00,3.778956413269042969e+00,3.695695400238037109e+00,3.616024732589721680e+00,3.539716482162475586e+00,3.466562032699584961e+00,3.396370410919189453e+00,3.328964948654174805e+00,3.264182806015014648e+00,3.201873779296875000e+00,3.141899108886718750e+00,3.084129810333251953e+00,3.028446674346923828e+00,2.974738359451293945e+00,2.922901868820190430e+00,2.872841119766235352e+00,2.824466466903686523e+00,2.777693510055541992e+00,2.732444763183593750e+00,2.688646554946899414e+00,2.646230220794677734e+00,2.605131387710571289e+00,2.565289497375488281e+00,2.526648283004760742e+00,2.489153623580932617e+00,2.452755689620971680e+00,2.417406797409057617e+00,2.383062362670898438e+00,2.349679946899414062e+00,2.317219972610473633e+00,2.285644769668579102e+00,2.254918336868286133e+00,2.225007057189941406e+00,2.195878982543945312e+00,2.167503833770751953e+00
5.000000000000000000e+00,5.000000000000000000e+00,5.000000000000000000e+00,5.000000000000000000e+00,5.000000000000000000e+00,5.000000000000000000e+00,5.000000000000000000e+00,5.000000000000000000e+00,5.000000000000000000e+00,5.000000000000000000e+00,5.000000000000000000e+00,5.000000000000000000e+00,5.000000000000000000e+00,5.000000000000000000e+00,5.000000000000000000e+00,5.000000000000000000e+00,5.000000000000000000e+00,5.000000000000000000e+00,5.000000000000000000e+00,5.000000000000000000e+00,5.000000000000000000e+00,5.000000000000000000e+00,5.000000000000000000e+00,5.000000000000000000e+00,5.000000000000000000e+00,5.000000000000000000e+00,5.000000000000000000e+00,5.000000000000000000e+00,5.000000000000000000e+00,5.000000000000000000e+00,5.000000000000000000e+00,5.000000000000000000e+00,5.000000000000000000e+00,5.000000000000000000e+00,5.000000000000000000e+00,5.000000000000000000e+00,4.877978801727294922e+00,4.740129947662353516e+00,4.609858512878417969e+00,4.486555576324462891e+00,4.369677543640136719e+00,4.258733749389648438e+00,4.153284549713134766e+00,4.052930831909179688e+00,3.957312822341918945e+00,3.866101980209350586e+00,3.779001235961914062e+00,3.695738554000854492e+00,3.616065740585327148e+00,3.539755821228027344e+00,3.466600179672241211e+00,3.396406888961791992e+00,3.328999519348144531e+00,3.264216184616088867e+00,3.201906204223632812e+00,3.141930341720581055e+00,3.084159612655639648e+00,3.028475284576416016e+00,2.974766254425048828e+00,2.922929048538208008e+00,2.872867107391357422e+00,2.824491500854492188e+00,2.777718067169189453e+00,2.732468366622924805e+00,2.688669204711914062e+00,2.646252155303955078e+00,2.605152606964111328e+00,2.565310239791870117e+00,2.526668310165405273e+00,2.489173173904418945e+00,2.452774524688720703e+00,2.417424917221069336e+00,2.383080005645751953e+00,2.349697351455688477e+00,2.317236900329589844e+00,2.285660982131958008e+00,2.254934310913085938e+00,2.225022554397583008e+00,2.195894241333007812e+00,2.167518615722656250e+00
5.000000000000000000e+00,5.000000000000000000e+00,5.000000000000000000e+00,5.000000000000000000e+00,5.000000000000000000e+00,5.000000000000000000e+00,5.000000000000000000e+00,5.000000000000000000e+00,5.000000000000000000e+00,5.000000000000000000e+00,5.000000000000000000e+00,5.000000000000000000e+00,5.000000000000000000e+00,5.000000000000000000e+00,5.000000000000000000e+00,5.000000000000000000e+00,5.000000000000000000e+00,5.000000000000000000e+00,5.000000000000000000e+00,5.000000000000000000e+00,5.000000000000000000e+00,5.000000000000000000e+00,5.000000000000000000e+00,5.000000000000000000e+00,5.000000000000000000e+00,5.000000000000000000e+00,5.000000000000000000e+00,5.000000000000000000e+00,5.000000000000000000e+00,5.000000000000000000e+00,5.000000000000000000e+00,5.000000000000000000e+00,5.000000000000000000e+00,5.000000000000000000e+00,5.000000000000000000e+00,5.000000000000000000e+00,4.878053188323974609e+00,4.740200519561767578e+00,4.609925270080566406e+00,4.486618995666503906e+00,4.369737625122070312e+00,4.258790969848632812e+00,4.153338909149169922e+00,4.052982807159423828e+00,3.957361936569213867e+00,3.866149187088012695e+00,3.779045820236206055e+00,3.695781469345092773e+00,3.616106986999511719e+00,3.539795398712158203e+00,3.466637611389160156e+00,3.396442890167236328e+00,3.329034566879272461e+00,3.264249801635742188e+00,3.201938152313232422e+00,3.141961097717285156e+00,3.084189653396606445e+00,3.028504371643066406e+00,2.974793910980224609e+00,2.922955751419067383e+00,2.872893095016479492e+00,2.824516534805297852e+00,2.777742147445678711e+00,2.732491731643676758e+00,2.688692092895507812e+00,2.646274089813232422e+00,2.605174064636230469e+00,2.565330982208251953e+00,2.526688337326049805e+00,2.489192485809326172e+00,2.452793359756469727e+00,2.417443513870239258e+00,2.383098125457763672e+00,2.349714517593383789e+00,2.317253589630126953e+00,2.285677433013916016e+00,2.254950284957885742e+00,2.225038051605224609e+00,2.195909261703491211e+00,2.167533397674560547e+00
5.000000000000000000e+00,5.000000000000000000e+00,5.000000000000000000e+00,5.000000000000000000e+00,5.000000000000000000e+00,5.000000000000000000e+00,5.000000000000000000e+00,5.000000000000000000e+00,5.000000000000000000e+00,5.000000000000000000e+00,5.000000000000000000e+00,5.000000000000000000e+00,5.000000000000000000e+00,5.000000000000000000e+00,5.000000000000000000e+00,5.000000000000000000e+00,5.000000000000000000e+00,5.000000000000000000e+00,5.000000000000000000e+00,5.000000000000000000e+00,5.000000000000000000e+00,5.000000000000000000e+00,5.000000000000000000e+00,5.000000000000000000e+00,5.000000000000000000e+00,5.000000000000000000e+00,5.000000000000000000e+00,5.000000000000000000e+00,5.000000000000000000e+00,5.000000000000000000e+00,5.000000000000000000e+00,5.000000000000000000e+00,5.000000000000000000e+00,5.000000000000000000e+00,5.000000000000000000e+00,5.000000000000000000e+00,4.878128051757812500e+00,4.740271091461181641e+00,4.609992027282714844e+00,4.486682415008544922e+00,4.369797706604003906e+00,4.258848190307617188e+00,4.153393268585205078e+00,4.053034305572509766e+00,3.957411050796508789e+00,3.866195917129516602e+00,3.779091119766235352e+00,3.695824623107910156e+00,3.616147994995117188e+00,3.539834499359130859e+00,3.466675758361816406e+00,3.396479368209838867e+00,3.329069375991821289e+00,3.264283180236816406e+00,3.201970577239990234e+00,3.141992330551147461e+00,3.084219455718994141e+00,3.028532981872558594e+00,2.974821805953979492e+00,2.922982692718505859e+00,2.872918844223022461e+00,2.824541568756103516e+00,2.777766466140747070e+00,2.732515096664428711e+00,2.688714742660522461e+00,2.646296262741088867e+00,2.605195283889770508e+00,2.565351486206054688e+00,2.526708364486694336e+00,2.489212036132812500e+00,2.452812433242797852e+00,2.417461872100830078e+00,2.383115768432617188e+00,2.349731922149658203e+00,2.317270755767822266e+00,2.285693883895874023e+00,2.254966259002685547e+00,2.225053787231445312e+00,2.195924282073974609e+00,2.167547941207885742e+00
5.000000000000000000e+00,5.000000000000000000e+00,5.000000000000000000e+00,5.000000000000000000e+00,5.000000000000000000e+00,5.000000000000000000e+00,5.000000000000000000e+00,5.000000000000000000e+00,5.000000000000000000e+00,5.000000000000000000e+00,5.000000000000000000e+00,5.000000000000000000e+00,5.000000000000000000e+00,5.000000000000000000e+00,5.000000000000000000e+00,5.000000000000000000e+00,5.000000000000000000e+00,5.000000000000000000e+00,5.000000000000000000e+00,5.000000000000000000e+00,5.000000000000000000e+00,5.000000000000000000e+00,5.000000000000000000e+00,5.000000000000000000e+00,5.000000000000000000e+00,5.000000000000000000e+00,5.000000000000000000e+00,5.000000000000000000e+00,5.000000000000000000e+00,5.000000000000000000e+00,5.000000000000000000e+00,5.000000000000000000e+00,5.000000000000000000e+00,5.000000000000000000e+00,5.000000000000000000e+00,5.000000000000000000e+00,4.878202915191650391e+00,4.740342140197753906e+00,4.610058784484863281e+00,4.486745834350585938e+00,4.369857788085937500e+00,4.258904933929443359e+00,4.153447151184082031e+00,4.053085803985595703e+00,3.957460403442382812e+00,3.866243124008178711e+00,3.779135704040527344e+00,3.695867300033569336e+00,3.616189241409301758e+00,3.539874076843261719e+00,3.466713190078735352e+00,3.396515607833862305e+00,3.329104185104370117e+00,3.264316797256469727e+00,3.202002763748168945e+00,3.142023086547851562e+00,3.084249496459960938e+00,3.028562068939208984e+00,2.974849700927734375e+00,2.923009395599365234e+00,2.872945070266723633e+00,2.824566602706909180e+00,2.777790546417236328e+00,2.732538700103759766e+00,2.688737392425537109e+00,2.646318197250366211e+00,2.605216741561889648e+00,2.565372467041015625e+00,2.526728630065917969e+00,2.489231348037719727e+00,2.452831268310546875e+00,2.417480230331420898e+00,2.383133649826049805e+00,2.349749326705932617e+00,2.317287445068359375e+00,2.285710334777832031e+00,2.254982233047485352e+00,2.225069284439086914e+00,2.195939540863037109e+00,2.167562961578369141e+00
4.875086307525634766e+00,4.873868942260742188e+00,4.872652530670166016e+00,4.871436595916748047e+00,4.870221138000488281e+00,4.869007110595703125e+00,4.867793083190917969e+00,4.866579532623291016e+00,4.865366458892822266e+00,4.864154338836669922e+00,4.862942695617675781e+00,4.861732006072998047e+00,4.860521316528320312e+00,4.859311580657958984e+00,4.858102798461914062e+00,4.856894016265869141e+00,4.855686187744140625e+00,4.854478359222412109e+00,4.853271961212158203e+00,4.852066040039062500e+00,4.850860118865966797e+00,4.849655151367187500e+00,4.848450660705566406e+00,4.847247123718261719e+00,4.846044063568115234e+00,4.844841480255126953e+00,4.843639373779296875e+00,4.842438220977783203e+00,4.841237068176269531e+00,4.840036869049072266e+00,4.838837146759033203e+00,4.837638378143310547e+00,4.836440086364746094e+00,4.835241794586181641e+00,4.834044933319091797e+00,4.832848548889160156e+00,4.831652164459228516e+00,4.740412712097167969e+00,4.610126018524169922e+00,4.486808776855468750e+00,4.369917392730712891e+00,4.258962154388427734e+00,4.153501510620117188e+00,4.053137302398681641e+00,3.957509517669677734e+00,3.866289854049682617e+00,3.779180765151977539e+00,3.695910453796386719e+00,3.616230249404907227e+00,3.539913415908813477e+00,3.466751337051391602e+00,3.396551847457885742e+00,3.329138994216918945e+00,3.264350175857543945e+00,3.202034950256347656e+00,3.142054319381713867e+00,3.084279298782348633e+00,3.028590679168701172e+00,2.974877595901489258e+00,2.923036098480224609e+00,2.872970819473266602e+00,2.824591875076293945e+00,2.777815103530883789e+00,2.732562065124511719e+00,2.688760042190551758e+00,2.646340131759643555e+00,2.605238199234008789e+00,2.565392971038818359e+00,2.526748418807983398e+00,2.489251136779785156e+00,2.452850341796875000e+00,2.417498588562011719e+00,2.383151531219482422e+00,2.349766731262207031e+00,2.317304372787475586e+00,2.285726785659790039e+00,2.254998207092285156e+00,2.225085020065307617e+00,2.195954799652099609e+00,2.167577505111694336e+00
3.778171539306640625e+00,3.777440309524536133e+00,3.776709318161010742e+00,3.775979280471801758e+00,3.775249004364013672e+00,3.774518966674804688e+00,3.773789644241333008e+00,3.773060083389282227e+00,3.772330999374389648e+00,3.771602153778076172e+00,3.770874023437500000e+00,3.770145654678344727e+00,3.769417524337768555e+00,3.768690109252929688e+00,3.767962694168090820e+00,3.767235517501831055e+00,3.766509056091308594e+00,3.765782356262207031e+00,3.765056133270263672e+00,3.764330387115478516e+00,3.763604640960693359e+00,3.762879133224487305e+00,3.762153863906860352e+00,3.761429309844970703e+00,3.760704517364501953e+00,3.759980201721191406e+00,3.759256601333618164e+00,3.758532762527465820e+00,3.757809162139892578e+00,3.757086277008056641e+00,3.756363153457641602e+00,3.755640506744384766e+00,3.754918336868286133e+00,3.754196166992187500e+00,3.753474473953247070e+00,3.752753257751464844e+00,3.752031803131103516e+00,3.751310825347900391e+00,3.750589847564697266e+00,3.749869823455810547e+00,3.749149560928344727e+00,3.748429536819458008e+00,3.747710466384887695e+00,3.746990919113159180e+00,3.746271848678588867e+00,3.745553493499755859e+00,3.744834899902343750e+00,3.695953130722045898e+00,3.616271495819091797e+00,3.539952993392944336e+00,3.466788768768310547e+00,3.396588087081909180e+00,3.329174041748046875e+00,3.264383792877197266e+00,3.202067136764526367e+00,3.142085313796997070e+00,3.084309339523315430e+00,3.028619527816772461e+00,2.974905252456665039e+00,2.923063039779663086e+00,2.872996807098388672e+00,2.824616670608520508e+00,2.777839183807373047e+00,2.732585668563842773e+00,2.688782930374145508e+00,2.646362066268920898e+00,2.605259418487548828e+00,2.565413713455200195e+00,2.526768684387207031e+00,2.489270448684692383e+00,2.452869176864624023e+00,2.417516946792602539e+00,2.383169174194335938e+00,2.349784135818481445e+00,2.317321300506591797e+00,2.285743236541748047e+00,2.255014181137084961e+00,2.225100517272949219e+00,2.195969820022583008e+00,2.167592525482177734e+00
3.084210872650146484e+00,3.083723783493041992e+00,3.083236932754516602e+00,3.082749843597412109e+00,3.082263231277465820e+00,3.081776857376098633e+00,3.081290483474731445e+00,3.080804109573364258e+00,3.080318212509155273e+00,3.079832077026367188e+00,3.079346418380737305e+00,3.078860759735107422e+00,3.078375339508056641e+00,3.077889919281005859e+00,3.077404975891113281e+00,3.076919794082641602e+00,3.076434850692749023e+00,3.075950145721435547e+00,3.075465679168701172e+00,3.074981212615966797e+00,3.074496984481811523e+00,3.074012994766235352e+00,3.073529005050659180e+00,3.073045015335083008e+00,3.072561740875244141e+00,3.072077989578247070e+00,3.071594715118408203e+00,3.071111679077148438e+00,3.070628643035888672e+00,3.070145606994628906e+00,3.069662809371948242e+00,3.069180488586425781e+00,3.068697929382324219e+00,3.068215608596801758e+00,3.067733526229858398e+00,3.067251682281494141e+00,3.066769599914550781e+00,3.066288232803344727e+00,3.065806627273559570e+00,3.065325260162353516e+00,3.064844369888305664e+00,3.064363002777099609e+00,3.063882112503051758e+00,3.063401460647583008e+00,3.062920808792114258e+00,3.062440395355224609e+00,3.061959981918334961e+00,3.061480045318603516e+00,3.060999870300292969e+00,3.060519933700561523e+00,3.060040473937988281e+00,3.059560775756835938e+00,3.059081315994262695e+00,3.058602333068847656e+00,3.058123111724853516e+00,3.057643890380859375e+00,3.057165384292602539e+00,3.028648376464843750e+00,2.974933147430419922e+00,2.923089981079101562e+00,2.873022794723510742e+00,2.824641942977905273e+00,2.777863502502441406e+00,2.732609033584594727e+00,2.688805580139160156e+00,2.646384239196777344e+00,2.605280876159667969e+00,2.565434455871582031e+00,2.526788711547851562e+00,2.489289999008178711e+00,2.452888011932373047e+00,2.417535305023193359e+00,2.383187294006347656e+00,2.349801540374755859e+00,2.317337989807128906e+00,2.285759687423706055e+00,2.255030155181884766e+00,2.225116014480590820e+00,2.195985078811645508e+00,2.167607069015502930e+00
2.605620384216308594e+00,2.605272769927978516e+00,2.604924917221069336e+00,2.604577541351318359e+00,2.604230165481567383e+00,2.603882789611816406e+00,2.603535652160644531e+00,2.603188514709472656e+00,2.602841377258300781e+00,2.602494239807128906e+00,2.602147579193115234e+00,2.601800680160522461e+00,2.601454019546508789e+00,2.601107358932495117e+00,2.600760936737060547e+00,2.600414514541625977e+00,2.600068330764770508e+00,2.599721908569335938e+00,2.599375724792480469e+00,2.599029779434204102e+00,2.598683834075927734e+00,2.598337888717651367e+00,2.597992181777954102e+00,2.597646474838256836e+00,2.597301006317138672e+00,2.596955299377441406e+00,2.596610069274902344e+00,2.596264839172363281e+00,2.595919370651245117e+00,2.595574378967285156e+00,2.595229387283325195e+00,2.594884395599365234e+00,2.594539642333984375e+00,2.594194889068603516e+00,2.593850135803222656e+00,2.593505620956420898e+00,2.593161106109619141e+00,2.592816591262817383e+00,2.592472314834594727e+00,2.592128276824951172e+00,2.591784000396728516e+00,2.591439962387084961e+00,2.591096162796020508e+00,2.590752363204956055e+00,2.590408563613891602e+00,2.590065002441406250e+00,2.589721441268920898e+00,2.589377880096435547e+00,2.589034557342529297e+00,2.588691234588623047e+00,2.588347911834716797e+00,2.588005065917968750e+00,2.587661981582641602e+00,2.587318897247314453e+00,2.586976051330566406e+00,2.586633443832397461e+00,2.586290597915649414e+00,2.585947990417480469e+00,2.585605859756469727e+00,2.585263252258300781e+00,2.584920883178710938e+00,2.584578990936279297e+00,2.584236621856689453e+00,2.583894729614257812e+00,2.583552837371826172e+00,2.583210945129394531e+00,2.582869052886962891e+00,2.565455198287963867e+00,2.526808738708496094e+00,2.489309310913085938e+00,2.452906847000122070e+00,2.417553663253784180e+00,2.383204936981201172e+00,2.349818706512451172e+00,2.317354917526245117e+00,2.285776138305664062e+00,2.255046129226684570e+00,2.225131511688232422e+00,2.196000337600708008e+00,2.167622089385986328e+00
2.255607604980468750e+00,2.255347013473510742e+00,2.255086660385131836e+00,2.254826307296752930e+00,2.254565715789794922e+00,2.254305601119995117e+00,2.254045248031616211e+00,2.253784894943237305e+00,2.253525018692016602e+00,2.253264904022216797e+00,2.253004789352416992e+00,2.252744913101196289e+00,2.252485036849975586e+00,2.252225160598754883e+00,2.251965284347534180e+00,2.251705646514892578e+00,2.251445770263671875e+00,2.251186132431030273e+00,2.250926733016967773e+00,2.250667333602905273e+00,2.250407695770263672e+00,2.250148534774780273e+00,2.249889135360717773e+00,2.249629974365234375e+00,2.249370813369750977e+00,2.249111652374267578e+00,2.248852491378784180e+00,2.248593568801879883e+00,2.248334646224975586e+00,2.248075723648071289e+00,2.247816801071166992e+00,2.247558116912841797e+00,2.247299432754516602e+00,2.247040748596191406e+00,2.246782064437866211e+00,2.246523618698120117e+00,2.246264934539794922e+00,2.246006727218627930e+00,2.245748281478881836e+00,2.245489835739135742e+00,2.245231866836547852e+00,2.244973659515380859e+00,2.244715452194213867e+00,2.244457483291625977e+00,2.244199514389038086e+00,2.243941545486450195e+00,2.243683576583862305e+00,2.243425846099853516e+00,2.243167877197265625e+00,2.242910146713256836e+00,2.242652654647827148e+00,2.242395162582397461e+00,2.242137432098388672e+00,2.241880178451538086e+00,2.241622686386108398e+00,2.241365194320678711e+00,2.241108179092407227e+00,2.240850687026977539e+00,2.240593671798706055e+00,2.240336656570434570e+00,2.240079402923583984e+00,2.239822387695312500e+00,2.239565372467041016e+00,2.239308595657348633e+00,2.239051818847656250e+00,2.238795042037963867e+00,2.238538503646850586e+00,2.238281726837158203e+00,2.238025188446044922e+00,2.237768650054931641e+00,2.237512111663818359e+00,2.237255811691284180e+00,2.236999511718750000e+00,2.236743211746215820e+00,2.236486911773681641e+00,2.236230611801147461e+00,2.235974550247192383e+00,2.225147247314453125e+00,2.196015357971191406e+00,2.167636632919311523e+00
1.988493680953979492e+00,1.988291263580322266e+00,1.988088607788085938e+00,1.987886309623718262e+00,1.987684011459350586e+00,1.987481474876403809e+00,1.987279295921325684e+00,1.987077116966247559e+00,1.986874699592590332e+00,1.986672639846801758e+00,1.986470580101013184e+00,1.986268281936645508e+00,1.986066341400146484e+00,1.985864400863647461e+00,1.985662221908569336e+00,1.985460400581359863e+00,1.985258579254150391e+00,1.985056638717651367e+00,1.984854936599731445e+00,1.984653234481811523e+00,1.984451293945312500e+00,1.984249711036682129e+00,1.984047889709472656e+00,1.983846306800842285e+00,1.983644843101501465e+00,1.983443260192871094e+00,1.983241796493530273e+00,1.983040452003479004e+00,1.982838869094848633e+00,1.982637643814086914e+00,1.982436418533325195e+00,1.982234954833984375e+00,1.982033729553222656e+00,1.981832623481750488e+00,1.981631398200988770e+00,1.981430292129516602e+00,1.981229305267333984e+00,1.981028079986572266e+00,1.980827212333679199e+00,1.980626344680786133e+00,1.980425238609313965e+00,1.980224490165710449e+00,1.980023741722106934e+00,1.979822754859924316e+00,1.979622125625610352e+00,1.979421496391296387e+00,1.979220628738403320e+00,1.979020118713378906e+00,1.978819608688354492e+00,1.978618860244750977e+00,1.978418469429016113e+00,1.978218078613281250e+00,1.978017449378967285e+00,1.977817177772521973e+00,1.977616667747497559e+00,1.977416515350341797e+00,1.977216243743896484e+00,1.977015852928161621e+00,1.976815819740295410e+00,1.976615786552429199e+00,1.976415514945983887e+00,1.976215481758117676e+00,1.976015567779541016e+00,1.975815415382385254e+00,1.975615620613098145e+00,1.975415706634521484e+00,1.975215673446655273e+00,1.975015997886657715e+00,1.974816322326660156e+00,1.974616408348083496e+00,1.974416732788085938e+00,1.974217176437377930e+00,1.974017381668090820e+00,1.973817944526672363e+00,1.973618507385253906e+00,1.973418831825256348e+00,1.973219513893127441e+00,1.973020076751708984e+00,1.972820639610290527e+00,1.972621321678161621e+00
1.777945518493652344e+00,1.777783632278442383e+00,1.777621746063232422e+00,1.777459859848022461e+00,1.777298092842102051e+00,1.777136445045471191e+00,1.776974558830261230e+00,1.776812911033630371e+00,1.776651263236999512e+00,1.776489496231079102e+00,1.776327848434448242e+00,1.776166319847106934e+00,1.776004672050476074e+00,1.775843143463134766e+00,1.775681734085083008e+00,1.775520086288452148e+00,1.775358676910400391e+00,1.775197148323059082e+00,1.775035858154296875e+00,1.774874567985534668e+00,1.774713039398193359e+00,1.774551868438720703e+00,1.774390578269958496e+00,1.774229168891906738e+00,1.774068117141723633e+00,1.773906946182250977e+00,1.773745656013488770e+00,1.773584604263305664e+00,1.773423552513122559e+00,1.773262381553649902e+00,1.773101329803466797e+00,1.772940397262573242e+00,1.772779226303100586e+00,1.772618412971496582e+00,1.772457480430603027e+00,1.772296547889709473e+00,1.772135615348815918e+00,1.771974921226501465e+00,1.771813988685607910e+00,1.771653175354003906e+00,1.771492600440979004e+00,1.771331667900085449e+00,1.771171092987060547e+00,1.771010398864746094e+00,1.770849704742431641e+00,1.770689129829406738e+00,1.770528435707092285e+00,1.770367980003356934e+00,1.770207524299621582e+00,1.770046830177307129e+00,1.769886493682861328e+00,1.769726037979125977e+00,1.769565582275390625e+00,1.769405245780944824e+00,1.769244909286499023e+00,1.769084572792053223e+00,1.768924355506896973e+00,1.768764138221740723e+00,1.768603682518005371e+00,1.768443584442138672e+00,1.768283486366271973e+00,1.768123269081115723e+00,1.767963171005249023e+00,1.767803192138671875e+00,1.767642974853515625e+00,1.767482995986938477e+00,1.767323017120361328e+00,1.767162919044494629e+00,1.767003059387207031e+00,1.766843199729919434e+00,1.766683220863342285e+00,1.766523480415344238e+00,1.766363739967346191e+00,1.766203761100769043e+00,1.766044020652770996e+00,1.765884160995483398e+00,1.765724539756774902e+00,1.765564918518066406e+00,1.765405178070068359e+00,1.765245676040649414e+00
1.607715368270874023e+00,1.607582926750183105e+00,1.607450604438781738e+00,1.607318401336669922e+00,1.607185959815979004e+00,1.607053637504577637e+00,1.606921434402465820e+00,1.606789112091064453e+00,1.606656908988952637e+00,1.606524586677551270e+00,1.606392502784729004e+00,1.606260418891906738e+00,1.606128096580505371e+00,1.605996131896972656e+00,1.605864048004150391e+00,1.605731844902038574e+00,1.605599880218505859e+00,1.605467915534973145e+00,1.605335712432861328e+00,1.605203866958618164e+00,1.605071902275085449e+00,1.604939818382263184e+00,1.604807972908020020e+00,1.604676127433776855e+00,1.604544162750244141e+00,1.604412317276000977e+00,1.604280591011047363e+00,1.604148626327514648e+00,1.604016900062561035e+00,1.603885173797607422e+00,1.603753328323364258e+00,1.603621602058410645e+00,1.603489995002746582e+00,1.603358149528503418e+00,1.603226542472839355e+00,1.603094935417175293e+00,1.602963209152221680e+00,1.602831721305847168e+00,1.602699995040893555e+00,1.602568507194519043e+00,1.602437019348144531e+00,1.602305412292480469e+00,1.602174043655395508e+00,1.602042555809020996e+00,1.601911067962646484e+00,1.601779699325561523e+00,1.601648330688476562e+00,1.601516842842102051e+00,1.601385474205017090e+00,1.601254224777221680e+00,1.601122856140136719e+00,1.600991606712341309e+00,1.600860357284545898e+00,1.600728988647460938e+00,1.600597858428955078e+00,1.600466609001159668e+00,1.600335359573364258e+00,1.600204229354858398e+00,1.600073099136352539e+00,1.599941849708557129e+00,1.599810838699340820e+00,1.599679827690124512e+00,1.599548578262329102e+00,1.599417686462402344e+00,1.599286675453186035e+00,1.599155545234680176e+00,1.599024653434753418e+00,1.598893642425537109e+00,1.598762750625610352e+00,1.598631858825683594e+00,1.598500847816467285e+00,1.598370075225830078e+00,1.598239302635192871e+00,1.598108291625976562e+00,1.597977638244628906e+00,1.597846865653991699e+00,1.597715973854064941e+00,1.597585320472717285e+00,1.597454667091369629e+00,1.597323894500732422e+00
1.467234373092651367e+00,1.467123985290527344e+00,1.467013835906982422e+00,1.466903686523437500e+00,1.466793417930603027e+00,1.466683268547058105e+00,1.466573119163513184e+00,1.466462850570678711e+00,1.466352701187133789e+00,1.466242671012878418e+00,1.466132402420043945e+00,1.466022372245788574e+00,1.465912342071533203e+00,1.465802192687988281e+00,1.465692281723022461e+00,1.465582251548767090e+00,1.465472102165222168e+00,1.465362191200256348e+00,1.465252280235290527e+00,1.465142250061035156e+00,1.465032339096069336e+00,1.464922428131103516e+00,1.464812397956848145e+00,1.464702606201171875e+00,1.464592695236206055e+00,1.464482784271240234e+00,1.464372992515563965e+00,1.464263200759887695e+00,1.464153289794921875e+00,1.464043498039245605e+00,1.463933706283569336e+00,1.463823914527893066e+00,1.463714241981506348e+00,1.463604450225830078e+00,1.463494777679443359e+00,1.463385105133056641e+00,1.463275313377380371e+00,1.463165760040283203e+00,1.463056087493896484e+00,1.462946414947509766e+00,1.462836861610412598e+00,1.462727308273315430e+00,1.462617635726928711e+00,1.462508082389831543e+00,1.462398648262023926e+00,1.462288975715637207e+00,1.462179541587829590e+00,1.462070107460021973e+00,1.461960554122924805e+00,1.461851119995117188e+00,1.461741685867309570e+00,1.461632132530212402e+00,1.461522817611694336e+00,1.461413383483886719e+00,1.461303949356079102e+00,1.461194634437561035e+00,1.461085319519042969e+00,1.460975885391235352e+00,1.460866689682006836e+00,1.460757374763488770e+00,1.460648059844970703e+00,1.460538744926452637e+00,1.460429430007934570e+00,1.460320234298706055e+00,1.460211038589477539e+00,1.460101723670959473e+00,1.459992647171020508e+00,1.459883451461791992e+00,1.459774255752563477e+00,1.459665179252624512e+00,1.459556102752685547e+00,1.459446907043457031e+00,1.459337830543518066e+00,1.459228873252868652e+00,1.459119677543640137e+00,1.459010720252990723e+00,1.458901643753051758e+00,1.458792567253112793e+00,1.458683609962463379e+00,1.458574771881103516e+00
1.349330782890319824e+00,1.349237561225891113e+00,1.349144220352172852e+00,1.349051117897033691e+00,1.348957896232604980e+00,1.348864674568176270e+00,1.348771452903747559e+00,1.348678350448608398e+00,1.348585128784179688e+00,1.348492026329040527e+00,1.348398923873901367e+00,1.348305702209472656e+00,1.348212599754333496e+00,1.348119616508483887e+00,1.348026394844055176e+00,1.347933411598205566e+00,1.347840309143066406e+00,1.347747206687927246e+00,1.347654223442077637e+00,1.347561240196228027e+00,1.347468137741088867e+00,1.347375273704528809e+00,1.347282171249389648e+00,1.347189307212829590e+00,1.347096323966979980e+00,1.347003340721130371e+00,1.346910476684570312e+00,1.346817612648010254e+00,1.346724629402160645e+00,1.346631765365600586e+00,1.346538901329040527e+00,1.346446037292480469e+00,1.346353173255920410e+00,1.346260428428649902e+00,1.346167445182800293e+00,1.346074700355529785e+00,1.345981955528259277e+00,1.345889091491699219e+00,1.345796346664428711e+00,1.345703601837158203e+00,1.345610737800598145e+00,1.345518112182617188e+00,1.345425367355346680e+00,1.345332622528076172e+00,1.345239996910095215e+00,1.345147252082824707e+00,1.345054507255554199e+00,1.344961881637573242e+00,1.344869375228881836e+00,1.344776630401611328e+00,1.344684004783630371e+00,1.344591498374938965e+00,1.344498753547668457e+00,1.344406247138977051e+00,1.344313621520996094e+00,1.344221115112304688e+00,1.344128608703613281e+00,1.344035983085632324e+00,1.343943476676940918e+00,1.343850970268249512e+00,1.343758463859558105e+00,1.343665957450866699e+00,1.343573570251464844e+00,1.343481063842773438e+00,1.343388557434082031e+00,1.343296170234680176e+00,1.343203783035278320e+00,1.343111395835876465e+00,1.343019008636474609e+00,1.342926502227783203e+00,1.342834234237670898e+00,1.342741847038269043e+00,1.342649459838867188e+00,1.342557191848754883e+00,1.342464923858642578e+00,1.342372536659240723e+00,1.342280268669128418e+00,1.342188000679016113e+00,1.342095732688903809e+00,1.342003464698791504e+00
1.248968124389648438e+00,1.248888134956359863e+00,1.248808145523071289e+00,1.248728275299072266e+00,1.248648285865783691e+00,1.248568415641784668e+00,1.248488545417785645e+00,1.248408675193786621e+00,1.248328685760498047e+00,1.248248815536499023e+00,1.248168945312500000e+00,1.248089075088500977e+00,1.248009204864501953e+00,1.247929334640502930e+00,1.247849583625793457e+00,1.247769713401794434e+00,1.247689962387084961e+00,1.247610092163085938e+00,1.247530341148376465e+00,1.247450590133666992e+00,1.247370719909667969e+00,1.247291088104248047e+00,1.247211456298828125e+00,1.247131705284118652e+00,1.247052073478698730e+00,1.246972441673278809e+00,1.246892690658569336e+00,1.246813178062438965e+00,1.246733546257019043e+00,1.246653914451599121e+00,1.246574282646179199e+00,1.246494770050048828e+00,1.246415138244628906e+00,1.246335625648498535e+00,1.246255993843078613e+00,1.246176481246948242e+00,1.246096968650817871e+00,1.246017456054687500e+00,1.245937824249267578e+00,1.245858311653137207e+00,1.245778918266296387e+00,1.245699405670166016e+00,1.245619893074035645e+00,1.245540499687194824e+00,1.245460987091064453e+00,1.245381593704223633e+00,1.245302081108093262e+00,1.245222687721252441e+00,1.245143294334411621e+00,1.245063781738281250e+00,1.244984388351440430e+00,1.244905114173889160e+00,1.244825601577758789e+00,1.244746327400207520e+00,1.244666934013366699e+00,1.244587540626525879e+00,1.244508266448974609e+00,1.244428992271423340e+00,1.244349598884582520e+00,1.244270324707031250e+00,1.244191050529479980e+00,1.244111657142639160e+00,1.244032502174377441e+00,1.243953227996826172e+00,1.243873953819274902e+00,1.243794679641723633e+00,1.243715524673461914e+00,1.243636250495910645e+00,1.243557095527648926e+00,1.243477821350097656e+00,1.243398666381835938e+00,1.243319511413574219e+00,1.243240356445312500e+00,1.243161082267761230e+00,1.243081927299499512e+00,1.243002772331237793e+00,1.242923617362976074e+00,1.242844581604003906e+00,1.242765426635742188e+00,1.242686390876770020e+00
1.162501692771911621e+00,1.162432432174682617e+00,1.162363171577453613e+00,1.162293910980224609e+00,1.162224650382995605e+00,1.162155389785766602e+00,1.162086248397827148e+00,1.162016868591308594e+00,1.161947727203369141e+00,1.161878466606140137e+00,1.161809325218200684e+00,1.161740064620971680e+00,1.161670923233032227e+00,1.161601781845092773e+00,1.161532640457153320e+00,1.161463499069213867e+00,1.161394357681274414e+00,1.161325216293334961e+00,1.161256074905395508e+00,1.161186933517456055e+00,1.161117672920227051e+00,1.161048650741577148e+00,1.160979509353637695e+00,1.160910487174987793e+00,1.160841345787048340e+00,1.160772323608398438e+00,1.160703182220458984e+00,1.160634160041809082e+00,1.160565137863159180e+00,1.160496115684509277e+00,1.160427093505859375e+00,1.160357952117919922e+00,1.160289049148559570e+00,1.160219907760620117e+00,1.160150885581970215e+00,1.160081863403320312e+00,1.160012960433959961e+00,1.159943938255310059e+00,1.159875035285949707e+00,1.159806013107299805e+00,1.159737110137939453e+00,1.159668207168579102e+00,1.159599304199218750e+00,1.159530401229858398e+00,1.159461498260498047e+00,1.159392714500427246e+00,1.159323930740356445e+00,1.159255027770996094e+00,1.159186244010925293e+00,1.159117341041564941e+00,1.159048557281494141e+00,1.158979773521423340e+00,1.158910989761352539e+00,1.158842086791992188e+00,1.158773422241210938e+00,1.158704638481140137e+00,1.158635854721069336e+00,1.158567070960998535e+00,1.158498406410217285e+00,1.158429503440856934e+00,1.158360838890075684e+00,1.158292174339294434e+00,1.158223390579223633e+00,1.158154726028442383e+00,1.158086061477661133e+00,1.158017277717590332e+00,1.157948613166809082e+00,1.157879948616027832e+00,1.157811284065246582e+00,1.157742619514465332e+00,1.157673954963684082e+00,1.157605409622192383e+00,1.157536745071411133e+00,1.157468080520629883e+00,1.157399535179138184e+00,1.157330870628356934e+00,1.157262206077575684e+00,1.157193660736083984e+00,1.157125115394592285e+00,1.157056450843811035e+00
1.087232232093811035e+00,1.087171673774719238e+00,1.087111115455627441e+00,1.087050557136535645e+00,1.086989879608154297e+00,1.086929321289062500e+00,1.086868762969970703e+00,1.086808204650878906e+00,1.086747646331787109e+00,1.086687088012695312e+00,1.086626648902893066e+00,1.086566090583801270e+00,1.086505532264709473e+00,1.086445093154907227e+00,1.086384534835815430e+00,1.086324095726013184e+00,1.086263537406921387e+00,1.086202979087829590e+00,1.086142539978027344e+00,1.086082100868225098e+00,1.086021661758422852e+00,1.085961222648620605e+00,1.085900783538818359e+00,1.085840344429016113e+00,1.085779905319213867e+00,1.085719466209411621e+00,1.085659027099609375e+00,1.085598587989807129e+00,1.085538148880004883e+00,1.085477828979492188e+00,1.085417270660400391e+00,1.085356950759887695e+00,1.085296511650085449e+00,1.085236191749572754e+00,1.085175871849060059e+00,1.085115432739257812e+00,1.085055112838745117e+00,1.084994792938232422e+00,1.084934473037719727e+00,1.084874033927917480e+00,1.084813714027404785e+00,1.084753394126892090e+00,1.084693074226379395e+00,1.084632754325866699e+00,1.084572434425354004e+00,1.084512114524841309e+00,1.084451794624328613e+00,1.084391593933105469e+00,1.084331274032592773e+00,1.084271073341369629e+00,1.084210753440856934e+00,1.084150552749633789e+00,1.084090232849121094e+00,1.084030032157897949e+00,1.083969831466674805e+00,1.083909630775451660e+00,1.083849310874938965e+00,1.083789110183715820e+00,1.083728909492492676e+00,1.083668708801269531e+00,1.083608508110046387e+00,1.083548307418823242e+00,1.083488225936889648e+00,1.083428025245666504e+00,1.083367943763732910e+00,1.083307862281799316e+00,1.083247780799865723e+00,1.083187699317932129e+00,1.083127498626708984e+00,1.083067417144775391e+00,1.083007454872131348e+00,1.082947254180908203e+00,1.082887291908264160e+00,1.082827210426330566e+00,1.082767128944396973e+00,1.082707047462463379e+00,1.082647085189819336e+00,1.082587003707885742e+00,1.082526922225952148e+00,1.082466959953308105e+00
1.021117210388183594e+00,1.021063804626464844e+00,1.021010279655456543e+00,1.020956873893737793e+00,1.020903348922729492e+00,1.020849943161010742e+00,1.020796537399291992e+00,1.020743131637573242e+00,1.020689725875854492e+00,1.020636320114135742e+00,1.020582914352416992e+00,1.020529508590698242e+00,1.020476222038269043e+00,1.020422816276550293e+00,1.020369410514831543e+00,1.020316004753112793e+00,1.020262598991394043e+00,1.020209312438964844e+00,1.020155906677246094e+00,1.020102620124816895e+00,1.020049214363098145e+00,1.019995927810668945e+00,1.019942641258239746e+00,1.019889235496520996e+00,1.019835948944091797e+00,1.019782662391662598e+00,1.019729375839233398e+00,1.019676089286804199e+00,1.019622683525085449e+00,1.019569396972656250e+00,1.019516110420227051e+00,1.019462823867797852e+00,1.019409537315368652e+00,1.019356250762939453e+00,1.019303083419799805e+00,1.019249796867370605e+00,1.019196510314941406e+00,1.019143342971801758e+00,1.019090056419372559e+00,1.019036769866943359e+00,1.018983602523803711e+00,1.018930315971374512e+00,1.018877029418945312e+00,1.018823862075805664e+00,1.018770694732666016e+00,1.018717527389526367e+00,1.018664240837097168e+00,1.018611073493957520e+00,1.018557906150817871e+00,1.018504738807678223e+00,1.018451571464538574e+00,1.018398404121398926e+00,1.018345236778259277e+00,1.018292069435119629e+00,1.018238902091979980e+00,1.018185734748840332e+00,1.018132567405700684e+00,1.018079400062561035e+00,1.018026351928710938e+00,1.017973184585571289e+00,1.017920136451721191e+00,1.017866969108581543e+00,1.017813920974731445e+00,1.017760753631591797e+00,1.017707705497741699e+00,1.017654538154602051e+00,1.017601490020751953e+00,1.017548322677612305e+00,1.017495274543762207e+00,1.017442226409912109e+00,1.017389178276062012e+00,1.017336130142211914e+00,1.017283082008361816e+00,1.017230033874511719e+00,1.017176985740661621e+00,1.017123937606811523e+00,1.017070889472961426e+00,1.017017841339111328e+00,1.016964912414550781e+00,1.016911864280700684e+00
9.625821709632873535e-01,9.625346660614013672e-01,9.624872207641601562e-01,9.624397158622741699e-01,9.623922109603881836e-01,9.623447656631469727e-01,9.622972607612609863e-01,9.622498154640197754e-01,9.622023701667785645e-01,9.621548652648925781e-01,9.621074199676513672e-01,9.620599746704101562e-01,9.620124697685241699e-01,9.619650244712829590e-01,9.619175791740417480e-01,9.618701338768005371e-01,9.618227481842041016e-01,9.617753028869628906e-01,9.617279171943664551e-01,9.616804718971252441e-01,9.616330862045288086e-01,9.615857005119323730e-01,9.615383148193359375e-01,9.614909291267395020e-01,9.614435434341430664e-01,9.613961577415466309e-01,9.613487720489501953e-01,9.613013863563537598e-01,9.612540006637573242e-01,9.612066745758056641e-01,9.611592888832092285e-01,9.611119627952575684e-01,9.610645771026611328e-01,9.610172510147094727e-01,9.609699249267578125e-01,9.609225988388061523e-01,9.608752727508544922e-01,9.608279466629028320e-01,9.607805013656616211e-01,9.607331752777099609e-01,9.606858491897583008e-01,9.606385827064514160e-01,9.605912566184997559e-01,9.605439901351928711e-01,9.604966640472412109e-01,9.604493975639343262e-01,9.604021310806274414e-01,9.603548049926757812e-01,9.603075385093688965e-01,9.602602720260620117e-01,9.602130055427551270e-01,9.601657390594482422e-01,9.601185321807861328e-01,9.600712656974792480e-01,9.600239992141723633e-01,9.599767923355102539e-01,9.599295258522033691e-01,9.598823189735412598e-01,9.598350524902343750e-01,9.597878456115722656e-01,9.597406387329101562e-01,9.596934318542480469e-01,9.596462249755859375e-01,9.595990180969238281e-01,9.595516920089721680e-01,9.595044851303100586e-01,9.594573378562927246e-01,9.594101309776306152e-01,9.593629240989685059e-01,9.593157768249511719e-01,9.592685699462890625e-01,9.592214226722717285e-01,9.591742753982543945e-01,9.591271281242370605e-01,9.590799212455749512e-01,9.590327739715576172e-01,9.589856266975402832e-01,9.589385390281677246e-01,9.588913917541503906e-01,9.588442444801330566e-01
9.103941917419433594e-01,9.103517532348632812e-01,9.103092551231384277e-01,9.102667570114135742e-01,9.102243185043334961e-01,9.101818203926086426e-01,9.101393818855285645e-01,9.100968837738037109e-01,9.100544452667236328e-01,9.100120067596435547e-01,9.099695682525634766e-01,9.099271297454833984e-01,9.098846912384033203e-01,9.098422527313232422e-01,9.097998142242431641e-01,9.097573757171630859e-01,9.097149372100830078e-01,9.096724987030029297e-01,9.096301198005676270e-01,9.095876812934875488e-01,9.095453023910522461e-01,9.095028638839721680e-01,9.094604849815368652e-01,9.094179868698120117e-01,9.093756079673767090e-01,9.093332290649414062e-01,9.092908501625061035e-01,9.092484712600708008e-01,9.092060923576354980e-01,9.091637134552001953e-01,9.091213345527648926e-01,9.090789556503295898e-01,9.090365767478942871e-01,9.089942574501037598e-01,9.089518785476684570e-01,9.089095592498779297e-01,9.088671803474426270e-01,9.088248610496520996e-01,9.087825417518615723e-01,9.087402224540710449e-01,9.086978435516357422e-01,9.086555242538452148e-01,9.086132049560546875e-01,9.085708856582641602e-01,9.085285663604736328e-01,9.084863066673278809e-01,9.084439873695373535e-01,9.084016680717468262e-01,9.083594083786010742e-01,9.083169698715209961e-01,9.082747101783752441e-01,9.082323908805847168e-01,9.081901311874389648e-01,9.081478714942932129e-01,9.081056118011474609e-01,9.080632925033569336e-01,9.080210328102111816e-01,9.079787731170654297e-01,9.079365134239196777e-01,9.078942537307739258e-01,9.078520536422729492e-01,9.078097939491271973e-01,9.077675342559814453e-01,9.077252745628356934e-01,9.076830744743347168e-01,9.076408147811889648e-01,9.075986146926879883e-01,9.075563549995422363e-01,9.075141549110412598e-01,9.074719548225402832e-01,9.074297547340393066e-01,9.073875546455383301e-01,9.073453545570373535e-01,9.073031544685363770e-01,9.072609543800354004e-01,9.072186350822448730e-01,9.071764349937438965e-01,9.071342945098876953e-01,9.070920944213867188e-01,9.070498943328857422e-01
