4.883612632751464844e+00,5.000000000000000000e+00,5.000000000000000000e+00,5.000000000000000000e+00,5.000000000000000000e+00,5.000000000000000000e+00,5.000000000000000000e+00,5.000000000000000000e+00,5.000000000000000000e+00,5.000000000000000000e+00,5.000000000000000000e+00,5.000000000000000000e+00,5.000000000000000000e+00,5.000000000000000000e+00,5.000000000000000000e+00,5.000000000000000000e+00,5.000000000000000000e+00,5.000000000000000000e+00,5.000000000000000000e+00,5.000000000000000000e+00,5.000000000000000000e+00,5.000000000000000000e+00,5.000000000000000000e+00,5.000000000000000000e+00,5.000000000000000000e+00,5.000000000000000000e+00,5.000000000000000000e+00,5.000000000000000000e+00,5.000000000000000000e+00,5.000000000000000000e+00,5.000000000000000000e+00,5.000000000000000000e+00,5.000000000000000000e+00,2.508591413497924805e+00,2.508069992065429688e+00,2.443284273147583008e+00,2.411158084869384766e+00,2.389422416687011719e+00,2.369110584259033203e+00,2.353208541870117188e+00,2.353879690170288086e+00,2.340923070907592773e+00,2.333919048309326172e+00,2.365685224533081055e+00,5.000000000000000000e+00,5.000000000000000000e+00,5.000000000000000000e+00,5.000000000000000000e+00,5.000000000000000000e+00,5.000000000000000000e+00,5.000000000000000000e+00,5.000000000000000000e+00,5.000000000000000000e+00,5.000000000000000000e+00,5.000000000000000000e+00,4.997627735137939453e+00,4.796412944793701172e+00,4.610773563385009766e+00,4.438968181610107422e+00,4.279574871063232422e+00,4.131235599517822266e+00,3.992835998535156250e+00,3.863408803939819336e+00,3.742083072662353516e+00,3.628116846084594727e+00,3.520887374877929688e+00,3.419814109802246094e+00,3.324381828308105469e+00,3.234131336212158203e+00,3.148651361465454102e+00,3.067573785781860352e+00,2.990566968917846680e+00,2.917331218719482422e+00,2.847597122192382812e+00,2.781118869781494141e+00,2.717673778533935547e+00,2.657058715820312500e+00,2.599088668823242188e+00,2.543594121932983398e+00,2.490419864654541016e+00
4.883487224578857422e+00,5.000000000000000000e+00,5.000000000000000000e+00,5.000000000000000000e+00,5.000000000000000000e+00,5.000000000000000000e+00,5.000000000000000000e+00,5.000000000000000000e+00,5.000000000000000000e+00,5.000000000000000000e+00,5.000000000000000000e+00,5.000000000000000000e+00,5.000000000000000000e+00,5.000000000000000000e+00,5.000000000000000000e+00,5.000000000000000000e+00,5.000000000000000000e+00,5.000000000000000000e+00,5.000000000000000000e+00,5.000000000000000000e+00,5.000000000000000000e+00,5.000000000000000000e+00,5.000000000000000000e+00,5.000000000000000000e+00,5.000000000000000000e+00,5.000000000000000000e+00,5.000000000000000000e+00,5.000000000000000000e+00,5.000000000000000000e+00,5.000000000000000000e+00,5.000000000000000000e+00,5.000000000000000000e+00,5.000000000000000000e+00,2.505037546157836914e+00,2.505140542984008789e+00,2.462031126022338867e+00,2.432811737060546875e+00,2.408065080642700195e+00,2.383717775344848633e+00,2.368452072143554688e+00,2.363141775131225586e+00,2.346105337142944336e+00,2.338060140609741211e+00,2.369804620742797852e+00,5.000000000000000000e+00,5.000000000000000000e+00,5.000000000000000000e+00,5.000000000000000000e+00,5.000000000000000000e+00,5.000000000000000000e+00,5.000000000000000000e+00,5.000000000000000000e+00,5.000000000000000000e+00,5.000000000000000000e+00,5.000000000000000000e+00,4.997796535491943359e+00,4.796569347381591797e+00,4.611002445220947266e+00,4.439259052276611328e+00,4.279850006103515625e+00,4.131492614746093750e+00,3.993042230606079102e+00,3.863541841506958008e+00,3.742177248001098633e+00,3.628205537796020508e+00,3.520970344543457031e+00,3.419892549514770508e+00,3.324455976486206055e+00,3.234201431274414062e+00,3.148717880249023438e+00,3.067636966705322266e+00,2.990626811981201172e+00,2.917388677597045898e+00,2.847651720046997070e+00,2.781170845031738281e+00,2.717723369598388672e+00,2.657105922698974609e+00,2.599133968353271484e+00,2.543637514114379883e+00,2.490461349487304688e+00
4.883361816406250000e+00,5.000000000000000000e+00,5.000000000000000000e+00,5.000000000000000000e+00,5.000000000000000000e+00,5.000000000000000000e+00,5.000000000000000000e+00,5.000000000000000000e+00,5.000000000000000000e+00,5.000000000000000000e+00,5.000000000000000000e+00,5.000000000000000000e+00,5.000000000000000000e+00,5.000000000000000000e+00,5.000000000000000000e+00,5.000000000000000000e+00,5.000000000000000000e+00,5.000000000000000000e+00,5.000000000000000000e+00,5.000000000000000000e+00,5.000000000000000000e+00,5.000000000000000000e+00,5.000000000000000000e+00,5.000000000000000000e+00,5.000000000000000000e+00,5.000000000000000000e+00,5.000000000000000000e+00,5.000000000000000000e+00,5.000000000000000000e+00,5.000000000000000000e+00,5.000000000000000000e+00,5.000000000000000000e+00,5.000000000000000000e+00,2.499292135238647461e+00,2.501278638839721680e+00,2.490244865417480469e+00,2.454468965530395508e+00,2.435563802719116211e+00,2.403362989425659180e+00,2.384557962417602539e+00,2.383567333221435547e+00,2.351737022399902344e+00,2.342028617858886719e+00,2.375582456588745117e+00,5.000000000000000000e+00,5.000000000000000000e+00,5.000000000000000000e+00,5.000000000000000000e+00,5.000000000000000000e+00,5.000000000000000000e+00,5.000000000000000000e+00,5.000000000000000000e+00,5.000000000000000000e+00,5.000000000000000000e+00,5.000000000000000000e+00,4.998074054718017578e+00,4.796915054321289062e+00,4.611322402954101562e+00,4.439555168151855469e+00,4.280081272125244141e+00,4.131639480590820312e+00,3.993149042129516602e+00,3.863641977310180664e+00,3.742271184921264648e+00,3.628293752670288086e+00,3.521054029464721680e+00,3.419971227645874023e+00,3.324530363082885742e+00,3.234272003173828125e+00,3.148784399032592773e+00,3.067699909210205078e+00,2.990686893463134766e+00,2.917445659637451172e+00,2.847706079483032227e+00,2.781222820281982422e+00,2.717772960662841797e+00,2.657153606414794922e+00,2.599179506301879883e+00,2.543681144714355469e+00,2.490503072738647461e+00
4.883247375488281250e+00,5.000000000000000000e+00,5.000000000000000000e+00,5.000000000000000000e+00,5.000000000000000000e+00,5.000000000000000000e+00,5.000000000000000000e+00,5.000000000000000000e+00,5.000000000000000000e+00,5.000000000000000000e+00,5.000000000000000000e+00,5.000000000000000000e+00,5.000000000000000000e+00,5.000000000000000000e+00,5.000000000000000000e+00,5.000000000000000000e+00,5.000000000000000000e+00,5.000000000000000000e+00,5.000000000000000000e+00,5.000000000000000000e+00,5.000000000000000000e+00,5.000000000000000000e+00,5.000000000000000000e+00,5.000000000000000000e+00,5.000000000000000000e+00,5.000000000000000000e+00,5.000000000000000000e+00,5.000000000000000000e+00,5.000000000000000000e+00,5.000000000000000000e+00,5.000000000000000000e+00,5.000000000000000000e+00,5.000000000000000000e+00,2.493894577026367188e+00,2.495846748352050781e+00,5.000000000000000000e+00,2.468213319778442383e+00,2.443435668945312500e+00,2.407613754272460938e+00,2.390771150588989258e+00,2.385192871093750000e+00,2.357249975204467773e+00,2.346087932586669922e+00,2.378508329391479492e+00,5.000000000000000000e+00,5.000000000000000000e+00,5.000000000000000000e+00,5.000000000000000000e+00,5.000000000000000000e+00,5.000000000000000000e+00,5.000000000000000000e+00,5.000000000000000000e+00,5.000000000000000000e+00,5.000000000000000000e+00,5.000000000000000000e+00,4.998449325561523438e+00,4.797261238098144531e+00,4.611584186553955078e+00,4.439719200134277344e+00,4.280204296112060547e+00,4.131753921508789062e+00,3.993256568908691406e+00,3.863742113113403320e+00,3.742365121841430664e+00,3.628382205963134766e+00,3.521136999130249023e+00,3.420049667358398438e+00,3.324604511260986328e+00,3.234342098236083984e+00,3.148851156234741211e+00,3.067763328552246094e+00,2.990746974945068359e+00,2.917503118515014648e+00,2.847760438919067383e+00,2.781274795532226562e+00,2.717822551727294922e+00,2.657200813293457031e+00,2.599224805831909180e+00,2.543724536895751953e+00,2.490544795989990234e+00
4.883133888244628906e+00,5.000000000000000000e+00,5.000000000000000000e+00,5.000000000000000000e+00,5.000000000000000000e+00,5.000000000000000000e+00,5.000000000000000000e+00,5.000000000000000000e+00,5.000000000000000000e+00,5.000000000000000000e+00,5.000000000000000000e+00,5.000000000000000000e+00,5.000000000000000000e+00,5.000000000000000000e+00,5.000000000000000000e+00,5.000000000000000000e+00,5.000000000000000000e+00,5.000000000000000000e+00,5.000000000000000000e+00,5.000000000000000000e+00,5.000000000000000000e+00,5.000000000000000000e+00,5.000000000000000000e+00,5.000000000000000000e+00,5.000000000000000000e+00,5.000000000000000000e+00,5.000000000000000000e+00,5.000000000000000000e+00,5.000000000000000000e+00,5.000000000000000000e+00,5.000000000000000000e+00,5.000000000000000000e+00,5.000000000000000000e+00,2.486879587173461914e+00,2.489834070205688477e+00,5.000000000000000000e+00,2.463937044143676758e+00,2.426759958267211914e+00,2.393278121948242188e+00,2.381850719451904297e+00,2.376140832901000977e+00,2.361766099929809570e+00,2.349904775619506836e+00,5.000000000000000000e+00,5.000000000000000000e+00,5.000000000000000000e+00,5.000000000000000000e+00,5.000000000000000000e+00,5.000000000000000000e+00,5.000000000000000000e+00,5.000000000000000000e+00,5.000000000000000000e+00,5.000000000000000000e+00,5.000000000000000000e+00,5.000000000000000000e+00,4.998749732971191406e+00,4.797445297241210938e+00,4.611726760864257812e+00,4.439851760864257812e+00,4.280327320098876953e+00,4.131868839263916016e+00,3.993363380432128906e+00,3.863842487335205078e+00,3.742459535598754883e+00,3.628470897674560547e+00,3.521220684051513672e+00,3.420128107070922852e+00,3.324678659439086914e+00,3.234412193298339844e+00,3.148917675018310547e+00,3.067826509475708008e+00,2.990807056427001953e+00,2.917560100555419922e+00,2.847815036773681641e+00,2.781326770782470703e+00,2.717872142791748047e+00,2.657248497009277344e+00,2.599270105361938477e+00,2.543767929077148438e+00,2.490586280822753906e+00
4.883020401000976562e+00,5.000000000000000000e+00,5.000000000000000000e+00,5.000000000000000000e+00,5.000000000000000000e+00,5.000000000000000000e+00,5.000000000000000000e+00,5.000000000000000000e+00,5.000000000000000000e+00,5.000000000000000000e+00,5.000000000000000000e+00,5.000000000000000000e+00,5.000000000000000000e+00,5.000000000000000000e+00,5.000000000000000000e+00,5.000000000000000000e+00,5.000000000000000000e+00,5.000000000000000000e+00,5.000000000000000000e+00,5.000000000000000000e+00,5.000000000000000000e+00,5.000000000000000000e+00,5.000000000000000000e+00,5.000000000000000000e+00,5.000000000000000000e+00,5.000000000000000000e+00,5.000000000000000000e+00,5.000000000000000000e+00,5.000000000000000000e+00,5.000000000000000000e+00,5.000000000000000000e+00,5.000000000000000000e+00,5.000000000000000000e+00,2.487606287002563477e+00,2.490048170089721680e+00,2.521599054336547852e+00,2.449740409851074219e+00,2.411390304565429688e+00,2.377898693084716797e+00,2.369670867919921875e+00,2.380977392196655273e+00,2.373459100723266602e+00,2.360263347625732422e+00,2.381973028182983398e+00,5.000000000000000000e+00,5.000000000000000000e+00,5.000000000000000000e+00,5.000000000000000000e+00,5.000000000000000000e+00,5.000000000000000000e+00,5.000000000000000000e+00,5.000000000000000000e+00,5.000000000000000000e+00,5.000000000000000000e+00,5.000000000000000000e+00,4.998917579650878906e+00,4.797600269317626953e+00,4.611869812011718750e+00,4.439984321594238281e+00,4.280450344085693359e+00,4.131983280181884766e+00,3.993470430374145508e+00,3.863942623138427734e+00,3.742553472518920898e+00,3.628559112548828125e+00,3.521303653717041016e+00,3.420206785202026367e+00,3.324753046035766602e+00,3.234482765197753906e+00,3.148984432220458984e+00,3.067889690399169922e+00,2.990867137908935547e+00,2.917617082595825195e+00,2.847869396209716797e+00,2.781378746032714844e+00,2.717921733856201172e+00,2.657295703887939453e+00,2.599315643310546875e+00,2.543811321258544922e+00,2.490628004074096680e+00
4.882907390594482422e+00,5.000000000000000000e+00,5.000000000000000000e+00,5.000000000000000000e+00,5.000000000000000000e+00,5.000000000000000000e+00,5.000000000000000000e+00,5.000000000000000000e+00,5.000000000000000000e+00,5.000000000000000000e+00,5.000000000000000000e+00,5.000000000000000000e+00,5.000000000000000000e+00,5.000000000000000000e+00,5.000000000000000000e+00,5.000000000000000000e+00,5.000000000000000000e+00,5.000000000000000000e+00,5.000000000000000000e+00,5.000000000000000000e+00,5.000000000000000000e+00,5.000000000000000000e+00,5.000000000000000000e+00,5.000000000000000000e+00,5.000000000000000000e+00,5.000000000000000000e+00,5.000000000000000000e+00,5.000000000000000000e+00,5.000000000000000000e+00,5.000000000000000000e+00,5.000000000000000000e+00,5.000000000000000000e+00,5.000000000000000000e+00,2.496073961257934570e+00,2.497499704360961914e+00,2.513023376464843750e+00,2.432028532028198242e+00,2.389420032501220703e+00,2.356303215026855469e+00,2.358224868774414062e+00,2.360915184020996094e+00,2.406175851821899414e+00,2.377821683883666992e+00,2.385921478271484375e+00,5.000000000000000000e+00,5.000000000000000000e+00,5.000000000000000000e+00,5.000000000000000000e+00,5.000000000000000000e+00,5.000000000000000000e+00,5.000000000000000000e+00,5.000000000000000000e+00,5.000000000000000000e+00,5.000000000000000000e+00,5.000000000000000000e+00,4.999085426330566406e+00,4.797754764556884766e+00,4.612012863159179688e+00,4.440116405487060547e+00,4.280573368072509766e+00,4.132098197937011719e+00,3.993577718734741211e+00,3.864043235778808594e+00,3.742647409439086914e+00,3.628647327423095703e+00,3.521386861801147461e+00,3.420285224914550781e+00,3.324827194213867188e+00,3.234552860260009766e+00,3.149050951004028320e+00,3.067952871322631836e+00,2.990927219390869141e+00,2.917674541473388672e+00,2.847923994064331055e+00,2.781430482864379883e+00,2.717971324920654297e+00,2.657343149185180664e+00,2.599360942840576172e+00,2.543854713439941406e+00,2.490669727325439453e+00
4.882794380187988281e+00,5.000000000000000000e+00,5.000000000000000000e+00,5.000000000000000000e+00,5.000000000000000000e+00,5.000000000000000000e+00,5.000000000000000000e+00,5.000000000000000000e+00,5.000000000000000000e+00,5.000000000000000000e+00,5.000000000000000000e+00,5.000000000000000000e+00,5.000000000000000000e+00,5.000000000000000000e+00,5.000000000000000000e+00,5.000000000000000000e+00,5.000000000000000000e+00,5.000000000000000000e+00,5.000000000000000000e+00,5.000000000000000000e+00,5.000000000000000000e+00,5.000000000000000000e+00,5.000000000000000000e+00,5.000000000000000000e+00,5.000000000000000000e+00,5.000000000000000000e+00,5.000000000000000000e+00,5.000000000000000000e+00,5.000000000000000000e+00,5.000000000000000000e+00,5.000000000000000000e+00,5.000000000000000000e+00,5.000000000000000000e+00,2.508354902267456055e+00,2.509612321853637695e+00,2.481138467788696289e+00,2.427318334579467773e+00,2.395699977874755859e+00,2.349945306777954102e+00,2.348881721496582031e+00,2.348190546035766602e+00,2.397168397903442383e+00,2.409500360488891602e+00,2.404769182205200195e+00,5.000000000000000000e+00,5.000000000000000000e+00,5.000000000000000000e+00,5.000000000000000000e+00,5.000000000000000000e+00,5.000000000000000000e+00,5.000000000000000000e+00,5.000000000000000000e+00,5.000000000000000000e+00,5.000000000000000000e+00,5.000000000000000000e+00,4.999253273010253906e+00,4.797909259796142578e+00,4.612155437469482422e+00,4.440248966217041016e+00,4.280696392059326172e+00,4.132212638854980469e+00,3.993684768676757812e+00,3.864143371582031250e+00,3.742741584777832031e+00,3.628736019134521484e+00,3.521470308303833008e+00,3.420364141464233398e+00,3.324901342391967773e+00,3.234622955322265625e+00,3.149117469787597656e+00,3.068016052246093750e+00,2.990987300872802734e+00,2.917731523513793945e+00,2.847978353500366211e+00,2.781482696533203125e+00,2.718021154403686523e+00,2.657390832901000977e+00,2.599406480789184570e+00,2.543898105621337891e+00,2.490711212158203125e+00
4.882680892944335938e+00,5.000000000000000000e+00,5.000000000000000000e+00,5.000000000000000000e+00,5.000000000000000000e+00,5.000000000000000000e+00,5.000000000000000000e+00,5.000000000000000000e+00,5.000000000000000000e+00,5.000000000000000000e+00,5.000000000000000000e+00,5.000000000000000000e+00,5.000000000000000000e+00,5.000000000000000000e+00,5.000000000000000000e+00,5.000000000000000000e+00,5.000000000000000000e+00,5.000000000000000000e+00,5.000000000000000000e+00,5.000000000000000000e+00,5.000000000000000000e+00,5.000000000000000000e+00,5.000000000000000000e+00,5.000000000000000000e+00,5.000000000000000000e+00,5.000000000000000000e+00,5.000000000000000000e+00,5.000000000000000000e+00,5.000000000000000000e+00,5.000000000000000000e+00,5.000000000000000000e+00,5.000000000000000000e+00,5.000000000000000000e+00,2.520745754241943359e+00,2.529137611389160156e+00,2.473288536071777344e+00,2.432786464691162109e+00,2.392642974853515625e+00,2.348431587219238281e+00,2.350613832473754883e+00,2.350034952163696289e+00,2.392491102218627930e+00,5.000000000000000000e+00,2.424466609954833984e+00,2.437395811080932617e+00,5.000000000000000000e+00,5.000000000000000000e+00,5.000000000000000000e+00,5.000000000000000000e+00,5.000000000000000000e+00,5.000000000000000000e+00,5.000000000000000000e+00,5.000000000000000000e+00,5.000000000000000000e+00,5.000000000000000000e+00,4.999421119689941406e+00,4.798063755035400391e+00,4.612298488616943359e+00,4.440381526947021484e+00,4.280819892883300781e+00,4.132327556610107422e+00,3.993791580200195312e+00,3.864243507385253906e+00,3.742835521697998047e+00,3.628824472427368164e+00,3.521553516387939453e+00,3.420442581176757812e+00,3.324975728988647461e+00,3.234693527221679688e+00,3.149184226989746094e+00,3.068079471588134766e+00,2.991047143936157227e+00,2.917788743972778320e+00,2.848032712936401367e+00,2.781534433364868164e+00,2.718070507049560547e+00,2.657438039779663086e+00,2.599451780319213867e+00,2.543941736221313477e+00,2.490753173828125000e+00
4.882567405700683594e+00,5.000000000000000000e+00,5.000000000000000000e+00,5.000000000000000000e+00,5.000000000000000000e+00,5.000000000000000000e+00,5.000000000000000000e+00,5.000000000000000000e+00,5.000000000000000000e+00,5.000000000000000000e+00,5.000000000000000000e+00,5.000000000000000000e+00,5.000000000000000000e+00,5.000000000000000000e+00,5.000000000000000000e+00,5.000000000000000000e+00,5.000000000000000000e+00,5.000000000000000000e+00,5.000000000000000000e+00,5.000000000000000000e+00,5.000000000000000000e+00,5.000000000000000000e+00,5.000000000000000000e+00,5.000000000000000000e+00,5.000000000000000000e+00,5.000000000000000000e+00,5.000000000000000000e+00,5.000000000000000000e+00,5.000000000000000000e+00,5.000000000000000000e+00,5.000000000000000000e+00,5.000000000000000000e+00,5.000000000000000000e+00,2.525928735733032227e+00,2.551327466964721680e+00,2.513040304183959961e+00,2.452427387237548828e+00,2.451451063156127930e+00,2.365488529205322266e+00,2.355103254318237305e+00,2.353551387786865234e+00,2.390323400497436523e+00,5.000000000000000000e+00,2.449904203414916992e+00,2.444778919219970703e+00,5.000000000000000000e+00,5.000000000000000000e+00,5.000000000000000000e+00,5.000000000000000000e+00,5.000000000000000000e+00,5.000000000000000000e+00,5.000000000000000000e+00,5.000000000000000000e+00,5.000000000000000000e+00,5.000000000000000000e+00,4.999588966369628906e+00,4.798218727111816406e+00,4.612441539764404297e+00,4.440514087677001953e+00,4.280942440032958984e+00,4.132441997528076172e+00,3.993899106979370117e+00,3.864344120025634766e+00,3.742929935455322266e+00,3.628912687301635742e+00,3.521636724472045898e+00,3.420521020889282227e+00,3.325049877166748047e+00,3.234763622283935547e+00,3.149250745773315430e+00,3.068142652511596680e+00,2.991107463836669922e+00,2.917845964431762695e+00,2.848087549209594727e+00,2.781586647033691406e+00,2.718120098114013672e+00,2.657485485076904297e+00,2.599497079849243164e+00,2.543985128402709961e+00,2.490794658660888672e+00
4.882454395294189453e+00,5.000000000000000000e+00,5.000000000000000000e+00,5.000000000000000000e+00,5.000000000000000000e+00,5.000000000000000000e+00,5.000000000000000000e+00,5.000000000000000000e+00,5.000000000000000000e+00,5.000000000000000000e+00,5.000000000000000000e+00,5.000000000000000000e+00,5.000000000000000000e+00,5.000000000000000000e+00,5.000000000000000000e+00,5.000000000000000000e+00,5.000000000000000000e+00,5.000000000000000000e+00,5.000000000000000000e+00,5.000000000000000000e+00,5.000000000000000000e+00,5.000000000000000000e+00,5.000000000000000000e+00,5.000000000000000000e+00,5.000000000000000000e+00,5.000000000000000000e+00,5.000000000000000000e+00,5.000000000000000000e+00,5.000000000000000000e+00,5.000000000000000000e+00,5.000000000000000000e+00,5.000000000000000000e+00,5.000000000000000000e+00,2.548009157180786133e+00,5.000000000000000000e+00,5.000000000000000000e+00,2.481888294219970703e+00,2.475291967391967773e+00,2.382444620132446289e+00,2.362090826034545898e+00,2.355885028839111328e+00,2.388075351715087891e+00,5.000000000000000000e+00,5.000000000000000000e+00,2.469139337539672852e+00,5.000000000000000000e+00,5.000000000000000000e+00,5.000000000000000000e+00,5.000000000000000000e+00,5.000000000000000000e+00,5.000000000000000000e+00,5.000000000000000000e+00,5.000000000000000000e+00,5.000000000000000000e+00,5.000000000000000000e+00,4.999748706817626953e+00,4.798367500305175781e+00,4.612580299377441406e+00,4.440644264221191406e+00,4.281064987182617188e+00,4.132556915283203125e+00,3.994006156921386719e+00,3.864444255828857422e+00,3.743023872375488281e+00,3.629001379013061523e+00,3.521720170974731445e+00,3.420599699020385742e+00,3.325124263763427734e+00,3.234833717346191406e+00,3.149317264556884766e+00,3.068205833435058594e+00,2.991167545318603516e+00,2.917903184890747070e+00,2.848141908645629883e+00,2.781638383865356445e+00,2.718169927597045898e+00,2.657532930374145508e+00,2.599542617797851562e+00,2.544028759002685547e+00,2.490836381912231445e+00
4.882341384887695312e+00,5.000000000000000000e+00,5.000000000000000000e+00,5.000000000000000000e+00,5.000000000000000000e+00,5.000000000000000000e+00,5.000000000000000000e+00,5.000000000000000000e+00,5.000000000000000000e+00,5.000000000000000000e+00,5.000000000000000000e+00,5.000000000000000000e+00,5.000000000000000000e+00,5.000000000000000000e+00,5.000000000000000000e+00,5.000000000000000000e+00,5.000000000000000000e+00,5.000000000000000000e+00,5.000000000000000000e+00,5.000000000000000000e+00,5.000000000000000000e+00,5.000000000000000000e+00,5.000000000000000000e+00,5.000000000000000000e+00,5.000000000000000000e+00,5.000000000000000000e+00,5.000000000000000000e+00,5.000000000000000000e+00,5.000000000000000000e+00,5.000000000000000000e+00,5.000000000000000000e+00,5.000000000000000000e+00,5.000000000000000000e+00,2.544504165649414062e+00,2.559875249862670898e+00,5.000000000000000000e+00,2.579346179962158203e+00,2.526470661163330078e+00,2.385014533996582031e+00,2.359230041503906250e+00,2.353343725204467773e+00,2.394502401351928711e+00,5.000000000000000000e+00,5.000000000000000000e+00,2.481839418411254883e+00,2.489873886108398438e+00,5.000000000000000000e+00,5.000000000000000000e+00,5.000000000000000000e+00,5.000000000000000000e+00,5.000000000000000000e+00,5.000000000000000000e+00,5.000000000000000000e+00,5.000000000000000000e+00,5.000000000000000000e+00,4.999905586242675781e+00,4.798511981964111328e+00,4.612713813781738281e+00,4.440767765045166016e+00,4.281179904937744141e+00,4.132664203643798828e+00,3.994107723236083984e+00,3.864540338516235352e+00,3.743114948272705078e+00,3.629087686538696289e+00,3.521802186965942383e+00,3.420678377151489258e+00,3.325198411941528320e+00,3.234904289245605469e+00,3.149384021759033203e+00,3.068269252777099609e+00,2.991227865219116211e+00,2.917960166931152344e+00,2.848196268081665039e+00,2.781690359115600586e+00,2.718219518661499023e+00,2.657580375671386719e+00,2.599587917327880859e+00,2.544072151184082031e+00,2.490878105163574219e+00
4.882227897644042969e+00,5.000000000000000000e+00,5.000000000000000000e+00,5.000000000000000000e+00,5.000000000000000000e+00,5.000000000000000000e+00,5.000000000000000000e+00,5.000000000000000000e+00,5.000000000000000000e+00,5.000000000000000000e+00,5.000000000000000000e+00,5.000000000000000000e+00,5.000000000000000000e+00,5.000000000000000000e+00,5.000000000000000000e+00,5.000000000000000000e+00,5.000000000000000000e+00,5.000000000000000000e+00,5.000000000000000000e+00,5.000000000000000000e+00,5.000000000000000000e+00,5.000000000000000000e+00,5.000000000000000000e+00,5.000000000000000000e+00,5.000000000000000000e+00,5.000000000000000000e+00,5.000000000000000000e+00,5.000000000000000000e+00,5.000000000000000000e+00,5.000000000000000000e+00,5.000000000000000000e+00,5.000000000000000000e+00,5.000000000000000000e+00,2.562710523605346680e+00,2.597218513488769531e+00,5.000000000000000000e+00,5.000000000000000000e+00,2.567587137222290039e+00,2.371030807495117188e+00,2.356029748916625977e+00,2.359494924545288086e+00,2.407229661941528320e+00,5.000000000000000000e+00,5.000000000000000000e+00,5.000000000000000000e+00,2.486173868179321289e+00,5.000000000000000000e+00,5.000000000000000000e+00,5.000000000000000000e+00,5.000000000000000000e+00,5.000000000000000000e+00,5.000000000000000000e+00,5.000000000000000000e+00,5.000000000000000000e+00,5.000000000000000000e+00,5.000000000000000000e+00,4.798656463623046875e+00,4.612847328186035156e+00,4.440891742706298828e+00,4.281294822692871094e+00,4.132771492004394531e+00,3.994207620620727539e+00,3.864633798599243164e+00,3.743202686309814453e+00,3.629170417785644531e+00,3.521880388259887695e+00,3.420751571655273438e+00,3.325268268585205078e+00,3.234971046447753906e+00,3.149448156356811523e+00,3.068330526351928711e+00,2.991286754608154297e+00,2.918017148971557617e+00,2.848250865936279297e+00,2.781742572784423828e+00,2.718269348144531250e+00,2.657627820968627930e+00,2.599633216857910156e+00,2.544115543365478516e+00,2.490919589996337891e+00
4.882114410400390625e+00,5.000000000000000000e+00,5.000000000000000000e+00,5.000000000000000000e+00,5.000000000000000000e+00,5.000000000000000000e+00,5.000000000000000000e+00,5.000000000000000000e+00,5.000000000000000000e+00,5.000000000000000000e+00,5.000000000000000000e+00,5.000000000000000000e+00,5.000000000000000000e+00,5.000000000000000000e+00,5.000000000000000000e+00,5.000000000000000000e+00,5.000000000000000000e+00,5.000000000000000000e+00,5.000000000000000000e+00,5.000000000000000000e+00,5.000000000000000000e+00,5.000000000000000000e+00,5.000000000000000000e+00,5.000000000000000000e+00,5.000000000000000000e+00,5.000000000000000000e+00,5.000000000000000000e+00,5.000000000000000000e+00,5.000000000000000000e+00,5.000000000000000000e+00,5.000000000000000000e+00,5.000000000000000000e+00,5.000000000000000000e+00,2.585158824920654297e+00,2.611438035964965820e+00,5.000000000000000000e+00,5.000000000000000000e+00,2.609175682067871094e+00,2.358711242675781250e+00,2.353958845138549805e+00,2.367299795150756836e+00,2.422639369964599609e+00,5.000000000000000000e+00,5.000000000000000000e+00,5.000000000000000000e+00,5.000000000000000000e+00,5.000000000000000000e+00,5.000000000000000000e+00,5.000000000000000000e+00,5.000000000000000000e+00,5.000000000000000000e+00,5.000000000000000000e+00,5.000000000000000000e+00,5.000000000000000000e+00,5.000000000000000000e+00,5.000000000000000000e+00,4.798800945281982422e+00,4.612980842590332031e+00,4.441015243530273438e+00,4.281409740447998047e+00,4.132878303527832031e+00,3.994307994842529297e+00,3.864727735519409180e+00,3.743290662765502930e+00,3.629252910614013672e+00,3.521957874298095703e+00,3.420825004577636719e+00,3.325337886810302734e+00,3.235036849975585938e+00,3.149510145187377930e+00,3.068389415740966797e+00,2.991343021392822266e+00,2.918070554733276367e+00,2.848301887512207031e+00,2.781791687011718750e+00,2.718316555023193359e+00,2.657673597335815430e+00,2.599677562713623047e+00,2.544158697128295898e+00,2.490961313247680664e+00
4.882001399993896484e+00,5.000000000000000000e+00,5.000000000000000000e+00,5.000000000000000000e+00,5.000000000000000000e+00,5.000000000000000000e+00,5.000000000000000000e+00,5.000000000000000000e+00,5.000000000000000000e+00,5.000000000000000000e+00,5.000000000000000000e+00,5.000000000000000000e+00,5.000000000000000000e+00,5.000000000000000000e+00,5.000000000000000000e+00,5.000000000000000000e+00,5.000000000000000000e+00,5.000000000000000000e+00,5.000000000000000000e+00,5.000000000000000000e+00,5.000000000000000000e+00,5.000000000000000000e+00,5.000000000000000000e+00,5.000000000000000000e+00,5.000000000000000000e+00,5.000000000000000000e+00,5.000000000000000000e+00,5.000000000000000000e+00,5.000000000000000000e+00,5.000000000000000000e+00,5.000000000000000000e+00,5.000000000000000000e+00,5.000000000000000000e+00,5.000000000000000000e+00,2.626986980438232422e+00,5.000000000000000000e+00,5.000000000000000000e+00,5.000000000000000000e+00,2.356348991394042969e+00,2.351745367050170898e+00,2.377609729766845703e+00,2.437328577041625977e+00,5.000000000000000000e+00,5.000000000000000000e+00,5.000000000000000000e+00,5.000000000000000000e+00,5.000000000000000000e+00,5.000000000000000000e+00,5.000000000000000000e+00,5.000000000000000000e+00,5.000000000000000000e+00,5.000000000000000000e+00,5.000000000000000000e+00,5.000000000000000000e+00,5.000000000000000000e+00,5.000000000000000000e+00,4.798945426940917969e+00,4.613114356994628906e+00,4.441138744354248047e+00,4.281525135040283203e+00,4.132985591888427734e+00,3.994407892227172852e+00,3.864821195602416992e+00,3.743378877639770508e+00,3.629335880279541016e+00,3.522035837173461914e+00,3.420898437500000000e+00,3.325407028198242188e+00,3.235102415084838867e+00,3.149572610855102539e+00,3.068448781967163086e+00,2.991399049758911133e+00,2.918123960494995117e+00,2.848352670669555664e+00,2.781840324401855469e+00,2.718363046646118164e+00,2.657717943191528320e+00,2.599720001220703125e+00,2.544199228286743164e+00,2.491000413894653320e+00
4.881888389587402344e+00,5.000000000000000000e+00,5.000000000000000000e+00,5.000000000000000000e+00,5.000000000000000000e+00,5.000000000000000000e+00,5.000000000000000000e+00,5.000000000000000000e+00,5.000000000000000000e+00,5.000000000000000000e+00,5.000000000000000000e+00,5.000000000000000000e+00,5.000000000000000000e+00,5.000000000000000000e+00,5.000000000000000000e+00,5.000000000000000000e+00,5.000000000000000000e+00,5.000000000000000000e+00,5.000000000000000000e+00,5.000000000000000000e+00,5.000000000000000000e+00,5.000000000000000000e+00,5.000000000000000000e+00,5.000000000000000000e+00,5.000000000000000000e+00,5.000000000000000000e+00,5.000000000000000000e+00,5.000000000000000000e+00,5.000000000000000000e+00,5.000000000000000000e+00,5.000000000000000000e+00,5.000000000000000000e+00,5.000000000000000000e+00,5.000000000000000000e+00,5.000000000000000000e+00,5.000000000000000000e+00,5.000000000000000000e+00,5.000000000000000000e+00,2.353991270065307617e+00,2.350641489028930664e+00,2.388009309768676758e+00,5.000000000000000000e+00,5.000000000000000000e+00,5.000000000000000000e+00,5.000000000000000000e+00,5.000000000000000000e+00,5.000000000000000000e+00,5.000000000000000000e+00,5.000000000000000000e+00,5.000000000000000000e+00,5.000000000000000000e+00,5.000000000000000000e+00,5.000000000000000000e+00,5.000000000000000000e+00,5.000000000000000000e+00,5.000000000000000000e+00,4.799089908599853516e+00,4.613247394561767578e+00,4.441262722015380859e+00,4.281640052795410156e+00,4.133092880249023438e+00,3.994508266448974609e+00,3.864915132522583008e+00,3.743466615676879883e+00,3.629418134689331055e+00,3.522113561630249023e+00,3.420971870422363281e+00,3.325476646423339844e+00,3.235168218612670898e+00,3.149634599685668945e+00,3.068507671356201172e+00,2.991455316543579102e+00,2.918177366256713867e+00,2.848403692245483398e+00,2.781888723373413086e+00,2.718409299850463867e+00,2.657762289047241211e+00,2.599762439727783203e+00,2.544239759445190430e+00,2.491039037704467773e+00
4.881774902343750000e+00,5.000000000000000000e+00,5.000000000000000000e+00,5.000000000000000000e+00,5.000000000000000000e+00,5.000000000000000000e+00,5.000000000000000000e+00,5.000000000000000000e+00,5.000000000000000000e+00,5.000000000000000000e+00,5.000000000000000000e+00,5.000000000000000000e+00,5.000000000000000000e+00,5.000000000000000000e+00,5.000000000000000000e+00,5.000000000000000000e+00,5.000000000000000000e+00,5.000000000000000000e+00,5.000000000000000000e+00,5.000000000000000000e+00,5.000000000000000000e+00,5.000000000000000000e+00,5.000000000000000000e+00,5.000000000000000000e+00,5.000000000000000000e+00,5.000000000000000000e+00,5.000000000000000000e+00,5.000000000000000000e+00,5.000000000000000000e+00,5.000000000000000000e+00,5.000000000000000000e+00,5.000000000000000000e+00,5.000000000000000000e+00,5.000000000000000000e+00,5.000000000000000000e+00,5.000000000000000000e+00,5.000000000000000000e+00,5.000000000000000000e+00,2.347662448883056641e+00,2.349578619003295898e+00,2.401119947433471680e+00,2.712513446807861328e+00,5.000000000000000000e+00,5.000000000000000000e+00,5.000000000000000000e+00,5.000000000000000000e+00,5.000000000000000000e+00,5.000000000000000000e+00,5.000000000000000000e+00,5.000000000000000000e+00,5.000000000000000000e+00,5.000000000000000000e+00,5.000000000000000000e+00,5.000000000000000000e+00,5.000000000000000000e+00,5.000000000000000000e+00,4.799234390258789062e+00,4.613381385803222656e+00,4.441386699676513672e+00,4.281754970550537109e+00,4.133200168609619141e+00,3.994607925415039062e+00,3.865008592605590820e+00,3.743554592132568359e+00,3.629501104354858398e+00,3.522191524505615234e+00,3.421045064926147461e+00,3.325545787811279297e+00,3.235234022140502930e+00,3.149697065353393555e+00,3.068566799163818359e+00,2.991511344909667969e+00,2.918230772018432617e+00,2.848454475402832031e+00,2.781937360763549805e+00,2.718455791473388672e+00,2.657806634902954102e+00,2.599804878234863281e+00,2.544280290603637695e+00,2.491078138351440430e+00
4.881661891937255859e+00,5.000000000000000000e+00,5.000000000000000000e+00,5.000000000000000000e+00,5.000000000000000000e+00,5.000000000000000000e+00,5.000000000000000000e+00,5.000000000000000000e+00,5.000000000000000000e+00,5.000000000000000000e+00,5.000000000000000000e+00,5.000000000000000000e+00,5.000000000000000000e+00,5.000000000000000000e+00,5.000000000000000000e+00,5.000000000000000000e+00,5.000000000000000000e+00,5.000000000000000000e+00,5.000000000000000000e+00,5.000000000000000000e+00,5.000000000000000000e+00,5.000000000000000000e+00,5.000000000000000000e+00,5.000000000000000000e+00,5.000000000000000000e+00,5.000000000000000000e+00,5.000000000000000000e+00,5.000000000000000000e+00,5.000000000000000000e+00,5.000000000000000000e+00,5.000000000000000000e+00,5.000000000000000000e+00,5.000000000000000000e+00,5.000000000000000000e+00,5.000000000000000000e+00,5.000000000000000000e+00,5.000000000000000000e+00,2.289913654327392578e+00,2.302151441574096680e+00,2.348905563354492188e+00,2.413277149200439453e+00,2.734420776367187500e+00,5.000000000000000000e+00,5.000000000000000000e+00,5.000000000000000000e+00,5.000000000000000000e+00,5.000000000000000000e+00,5.000000000000000000e+00,5.000000000000000000e+00,5.000000000000000000e+00,5.000000000000000000e+00,5.000000000000000000e+00,5.000000000000000000e+00,5.000000000000000000e+00,5.000000000000000000e+00,5.000000000000000000e+00,4.799378871917724609e+00,4.613514900207519531e+00,4.441510200500488281e+00,4.281869888305664062e+00,4.133307456970214844e+00,3.994708299636840820e+00,3.865102529525756836e+00,3.743642330169677734e+00,3.629583597183227539e+00,3.522269248962402344e+00,3.421118736267089844e+00,3.325615406036376953e+00,3.235299348831176758e+00,3.149759054183959961e+00,3.068625688552856445e+00,2.991567611694335938e+00,2.918284177780151367e+00,2.848505496978759766e+00,2.781985759735107422e+00,2.718502044677734375e+00,2.657850980758666992e+00,2.599847316741943359e+00,2.544321060180664062e+00,2.491117000579833984e+00
4.881548404693603516e+00,5.000000000000000000e+00,5.000000000000000000e+00,5.000000000000000000e+00,5.000000000000000000e+00,5.000000000000000000e+00,5.000000000000000000e+00,5.000000000000000000e+00,5.000000000000000000e+00,5.000000000000000000e+00,5.000000000000000000e+00,5.000000000000000000e+00,5.000000000000000000e+00,5.000000000000000000e+00,5.000000000000000000e+00,5.000000000000000000e+00,5.000000000000000000e+00,5.000000000000000000e+00,5.000000000000000000e+00,5.000000000000000000e+00,5.000000000000000000e+00,5.000000000000000000e+00,5.000000000000000000e+00,5.000000000000000000e+00,5.000000000000000000e+00,5.000000000000000000e+00,5.000000000000000000e+00,5.000000000000000000e+00,5.000000000000000000e+00,5.000000000000000000e+00,5.000000000000000000e+00,5.000000000000000000e+00,5.000000000000000000e+00,5.000000000000000000e+00,5.000000000000000000e+00,5.000000000000000000e+00,2.249399662017822266e+00,2.251459598541259766e+00,2.278497695922851562e+00,2.342700242996215820e+00,2.650559186935424805e+00,5.000000000000000000e+00,5.000000000000000000e+00,5.000000000000000000e+00,5.000000000000000000e+00,5.000000000000000000e+00,5.000000000000000000e+00,5.000000000000000000e+00,5.000000000000000000e+00,5.000000000000000000e+00,5.000000000000000000e+00,5.000000000000000000e+00,5.000000000000000000e+00,5.000000000000000000e+00,5.000000000000000000e+00,5.000000000000000000e+00,4.799523353576660156e+00,4.613648414611816406e+00,4.441634178161621094e+00,4.281984806060791016e+00,4.133414745330810547e+00,3.994808197021484375e+00,3.865195989608764648e+00,3.743730545043945312e+00,3.629666328430175781e+00,3.522347211837768555e+00,3.421191930770874023e+00,3.325684547424316406e+00,3.235365152359008789e+00,3.149821519851684570e+00,3.068685054779052734e+00,2.991623640060424805e+00,2.918337583541870117e+00,2.848556280136108398e+00,2.782034397125244141e+00,2.718548536300659180e+00,2.657895326614379883e+00,2.599889516830444336e+00,2.544361591339111328e+00,2.491156101226806641e+00
4.881426334381103516e+00,5.000000000000000000e+00,5.000000000000000000e+00,5.000000000000000000e+00,5.000000000000000000e+00,5.000000000000000000e+00,5.000000000000000000e+00,5.000000000000000000e+00,5.000000000000000000e+00,5.000000000000000000e+00,5.000000000000000000e+00,5.000000000000000000e+00,5.000000000000000000e+00,5.000000000000000000e+00,5.000000000000000000e+00,5.000000000000000000e+00,5.000000000000000000e+00,5.000000000000000000e+00,5.000000000000000000e+00,5.000000000000000000e+00,5.000000000000000000e+00,5.000000000000000000e+00,5.000000000000000000e+00,5.000000000000000000e+00,5.000000000000000000e+00,5.000000000000000000e+00,5.000000000000000000e+00,5.000000000000000000e+00,5.000000000000000000e+00,5.000000000000000000e+00,5.000000000000000000e+00,5.000000000000000000e+00,5.000000000000000000e+00,5.000000000000000000e+00,5.000000000000000000e+00,2.242904901504516602e+00,2.220324277877807617e+00,2.238888025283813477e+00,2.278954505920410156e+00,2.628114700317382812e+00,2.644446134567260742e+00,5.000000000000000000e+00,5.000000000000000000e+00,5.000000000000000000e+00,5.000000000000000000e+00,5.000000000000000000e+00,5.000000000000000000e+00,5.000000000000000000e+00,5.000000000000000000e+00,5.000000000000000000e+00,5.000000000000000000e+00,5.000000000000000000e+00,5.000000000000000000e+00,5.000000000000000000e+00,5.000000000000000000e+00,5.000000000000000000e+00,4.799667835235595703e+00,4.613781929016113281e+00,4.441757678985595703e+00,4.282100200653076172e+00,4.133521556854248047e+00,3.994908571243286133e+00,3.865290164947509766e+00,3.743818283081054688e+00,3.629748821258544922e+00,3.522424936294555664e+00,3.421265602111816406e+00,3.325754165649414062e+00,3.235430717468261719e+00,3.149883747100830078e+00,3.068743944168090820e+00,2.991679906845092773e+00,2.918391227722167969e+00,2.848607301712036133e+00,2.782083034515380859e+00,2.718594789505004883e+00,2.657939672470092773e+00,2.599931955337524414e+00,2.544402360916137695e+00,2.491194963455200195e+00
4.881301879882812500e+00,5.000000000000000000e+00,5.000000000000000000e+00,5.000000000000000000e+00,5.000000000000000000e+00,5.000000000000000000e+00,5.000000000000000000e+00,5.000000000000000000e+00,5.000000000000000000e+00,5.000000000000000000e+00,5.000000000000000000e+00,5.000000000000000000e+00,5.000000000000000000e+00,5.000000000000000000e+00,5.000000000000000000e+00,5.000000000000000000e+00,5.000000000000000000e+00,5.000000000000000000e+00,5.000000000000000000e+00,5.000000000000000000e+00,5.000000000000000000e+00,5.000000000000000000e+00,5.000000000000000000e+00,5.000000000000000000e+00,5.000000000000000000e+00,5.000000000000000000e+00,5.000000000000000000e+00,5.000000000000000000e+00,5.000000000000000000e+00,5.000000000000000000e+00,5.000000000000000000e+00,5.000000000000000000e+00,5.000000000000000000e+00,5.000000000000000000e+00,5.000000000000000000e+00,2.190005064010620117e+00,2.198631525039672852e+00,2.230775117874145508e+00,2.675487041473388672e+00,2.632817268371582031e+00,2.646799325942993164e+00,5.000000000000000000e+00,5.000000000000000000e+00,5.000000000000000000e+00,5.000000000000000000e+00,5.000000000000000000e+00,5.000000000000000000e+00,5.000000000000000000e+00,5.000000000000000000e+00,5.000000000000000000e+00,5.000000000000000000e+00,5.000000000000000000e+00,5.000000000000000000e+00,5.000000000000000000e+00,5.000000000000000000e+00,5.000000000000000000e+00,4.799812316894531250e+00,4.613915443420410156e+00,4.441881656646728516e+00,4.282215118408203125e+00,4.133628845214843750e+00,3.995008468627929688e+00,3.865383625030517578e+00,3.743906497955322266e+00,3.629831552505493164e+00,3.522502899169921875e+00,3.421338796615600586e+00,3.325823307037353516e+00,3.235496520996093750e+00,3.149945974349975586e+00,3.068803071975708008e+00,2.991735935211181641e+00,2.918444395065307617e+00,2.848658323287963867e+00,2.782131671905517578e+00,2.718641281127929688e+00,2.657984018325805664e+00,2.599974393844604492e+00,2.544442892074584961e+00,2.491233825683593750e+00
4.881176948547363281e+00,5.000000000000000000e+00,5.000000000000000000e+00,5.000000000000000000e+00,5.000000000000000000e+00,5.000000000000000000e+00,5.000000000000000000e+00,5.000000000000000000e+00,5.000000000000000000e+00,5.000000000000000000e+00,5.000000000000000000e+00,5.000000000000000000e+00,5.000000000000000000e+00,5.000000000000000000e+00,5.000000000000000000e+00,5.000000000000000000e+00,5.000000000000000000e+00,5.000000000000000000e+00,5.000000000000000000e+00,5.000000000000000000e+00,5.000000000000000000e+00,5.000000000000000000e+00,5.000000000000000000e+00,5.000000000000000000e+00,5.000000000000000000e+00,5.000000000000000000e+00,5.000000000000000000e+00,5.000000000000000000e+00,5.000000000000000000e+00,5.000000000000000000e+00,5.000000000000000000e+00,5.000000000000000000e+00,5.000000000000000000e+00,5.000000000000000000e+00,2.161556243896484375e+00,2.165287733078002930e+00,2.193771362304687500e+00,2.263592243194580078e+00,2.683104276657104492e+00,2.636955261230468750e+00,2.649177074432373047e+00,5.000000000000000000e+00,5.000000000000000000e+00,5.000000000000000000e+00,5.000000000000000000e+00,5.000000000000000000e+00,5.000000000000000000e+00,5.000000000000000000e+00,5.000000000000000000e+00,5.000000000000000000e+00,5.000000000000000000e+00,5.000000000000000000e+00,5.000000000000000000e+00,5.000000000000000000e+00,5.000000000000000000e+00,5.000000000000000000e+00,4.799956798553466797e+00,4.614048957824707031e+00,4.442005157470703125e+00,4.282330036163330078e+00,4.133736133575439453e+00,3.995108842849731445e+00,3.865477561950683594e+00,3.743994235992431641e+00,3.629914045333862305e+00,3.522580862045288086e+00,3.421412467956542969e+00,3.325892925262451172e+00,3.235562086105346680e+00,3.150008201599121094e+00,3.068862199783325195e+00,2.991792201995849609e+00,2.918498039245605469e+00,2.848709106445312500e+00,2.782180070877075195e+00,2.718687534332275391e+00,2.658028364181518555e+00,2.600016832351684570e+00,2.544483423233032227e+00,2.491272687911987305e+00
4.881052494049072266e+00,5.000000000000000000e+00,5.000000000000000000e+00,5.000000000000000000e+00,5.000000000000000000e+00,5.000000000000000000e+00,5.000000000000000000e+00,5.000000000000000000e+00,5.000000000000000000e+00,5.000000000000000000e+00,5.000000000000000000e+00,5.000000000000000000e+00,5.000000000000000000e+00,5.000000000000000000e+00,5.000000000000000000e+00,5.000000000000000000e+00,5.000000000000000000e+00,5.000000000000000000e+00,5.000000000000000000e+00,5.000000000000000000e+00,5.000000000000000000e+00,5.000000000000000000e+00,5.000000000000000000e+00,5.000000000000000000e+00,5.000000000000000000e+00,5.000000000000000000e+00,5.000000000000000000e+00,5.000000000000000000e+00,5.000000000000000000e+00,5.000000000000000000e+00,5.000000000000000000e+00,5.000000000000000000e+00,5.000000000000000000e+00,5.000000000000000000e+00,2.136708498001098633e+00,2.159999132156372070e+00,2.211233615875244141e+00,5.000000000000000000e+00,5.000000000000000000e+00,2.636712312698364258e+00,2.651808261871337891e+00,5.000000000000000000e+00,5.000000000000000000e+00,5.000000000000000000e+00,5.000000000000000000e+00,5.000000000000000000e+00,5.000000000000000000e+00,5.000000000000000000e+00,5.000000000000000000e+00,5.000000000000000000e+00,5.000000000000000000e+00,5.000000000000000000e+00,5.000000000000000000e+00,5.000000000000000000e+00,5.000000000000000000e+00,5.000000000000000000e+00,4.800101280212402344e+00,4.614182949066162109e+00,4.442129135131835938e+00,4.282444953918457031e+00,4.133843421936035156e+00,3.995208740234375000e+00,3.865571022033691406e+00,3.744082212448120117e+00,3.629997014999389648e+00,3.522658586502075195e+00,3.421485662460327148e+00,3.325962066650390625e+00,3.235627889633178711e+00,3.150070428848266602e+00,3.068921327590942383e+00,2.991848230361938477e+00,2.918551206588745117e+00,2.848760128021240234e+00,2.782228708267211914e+00,2.718734025955200195e+00,2.658072471618652344e+00,2.600059270858764648e+00,2.544523954391479492e+00,2.491311788558959961e+00
4.880927562713623047e+00,5.000000000000000000e+00,5.000000000000000000e+00,5.000000000000000000e+00,5.000000000000000000e+00,5.000000000000000000e+00,5.000000000000000000e+00,5.000000000000000000e+00,5.000000000000000000e+00,5.000000000000000000e+00,5.000000000000000000e+00,5.000000000000000000e+00,5.000000000000000000e+00,5.000000000000000000e+00,5.000000000000000000e+00,5.000000000000000000e+00,5.000000000000000000e+00,5.000000000000000000e+00,5.000000000000000000e+00,5.000000000000000000e+00,5.000000000000000000e+00,5.000000000000000000e+00,5.000000000000000000e+00,5.000000000000000000e+00,5.000000000000000000e+00,5.000000000000000000e+00,5.000000000000000000e+00,5.000000000000000000e+00,5.000000000000000000e+00,5.000000000000000000e+00,5.000000000000000000e+00,5.000000000000000000e+00,5.000000000000000000e+00,2.130200862884521484e+00,2.143357038497924805e+00,2.163600444793701172e+00,5.000000000000000000e+00,5.000000000000000000e+00,5.000000000000000000e+00,2.638546705245971680e+00,2.655029535293579102e+00,5.000000000000000000e+00,5.000000000000000000e+00,5.000000000000000000e+00,5.000000000000000000e+00,5.000000000000000000e+00,5.000000000000000000e+00,5.000000000000000000e+00,5.000000000000000000e+00,5.000000000000000000e+00,5.000000000000000000e+00,5.000000000000000000e+00,5.000000000000000000e+00,5.000000000000000000e+00,5.000000000000000000e+00,5.000000000000000000e+00,4.800245761871337891e+00,4.614316463470458984e+00,4.442252635955810547e+00,4.282560348510742188e+00,4.133950710296630859e+00,3.995309114456176758e+00,3.865664958953857422e+00,3.744169950485229492e+00,3.630079507827758789e+00,3.522736549377441406e+00,3.421559333801269531e+00,3.326031684875488281e+00,3.235693454742431641e+00,3.150132656097412109e+00,3.068980455398559570e+00,2.991904497146606445e+00,2.918604850769042969e+00,2.848810911178588867e+00,2.782277107238769531e+00,2.718780279159545898e+00,2.658117055892944336e+00,2.600101709365844727e+00,2.544564723968505859e+00,2.491350650787353516e+00
4.880646228790283203e+00,5.000000000000000000e+00,5.000000000000000000e+00,5.000000000000000000e+00,5.000000000000000000e+00,5.000000000000000000e+00,5.000000000000000000e+00,5.000000000000000000e+00,5.000000000000000000e+00,5.000000000000000000e+00,5.000000000000000000e+00,5.000000000000000000e+00,5.000000000000000000e+00,5.000000000000000000e+00,5.000000000000000000e+00,5.000000000000000000e+00,5.000000000000000000e+00,5.000000000000000000e+00,5.000000000000000000e+00,5.000000000000000000e+00,5.000000000000000000e+00,5.000000000000000000e+00,5.000000000000000000e+00,5.000000000000000000e+00,5.000000000000000000e+00,5.000000000000000000e+00,5.000000000000000000e+00,5.000000000000000000e+00,5.000000000000000000e+00,5.000000000000000000e+00,5.000000000000000000e+00,5.000000000000000000e+00,2.086311340332031250e+00,2.107734203338623047e+00,2.141515970230102539e+00,5.000000000000000000e+00,5.000000000000000000e+00,5.000000000000000000e+00,5.000000000000000000e+00,2.640383720397949219e+00,2.658290624618530273e+00,5.000000000000000000e+00,5.000000000000000000e+00,5.000000000000000000e+00,5.000000000000000000e+00,5.000000000000000000e+00,5.000000000000000000e+00,5.000000000000000000e+00,5.000000000000000000e+00,5.000000000000000000e+00,5.000000000000000000e+00,5.000000000000000000e+00,5.000000000000000000e+00,5.000000000000000000e+00,5.000000000000000000e+00,5.000000000000000000e+00,4.800390243530273438e+00,4.614449977874755859e+00,4.442376613616943359e+00,4.282675266265869141e+00,4.134057998657226562e+00,3.995409011840820312e+00,3.865758895874023438e+00,3.744258165359497070e+00,3.630162239074707031e+00,3.522814273834228516e+00,3.421632528305053711e+00,3.326101064682006836e+00,3.235759258270263672e+00,3.150195121765136719e+00,3.069039583206176758e+00,2.991960525512695312e+00,2.918658256530761719e+00,2.848861932754516602e+00,2.782325744628906250e+00,2.718826770782470703e+00,2.658161163330078125e+00,2.600143909454345703e+00,2.544605493545532227e+00,2.491389751434326172e+00
4.873558044433593750e+00,4.872350692749023438e+00,4.871143817901611328e+00,4.869937419891357422e+00,4.868731975555419922e+00,4.867527008056640625e+00,4.866322517395019531e+00,4.865118503570556641e+00,4.863915443420410156e+00,4.862712860107421875e+00,4.861510753631591797e+00,4.860309600830078125e+00,4.859108448028564453e+00,4.857908248901367188e+00,4.856708526611328125e+00,4.855509281158447266e+00,4.854310989379882812e+00,4.853113174438476562e+00,4.851915836334228516e+00,4.850718975067138672e+00,4.849523067474365234e+00,4.848327636718750000e+00,4.847132682800292969e+00,4.845938205718994141e+00,4.844744205474853516e+00,4.843551158905029297e+00,4.842359066009521484e+00,4.841166973114013672e+00,4.839975357055664062e+00,4.838784694671630859e+00,4.837594509124755859e+00,4.836404323577880859e+00,2.085502386093139648e+00,2.097354412078857422e+00,4.832839012145996094e+00,4.831651687622070312e+00,4.830464839935302734e+00,4.829278469085693359e+00,4.828093051910400391e+00,2.664391040802001953e+00,2.673066854476928711e+00,4.824540138244628906e+00,4.823357105255126953e+00,4.822174072265625000e+00,4.820991992950439453e+00,4.819810867309570312e+00,4.818629264831542969e+00,4.817449092864990234e+00,4.816269397735595703e+00,4.815090179443359375e+00,4.813911437988281250e+00,4.812733650207519531e+00,4.811555862426757812e+00,4.810379028320312500e+00,4.809203147888183594e+00,4.808026790618896484e+00,4.800535202026367188e+00,4.614583492279052734e+00,4.442500591278076172e+00,4.282790184020996094e+00,4.134164810180664062e+00,3.995509386062622070e+00,3.865852594375610352e+00,3.744345903396606445e+00,3.630244731903076172e+00,3.522892236709594727e+00,3.421706199645996094e+00,3.326170444488525391e+00,3.235824823379516602e+00,3.150257110595703125e+00,3.069098711013793945e+00,2.992016792297363281e+00,2.918711662292480469e+00,2.848912715911865234e+00,2.782374382019042969e+00,2.718873023986816406e+00,2.658205747604370117e+00,2.600186586380004883e+00,2.544646024703979492e+00,2.491428613662719727e+00
3.777275800704956055e+00,3.776550531387329102e+00,3.775825500488281250e+00,3.775100708007812500e+00,3.774375915527343750e+00,3.773651599884033203e+00,3.772927761077880859e+00,3.772204160690307617e+00,3.771480798721313477e+00,3.770757913589477539e+00,3.770034551620483398e+00,3.769312143325805664e+00,3.768589973449707031e+00,3.767868041992187500e+00,3.767146348953247070e+00,3.766424894332885742e+00,3.765703439712524414e+00,3.764982461929321289e+00,3.764261960983276367e+00,3.763541698455810547e+00,3.762821674346923828e+00,3.762101888656616211e+00,3.761382102966308594e+00,3.760662794113159180e+00,3.759943962097167969e+00,3.759225368499755859e+00,3.758507013320922852e+00,3.757788896560668945e+00,3.757070779800415039e+00,3.756353139877319336e+00,3.755635976791381836e+00,3.754918813705444336e+00,3.754202127456665039e+00,2.109157085418701172e+00,2.135330200195312500e+00,3.752053260803222656e+00,3.751337528228759766e+00,3.750622272491455078e+00,3.749907255172729492e+00,2.650778532028198242e+00,2.671056270599365234e+00,2.732700109481811523e+00,3.747049093246459961e+00,3.746335506439208984e+00,3.745621919631958008e+00,3.744908809661865234e+00,3.744195938110351562e+00,3.743482828140258789e+00,3.742770433425903320e+00,3.742058515548706055e+00,3.741346597671508789e+00,3.740635156631469727e+00,3.739923715591430664e+00,3.739212512969970703e+00,3.738501787185668945e+00,3.737791299819946289e+00,3.737081050872802734e+00,3.736371040344238281e+00,3.735661506652832031e+00,3.734951734542846680e+00,3.734242439270019531e+00,3.733533620834350586e+00,3.732825040817260742e+00,3.732116937637329102e+00,3.630327701568603516e+00,3.522969961166381836e+00,3.421779632568359375e+00,3.326240062713623047e+00,3.235890626907348633e+00,3.150319576263427734e+00,3.069157600402832031e+00,2.992072820663452148e+00,2.918765068054199219e+00,2.848963737487792969e+00,2.782423019409179688e+00,2.718919515609741211e+00,2.658249855041503906e+00,2.600228786468505859e+00,2.544686794281005859e+00,2.491467475891113281e+00
3.083629131317138672e+00,3.083145380020141602e+00,3.082662105560302734e+00,3.082179069519042969e+00,3.081696271896362305e+00,3.081213474273681641e+00,3.080730915069580078e+00,3.080248117446899414e+00,3.079765796661376953e+00,3.079283475875854492e+00,3.078801631927490234e+00,3.078319787979125977e+00,3.077837944030761719e+00,3.077356338500976562e+00,3.076874732971191406e+00,3.076393365859985352e+00,3.075912237167358398e+00,3.075431346893310547e+00,3.074950456619262695e+00,3.074469804763793945e+00,3.073989152908325195e+00,3.073508739471435547e+00,3.073028564453125000e+00,3.072548389434814453e+00,3.072068452835083008e+00,3.071588754653930664e+00,3.071108818054199219e+00,3.070629358291625977e+00,3.070150136947631836e+00,3.069670915603637695e+00,3.069191932678222656e+00,3.068712949752807617e+00,3.068233966827392578e+00,2.163344621658325195e+00,2.127532720565795898e+00,3.066798925399780273e+00,3.066320657730102539e+00,3.065842866897583008e+00,3.065364837646484375e+00,2.645456552505493164e+00,2.667716979980468750e+00,2.742961406707763672e+00,2.758071899414062500e+00,3.062978029251098633e+00,3.062500953674316406e+00,3.062023878097534180e+00,3.061547279357910156e+00,3.061070919036865234e+00,3.060594558715820312e+00,3.060118198394775391e+00,3.059642314910888672e+00,3.059166193008422852e+00,3.058690309524536133e+00,3.058214664459228516e+00,3.057739257812500000e+00,3.057264089584350586e+00,3.056788921356201172e+00,3.056313514709472656e+00,3.055838823318481445e+00,3.055363893508911133e+00,3.054889440536499023e+00,3.054414987564086914e+00,3.053940773010253906e+00,3.053466320037841797e+00,3.052992343902587891e+00,3.052518606185913086e+00,3.052044868469238281e+00,3.051571369171142578e+00,3.051097869873046875e+00,3.050624370574951172e+00,3.050151348114013672e+00,2.992129087448120117e+00,2.918818712234497070e+00,2.849014520645141602e+00,2.782471418380737305e+00,2.718966007232666016e+00,2.658294200897216797e+00,2.600271463394165039e+00,2.544727325439453125e+00,2.491506338119506836e+00
2.605215311050415039e+00,2.604870319366455078e+00,2.604525566101074219e+00,2.604180574417114258e+00,2.603835821151733398e+00,2.603491067886352539e+00,2.603146314620971680e+00,2.602801799774169922e+00,2.602457523345947266e+00,2.602113246917724609e+00,2.601768970489501953e+00,2.601424694061279297e+00,2.601080656051635742e+00,2.600736618041992188e+00,2.600392818450927734e+00,2.600049018859863281e+00,2.599705457687377930e+00,2.599361658096313477e+00,2.599018096923828125e+00,2.598674774169921875e+00,2.598331451416015625e+00,2.597988367080688477e+00,2.597645044326782227e+00,2.597302198410034180e+00,2.596958875656127930e+00,2.596616029739379883e+00,2.596273422241210938e+00,2.595930576324462891e+00,2.595588207244873047e+00,2.595245599746704102e+00,2.594902992248535156e+00,2.594560623168945312e+00,2.594218492507934570e+00,2.194674491882324219e+00,2.162294864654541016e+00,2.593192338943481445e+00,2.592850446701049805e+00,2.592508554458618164e+00,2.592166900634765625e+00,2.591825246810913086e+00,2.591483831405639648e+00,2.591142416000366211e+00,2.590801000595092773e+00,2.590459585189819336e+00,2.590118646621704102e+00,2.589777469635009766e+00,2.589436531066894531e+00,2.589095592498779297e+00,2.588754653930664062e+00,2.588413953781127930e+00,2.588073492050170898e+00,2.587733030319213867e+00,2.587392568588256836e+00,2.587052106857299805e+00,2.586711883544921875e+00,2.586371660232543945e+00,2.586031675338745117e+00,2.585691690444946289e+00,2.585351705551147461e+00,2.585011959075927734e+00,2.584672212600708008e+00,2.584332466125488281e+00,2.583992958068847656e+00,2.583653450012207031e+00,2.583314180374145508e+00,2.582974910736083984e+00,2.582635641098022461e+00,2.582296371459960938e+00,2.581957578659057617e+00,2.581618547439575195e+00,2.581279754638671875e+00,2.580940961837768555e+00,2.580602407455444336e+00,2.580263614654541016e+00,2.579925298690795898e+00,2.579586744308471680e+00,2.579248666763305664e+00,2.578910350799560547e+00,2.544767856597900391e+00,2.491545438766479492e+00
2.255312204360961914e+00,2.255053758621215820e+00,2.254795074462890625e+00,2.254536628723144531e+00,2.254278182983398438e+00,2.254019737243652344e+00,2.253761529922485352e+00,2.253503322601318359e+00,2.253245115280151367e+00,2.252986907958984375e+00,2.252728939056396484e+00,2.252470970153808594e+00,2.252213001251220703e+00,2.251955032348632812e+00,2.251697301864624023e+00,2.251439332962036133e+00,2.251181602478027344e+00,2.250924110412597656e+00,2.250666379928588867e+00,2.250408887863159180e+00,2.250151634216308594e+00,2.249893903732299805e+00,2.249636650085449219e+00,2.249379396438598633e+00,2.249122142791748047e+00,2.248864889144897461e+00,2.248607873916625977e+00,2.248350858688354492e+00,2.248093605041503906e+00,2.247836828231811523e+00,2.247579813003540039e+00,2.247323036193847656e+00,2.247066259384155273e+00,2.246809720993041992e+00,2.246552944183349609e+00,2.246296405792236328e+00,2.246039867401123047e+00,2.245783329010009766e+00,2.245526790618896484e+00,2.245270490646362305e+00,2.245014190673828125e+00,2.244757890701293945e+00,2.244501829147338867e+00,2.244245529174804688e+00,2.243989706039428711e+00,2.243733644485473633e+00,2.243477582931518555e+00,2.243221759796142578e+00,2.242965936660766602e+00,2.242710113525390625e+00,2.242454290390014648e+00,2.242198705673217773e+00,2.241943120956420898e+00,2.241687536239624023e+00,2.241431951522827148e+00,2.241176605224609375e+00,2.240921258926391602e+00,2.240665912628173828e+00,2.240410566329956055e+00,2.240155458450317383e+00,2.239900350570678711e+00,2.239645242691040039e+00,2.239390373229980469e+00,2.239135265350341797e+00,2.238880395889282227e+00,2.238625526428222656e+00,2.238370656967163086e+00,2.238116025924682617e+00,2.237861394882202148e+00,2.237606763839721680e+00,2.237352132797241211e+00,2.237097501754760742e+00,2.236843109130859375e+00,2.236588716506958008e+00,2.236334562301635742e+00,2.236080169677734375e+00,2.235826015472412109e+00,2.235571861267089844e+00,2.235317707061767578e+00,2.235063552856445312e+00
1.988270044326782227e+00,1.988069057464599609e+00,1.987868189811706543e+00,1.987667322158813477e+00,1.987466454505920410e+00,1.987265586853027344e+00,1.987064838409423828e+00,1.986864089965820312e+00,1.986663460731506348e+00,1.986462831497192383e+00,1.986262202262878418e+00,1.986061692237854004e+00,1.985861063003540039e+00,1.985660433769226074e+00,1.985459923744201660e+00,1.985259532928466797e+00,1.985059261322021484e+00,1.984858870506286621e+00,1.984658598899841309e+00,1.984458327293395996e+00,1.984258174896240234e+00,1.984058022499084473e+00,1.983857870101928711e+00,1.983657717704772949e+00,1.983457684516906738e+00,1.983257532119750977e+00,1.983057498931884766e+00,1.982857584953308105e+00,1.982657790184020996e+00,1.982457876205444336e+00,1.982258081436157227e+00,1.982058405876159668e+00,1.981858611106872559e+00,1.981658935546875000e+00,1.981459379196166992e+00,1.981259703636169434e+00,1.981060147285461426e+00,1.980860710144042969e+00,1.980660915374755859e+00,1.980461478233337402e+00,1.980262160301208496e+00,1.980062723159790039e+00,1.979863405227661133e+00,1.979664206504821777e+00,1.979464888572692871e+00,1.979265689849853516e+00,1.979066610336303711e+00,1.978867411613464355e+00,1.978668332099914551e+00,1.978469371795654297e+00,1.978270053863525391e+00,1.978071093559265137e+00,1.977872252464294434e+00,1.977673292160034180e+00,1.977474451065063477e+00,1.977275729179382324e+00,1.977076888084411621e+00,1.976878285408020020e+00,1.976679563522338867e+00,1.976480960845947266e+00,1.976282358169555664e+00,1.976083755493164062e+00,1.975885033607482910e+00,1.975686550140380859e+00,1.975488066673278809e+00,1.975289702415466309e+00,1.975091338157653809e+00,1.974892973899841309e+00,1.974694728851318359e+00,1.974496483802795410e+00,1.974298238754272461e+00,1.974100112915039062e+00,1.973901987075805664e+00,1.973703980445861816e+00,1.973505854606628418e+00,1.973307609558105469e+00,1.973109722137451172e+00,1.972911834716796875e+00,1.972713947296142578e+00,1.972516059875488281e+00
1.777771711349487305e+00,1.777611017227172852e+00,1.777450442314147949e+00,1.777289867401123047e+00,1.777129054069519043e+00,1.776968479156494141e+00,1.776808023452758789e+00,1.776647448539733887e+00,1.776486992835998535e+00,1.776326537132263184e+00,1.776166200637817383e+00,1.776005744934082031e+00,1.775845408439636230e+00,1.775685071945190430e+00,1.775524854660034180e+00,1.775364518165588379e+00,1.775204300880432129e+00,1.775043964385986328e+00,1.774883747100830078e+00,1.774723529815673828e+00,1.774563431739807129e+00,1.774403333663940430e+00,1.774243354797363281e+00,1.774083256721496582e+00,1.773923277854919434e+00,1.773763298988342285e+00,1.773603320121765137e+00,1.773443460464477539e+00,1.773283481597900391e+00,1.773123502731323242e+00,1.772963643074035645e+00,1.772803783416748047e+00,1.772644042968750000e+00,1.772484302520751953e+00,1.772324562072753906e+00,1.772164821624755859e+00,1.772005200386047363e+00,1.771845579147338867e+00,1.771685957908630371e+00,1.771526455879211426e+00,1.771366834640502930e+00,1.771207094192504883e+00,1.771047711372375488e+00,1.770888209342956543e+00,1.770728707313537598e+00,1.770569324493408203e+00,1.770409941673278809e+00,1.770250678062438965e+00,1.770091295242309570e+00,1.769932031631469727e+00,1.769772768020629883e+00,1.769613504409790039e+00,1.769454360008239746e+00,1.769295096397399902e+00,1.769135832786560059e+00,1.768976688385009766e+00,1.768817663192749023e+00,1.768658518791198730e+00,1.768499493598937988e+00,1.768340468406677246e+00,1.768181562423706055e+00,1.768022656440734863e+00,1.767863631248474121e+00,1.767704844474792480e+00,1.767545938491821289e+00,1.767387151718139648e+00,1.767228126525878906e+00,1.767069339752197266e+00,1.766910552978515625e+00,1.766751885414123535e+00,1.766593217849731445e+00,1.766434550285339355e+00,1.766275882720947266e+00,1.766117334365844727e+00,1.765958786010742188e+00,1.765800237655639648e+00,1.765641689300537109e+00,1.765483260154724121e+00,1.765324831008911133e+00,1.765166163444519043e+00
1.607577204704284668e+00,1.607445836067199707e+00,1.607314467430114746e+00,1.607183218002319336e+00,1.607051849365234375e+00,1.606920599937438965e+00,1.606789231300354004e+00,1.606657981872558594e+00,1.606526613235473633e+00,1.606395363807678223e+00,1.606264233589172363e+00,1.606133103370666504e+00,1.606001973152160645e+00,1.605870842933654785e+00,1.605739712715148926e+00,1.605608582496643066e+00,1.605477571487426758e+00,1.605346560478210449e+00,1.605215430259704590e+00,1.605084538459777832e+00,1.604953527450561523e+00,1.604822397232055664e+00,1.604691505432128906e+00,1.604560613632202148e+00,1.604429721832275391e+00,1.604298830032348633e+00,1.604167938232421875e+00,1.604037165641784668e+00,1.603906273841857910e+00,1.603775501251220703e+00,1.603644728660583496e+00,1.603514075279235840e+00,1.603383302688598633e+00,1.603252530097961426e+00,1.603121757507324219e+00,1.602991104125976562e+00,1.602860450744628906e+00,1.602729916572570801e+00,1.602599263191223145e+00,1.602468729019165039e+00,1.602338194847106934e+00,1.602207660675048828e+00,1.602077126502990723e+00,1.601946711540222168e+00,1.601816177368164062e+00,1.601685643196105957e+00,1.601555228233337402e+00,1.601424813270568848e+00,1.601294398307800293e+00,1.601164102554321289e+00,1.601033687591552734e+00,1.600903391838073730e+00,1.600773096084594727e+00,1.600642800331115723e+00,1.600512623786926270e+00,1.600382328033447266e+00,1.600252151489257812e+00,1.600121974945068359e+00,1.599991559982299805e+00,1.599861502647399902e+00,1.599731326103210449e+00,1.599601268768310547e+00,1.599471211433410645e+00,1.599341154098510742e+00,1.599211096763610840e+00,1.599081039428710938e+00,1.598951101303100586e+00,1.598821043968200684e+00,1.598691105842590332e+00,1.598561167716979980e+00,1.598431110382080078e+00,1.598301291465759277e+00,1.598171353340148926e+00,1.598041534423828125e+00,1.597911715507507324e+00,1.597781896591186523e+00,1.597652077674865723e+00,1.597522377967834473e+00,1.597392559051513672e+00,1.597262859344482422e+00
1.467122673988342285e+00,1.467013239860534668e+00,1.466903805732727051e+00,1.466794371604919434e+00,1.466685056686401367e+00,1.466575622558593750e+00,1.466466307640075684e+00,1.466356992721557617e+00,1.466247677803039551e+00,1.466138362884521484e+00,1.466029047966003418e+00,1.465919852256774902e+00,1.465810418128967285e+00,1.465701222419738770e+00,1.465592026710510254e+00,1.465482831001281738e+00,1.465373635292053223e+00,1.465264439582824707e+00,1.465155243873596191e+00,1.465046167373657227e+00,1.464936971664428711e+00,1.464827895164489746e+00,1.464718818664550781e+00,1.464609742164611816e+00,1.464500546455383301e+00,1.464391469955444336e+00,1.464282512664794922e+00,1.464173555374145508e+00,1.464064478874206543e+00,1.463955521583557129e+00,1.463846564292907715e+00,1.463737607002258301e+00,1.463628768920898438e+00,1.463519811630249023e+00,1.463410973548889160e+00,1.463302016258239746e+00,1.463193178176879883e+00,1.463084220886230469e+00,1.462975382804870605e+00,1.462866544723510742e+00,1.462757825851440430e+00,1.462648987770080566e+00,1.462540268898010254e+00,1.462431550025939941e+00,1.462322831153869629e+00,1.462214112281799316e+00,1.462105393409729004e+00,1.461996674537658691e+00,1.461888074874877930e+00,1.461779236793518066e+00,1.461670637130737305e+00,1.461562037467956543e+00,1.461453437805175781e+00,1.461344838142395020e+00,1.461236238479614258e+00,1.461127758026123047e+00,1.461019158363342285e+00,1.460910677909851074e+00,1.460802197456359863e+00,1.460693717002868652e+00,1.460585236549377441e+00,1.460476756095886230e+00,1.460368156433105469e+00,1.460259795188903809e+00,1.460151314735412598e+00,1.460042953491210938e+00,1.459934592247009277e+00,1.459826231002807617e+00,1.459717869758605957e+00,1.459609508514404297e+00,1.459501266479492188e+00,1.459392905235290527e+00,1.459284663200378418e+00,1.459176421165466309e+00,1.459068059921264648e+00,1.458959817886352539e+00,1.458851575851440430e+00,1.458743333816528320e+00,1.458635210990905762e+00,1.458527088165283203e+00
1.349239230155944824e+00,1.349146604537963867e+00,1.349054098129272461e+00,1.348961591720581055e+00,1.348868966102600098e+00,1.348776459693908691e+00,1.348683953285217285e+00,1.348591446876525879e+00,1.348499059677124023e+00,1.348406553268432617e+00,1.348314166069030762e+00,1.348221778869628906e+00,1.348129272460937500e+00,1.348036885261535645e+00,1.347944498062133789e+00,1.347852110862731934e+00,1.347759723663330078e+00,1.347667336463928223e+00,1.347575068473815918e+00,1.347482681274414062e+00,1.347390413284301758e+00,1.347298145294189453e+00,1.347205877304077148e+00,1.347113609313964844e+00,1.347021341323852539e+00,1.346929073333740234e+00,1.346836805343627930e+00,1.346744656562805176e+00,1.346652269363403320e+00,1.346560120582580566e+00,1.346467971801757812e+00,1.346375703811645508e+00,1.346283555030822754e+00,1.346191406250000000e+00,1.346099376678466797e+00,1.346007227897644043e+00,1.345915079116821289e+00,1.345823049545288086e+00,1.345730900764465332e+00,1.345638871192932129e+00,1.345546841621398926e+00,1.345454692840576172e+00,1.345362663269042969e+00,1.345270633697509766e+00,1.345178604125976562e+00,1.345086574554443359e+00,1.344994544982910156e+00,1.344902634620666504e+00,1.344810724258422852e+00,1.344718694686889648e+00,1.344626784324645996e+00,1.344534873962402344e+00,1.344442963600158691e+00,1.344350934028625488e+00,1.344259142875671387e+00,1.344167232513427734e+00,1.344075322151184082e+00,1.343983530998229980e+00,1.343891739845275879e+00,1.343799829483032227e+00,1.343708038330078125e+00,1.343616247177124023e+00,1.343524456024169922e+00,1.343432664871215820e+00,1.343340992927551270e+00,1.343249082565307617e+00,1.343157410621643066e+00,1.343065619468688965e+00,1.342973947525024414e+00,1.342882275581359863e+00,1.342790603637695312e+00,1.342698931694030762e+00,1.342607259750366211e+00,1.342515587806701660e+00,1.342423915863037109e+00,1.342332363128662109e+00,1.342240691184997559e+00,1.342149138450622559e+00,1.342057466506958008e+00,1.341965913772583008e+00
1.248890638351440430e+00,1.248811364173889160e+00,1.248732089996337891e+00,1.248652815818786621e+00,1.248573541641235352e+00,1.248494267463684082e+00,1.248414993286132812e+00,1.248335719108581543e+00,1.248256444931030273e+00,1.248177289962768555e+00,1.248098015785217285e+00,1.248018860816955566e+00,1.247939705848693848e+00,1.247860550880432129e+00,1.247781276702880859e+00,1.247702121734619141e+00,1.247623085975646973e+00,1.247543931007385254e+00,1.247464776039123535e+00,1.247385621070861816e+00,1.247306466102600098e+00,1.247227311134338379e+00,1.247148275375366211e+00,1.247069239616394043e+00,1.246990084648132324e+00,1.246911048889160156e+00,1.246832013130187988e+00,1.246752977371215820e+00,1.246673941612243652e+00,1.246594905853271484e+00,1.246515989303588867e+00,1.246436953544616699e+00,1.246357917785644531e+00,1.246278882026672363e+00,1.246199965476989746e+00,1.246121048927307129e+00,1.246042013168334961e+00,1.245963096618652344e+00,1.245884180068969727e+00,1.245805263519287109e+00,1.245726346969604492e+00,1.245647430419921875e+00,1.245568633079528809e+00,1.245489716529846191e+00,1.245410799980163574e+00,1.245331883430480957e+00,1.245253086090087891e+00,1.245174169540405273e+00,1.245095372200012207e+00,1.245016574859619141e+00,1.244937777519226074e+00,1.244858980178833008e+00,1.244780182838439941e+00,1.244701385498046875e+00,1.244622707366943359e+00,1.244543910026550293e+00,1.244465112686157227e+00,1.244386315345764160e+00,1.244307637214660645e+00,1.244228839874267578e+00,1.244150161743164062e+00,1.244071483612060547e+00,1.243992805480957031e+00,1.243914127349853516e+00,1.243835449218750000e+00,1.243756771087646484e+00,1.243678212165832520e+00,1.243599534034729004e+00,1.243520855903625488e+00,1.243442177772521973e+00,1.243363618850708008e+00,1.243285059928894043e+00,1.243206381797790527e+00,1.243127822875976562e+00,1.243049263954162598e+00,1.242970705032348633e+00,1.242892146110534668e+00,1.242813587188720703e+00,1.242735147476196289e+00,1.242656588554382324e+00
1.162435531616210938e+00,1.162366747856140137e+00,1.162298083305358887e+00,1.162229418754577637e+00,1.162160754203796387e+00,1.162092089653015137e+00,1.162023425102233887e+00,1.161954760551452637e+00,1.161886096000671387e+00,1.161817550659179688e+00,1.161748886108398438e+00,1.161680221557617188e+00,1.161611557006835938e+00,1.161543011665344238e+00,1.161474347114562988e+00,1.161405801773071289e+00,1.161337256431579590e+00,1.161268711090087891e+00,1.161200046539306641e+00,1.161131501197814941e+00,1.161062955856323242e+00,1.160994410514831543e+00,1.160925984382629395e+00,1.160857439041137695e+00,1.160788774490356445e+00,1.160720348358154297e+00,1.160651803016662598e+00,1.160583376884460449e+00,1.160514831542968750e+00,1.160446405410766602e+00,1.160377860069274902e+00,1.160309433937072754e+00,1.160241007804870605e+00,1.160172581672668457e+00,1.160104155540466309e+00,1.160035729408264160e+00,1.159967184066772461e+00,1.159898757934570312e+00,1.159830451011657715e+00,1.159762024879455566e+00,1.159693598747253418e+00,1.159625291824340820e+00,1.159556865692138672e+00,1.159488558769226074e+00,1.159420132637023926e+00,1.159351825714111328e+00,1.159283518791198730e+00,1.159215211868286133e+00,1.159146785736083984e+00,1.159078478813171387e+00,1.159010171890258789e+00,1.158941864967346191e+00,1.158873558044433594e+00,1.158805251121520996e+00,1.158737063407897949e+00,1.158668756484985352e+00,1.158600568771362305e+00,1.158532261848449707e+00,1.158464074134826660e+00,1.158395767211914062e+00,1.158327579498291016e+00,1.158259272575378418e+00,1.158191084861755371e+00,1.158122897148132324e+00,1.158054709434509277e+00,1.157986521720886230e+00,1.157918334007263184e+00,1.157850265502929688e+00,1.157782077789306641e+00,1.157713890075683594e+00,1.157645821571350098e+00,1.157577633857727051e+00,1.157509565353393555e+00,1.157441377639770508e+00,1.157373189926147461e+00,1.157305121421813965e+00,1.157237052917480469e+00,1.157168984413146973e+00,1.157100915908813477e+00,1.157032847404479980e+00
1.087175250053405762e+00,1.087115168571472168e+00,1.087055087089538574e+00,1.086994886398315430e+00,1.086934804916381836e+00,1.086874723434448242e+00,1.086814641952514648e+00,1.086754679679870605e+00,1.086694598197937012e+00,1.086634516716003418e+00,1.086574554443359375e+00,1.086514472961425781e+00,1.086454510688781738e+00,1.086394429206848145e+00,1.086334466934204102e+00,1.086274385452270508e+00,1.086214423179626465e+00,1.086154460906982422e+00,1.086094498634338379e+00,1.086034536361694336e+00,1.085974574089050293e+00,1.085914611816406250e+00,1.085854649543762207e+00,1.085794687271118164e+00,1.085734724998474121e+00,1.085674762725830078e+00,1.085614919662475586e+00,1.085554957389831543e+00,1.085494995117187500e+00,1.085435032844543457e+00,1.085375189781188965e+00,1.085315346717834473e+00,1.085255384445190430e+00,1.085195541381835938e+00,1.085135698318481445e+00,1.085075855255126953e+00,1.085015892982482910e+00,1.084956049919128418e+00,1.084896206855773926e+00,1.084836363792419434e+00,1.084776520729064941e+00,1.084716677665710449e+00,1.084656834602355957e+00,1.084596991539001465e+00,1.084537267684936523e+00,1.084477424621582031e+00,1.084417700767517090e+00,1.084357857704162598e+00,1.084298133850097656e+00,1.084238290786743164e+00,1.084178566932678223e+00,1.084118843078613281e+00,1.084059000015258789e+00,1.083999276161193848e+00,1.083939433097839355e+00,1.083879709243774414e+00,1.083819985389709473e+00,1.083760261535644531e+00,1.083700537681579590e+00,1.083640933036804199e+00,1.083581209182739258e+00,1.083521485328674316e+00,1.083461761474609375e+00,1.083402156829833984e+00,1.083342432975769043e+00,1.083282709121704102e+00,1.083223104476928711e+00,1.083163380622863770e+00,1.083103775978088379e+00,1.083044052124023438e+00,1.082984447479248047e+00,1.082924842834472656e+00,1.082865238189697266e+00,1.082805633544921875e+00,1.082746028900146484e+00,1.082686424255371094e+00,1.082626819610595703e+00,1.082567095756530762e+00,1.082507610321044922e+00,1.082448005676269531e+00
1.021067500114440918e+00,1.021014571189880371e+00,1.020961523056030273e+00,1.020908594131469727e+00,1.020855545997619629e+00,1.020802617073059082e+00,1.020749568939208984e+00,1.020696520805358887e+00,1.020643591880798340e+00,1.020590662956237793e+00,1.020537734031677246e+00,1.020484685897827148e+00,1.020431756973266602e+00,1.020378828048706055e+00,1.020325899124145508e+00,1.020272970199584961e+00,1.020220041275024414e+00,1.020167112350463867e+00,1.020114183425903320e+00,1.020061254501342773e+00,1.020008325576782227e+00,1.019955515861511230e+00,1.019902586936950684e+00,1.019849658012390137e+00,1.019796848297119141e+00,1.019743919372558594e+00,1.019691109657287598e+00,1.019638180732727051e+00,1.019585371017456055e+00,1.019532561302185059e+00,1.019479632377624512e+00,1.019426822662353516e+00,1.019373893737792969e+00,1.019321084022521973e+00,1.019268274307250977e+00,1.019215464591979980e+00,1.019162654876708984e+00,1.019109845161437988e+00,1.019057035446166992e+00,1.019004225730895996e+00,1.018951416015625000e+00,1.018898725509643555e+00,1.018845915794372559e+00,1.018793106079101562e+00,1.018740296363830566e+00,1.018687486648559570e+00,1.018634796142578125e+00,1.018581986427307129e+00,1.018529295921325684e+00,1.018476486206054688e+00,1.018423795700073242e+00,1.018371105194091797e+00,1.018318295478820801e+00,1.018265604972839355e+00,1.018212914466857910e+00,1.018160223960876465e+00,1.018107414245605469e+00,1.018054723739624023e+00,1.018002033233642578e+00,1.017949342727661133e+00,1.017896652221679688e+00,1.017843961715698242e+00,1.017791390419006348e+00,1.017738699913024902e+00,1.017686009407043457e+00,1.017633318901062012e+00,1.017580747604370117e+00,1.017528057098388672e+00,1.017475366592407227e+00,1.017422676086425781e+00,1.017370104789733887e+00,1.017317533493041992e+00,1.017264842987060547e+00,1.017212271690368652e+00,1.017159700393676758e+00,1.017107009887695312e+00,1.017054438591003418e+00,1.017001867294311523e+00,1.016949295997619629e+00,1.016896724700927734e+00
9.625386595726013184e-01,9.624916315078735352e-01,9.624444842338562012e-01,9.623973965644836426e-01,9.623502492904663086e-01,9.623032212257385254e-01,9.622560739517211914e-01,9.622091054916381836e-01,9.621619582176208496e-01,9.621149301528930664e-01,9.620678424835205078e-01,9.620206952095031738e-01,9.619737267494201660e-01,9.619266390800476074e-01,9.618796110153198242e-01,9.618325233459472656e-01,9.617855548858642578e-01,9.617384672164916992e-01,9.616914987564086914e-01,9.616444110870361328e-01,9.615975022315979004e-01,9.615504145622253418e-01,9.615034461021423340e-01,9.614564180374145508e-01,9.614093303680419922e-01,9.613624215126037598e-01,9.613153934478759766e-01,9.612684845924377441e-01,9.612213969230651855e-01,9.611744880676269531e-01,9.611274600028991699e-01,9.610805511474609375e-01,9.610335826873779297e-01,9.609866738319396973e-01,9.609396457672119141e-01,9.608926773071289062e-01,9.608457684516906738e-01,9.607987999916076660e-01,9.607518911361694336e-01,9.607049226760864258e-01,9.606580138206481934e-01,9.606110453605651855e-01,9.605641961097717285e-01,9.605172276496887207e-01,9.604703783988952637e-01,9.604234695434570312e-01,9.603766202926635742e-01,9.603296518325805664e-01,9.602826833724975586e-01,9.602358937263488770e-01,9.601889252662658691e-01,9.601421356201171875e-01,9.600952267646789551e-01,9.600483775138854980e-01,9.600014686584472656e-01,9.599546790122985840e-01,9.599077701568603516e-01,9.598609805107116699e-01,9.598140716552734375e-01,9.597672820091247559e-01,9.597204327583312988e-01,9.596735239028930664e-01,9.596267938613891602e-01,9.595798850059509277e-01,9.595331549644470215e-01,9.594863057136535645e-01,9.594395160675048828e-01,9.593926668167114258e-01,9.593459367752075195e-01,9.592990875244140625e-01,9.592523574829101562e-01,9.592055082321166992e-01,9.591586589813232422e-01,9.591119885444641113e-01,9.590651392936706543e-01,9.590184092521667480e-01,9.589716196060180664e-01,9.589249491691589355e-01,9.588780999183654785e-01,9.588314294815063477e-01
9.103559851646423340e-01,9.103137850761413574e-01,9.102715849876403809e-01,9.102295041084289551e-01,9.101873636245727539e-01,9.101452827453613281e-01,9.101031422615051270e-01,9.100610613822937012e-01,9.100189208984375000e-01,9.099768400192260742e-01,9.099346995353698730e-01,9.098926782608032227e-01,9.098505377769470215e-01,9.098084568977355957e-01,9.097663760185241699e-01,9.097242355346679688e-01,9.096822142601013184e-01,9.096400737762451172e-01,9.095980525016784668e-01,9.095559120178222656e-01,9.095139503479003906e-01,9.094718098640441895e-01,9.094298481941223145e-01,9.093877077102661133e-01,9.093457460403442383e-01,9.093036651611328125e-01,9.092616438865661621e-01,9.092195630073547363e-01,9.091774821281433105e-01,9.091355204582214355e-01,9.090934395790100098e-01,9.090514779090881348e-01,9.090093970298767090e-01,9.089674353599548340e-01,9.089254140853881836e-01,9.088834524154663086e-01,9.088414311408996582e-01,9.087994694709777832e-01,9.087574481964111328e-01,9.087153673171997070e-01,9.086734652519226074e-01,9.086314439773559570e-01,9.085894823074340820e-01,9.085474610328674316e-01,9.085055589675903320e-01,9.084635376930236816e-01,9.084216356277465820e-01,9.083796143531799316e-01,9.083377718925476074e-01,9.082957506179809570e-01,9.082538485527038574e-01,9.082118868827819824e-01,9.081698656082153320e-01,9.081280231475830078e-01,9.080860018730163574e-01,9.080441594123840332e-01,9.080021977424621582e-01,9.079602956771850586e-01,9.079183340072631836e-01,9.078764915466308594e-01,9.078345298767089844e-01,9.077926874160766602e-01,9.077507257461547852e-01,9.077088832855224609e-01,9.076669812202453613e-01,9.076250195503234863e-01,9.075831770896911621e-01,9.075412750244140625e-01,9.074994325637817383e-01,9.074575304985046387e-01,9.074156880378723145e-01,9.073737859725952148e-01,9.073320031166076660e-01,9.072901010513305664e-01,9.072482585906982422e-01,9.072063565254211426e-01,9.071645140647888184e-01,9.071227312088012695e-01,9.070808291435241699e-01,9.070390462875366211e-01
8.635402321815490723e-01,8.635023236274719238e-01,8.634644150733947754e-01,8.634265065193176270e-01,8.633886575698852539e-01,8.633506894111633301e-01,8.633127808570861816e-01,8.632749319076538086e-01,8.632369637489318848e-01,8.631991147994995117e-01,8.631612062454223633e-01,8.631233572959899902e-01,8.630854487419128418e-01,8.630475997924804688e-01,8.630096912384033203e-01,8.629719018936157227e-01,8.629339933395385742e-01,8.628961443901062012e-01,8.628582954406738281e-01,8.628203868865966797e-01,8.627825379371643066e-01,8.627446889877319336e-01,8.627068996429443359e-01,8.626689910888671875e-01,8.626312017440795898e-01,8.625933527946472168e-01,8.625555634498596191e-01,8.625176548957824707e-01,8.624799251556396484e-01,8.624420166015625000e-01,8.624042868614196777e-01,8.623663783073425293e-01,8.623285293579101562e-01,8.622907996177673340e-01,8.622529506683349609e-01,8.622151613235473633e-01,8.621773719787597656e-01,8.621395826339721680e-01,8.621017932891845703e-01,8.620640039443969727e-01,8.620262145996093750e-01,8.619884848594665527e-01,8.619506359100341797e-01,8.619128465652465820e-01,8.618751168251037598e-01,8.618372678756713867e-01,8.617995977401733398e-01,8.617617487907409668e-01,8.617240786552429199e-01,8.616862893104553223e-01,8.616485595703125000e-01,8.616107702255249023e-01,8.615730404853820801e-01,8.615353107452392578e-01,8.614975810050964355e-01,8.614597916603088379e-01,8.614220619201660156e-01,8.613843321800231934e-01,8.613466024398803711e-01,8.613089323043823242e-01,8.612711429595947266e-01,8.612334728240966797e-01,8.611957430839538574e-01,8.611580729484558105e-01,8.611203432083129883e-01,8.610826730728149414e-01,8.610449433326721191e-01,8.610072731971740723e-01,8.609695434570312500e-01,8.609318137168884277e-01,8.608942031860351562e-01,8.608564734458923340e-01,8.608188033103942871e-01,8.607810735702514648e-01,8.607434630393981934e-01,8.607057929039001465e-01,8.606681227684020996e-01,8.606304526329040527e-01,8.605928421020507812e-01,8.605551123619079590e-01
8.213040828704833984e-01,8.212697505950927734e-01,8.212355375289916992e-01,8.212012052536010742e-01,8.211669325828552246e-01,8.211326003074645996e-01,8.210983872413635254e-01,8.210640549659729004e-01,8.210298418998718262e-01,8.209955096244812012e-01,8.209612369537353516e-01,8.209269642829895020e-01,8.208926916122436523e-01,8.208584785461425781e-01,8.208242058753967285e-01,8.207899928092956543e-01,8.207556605339050293e-01,8.207214474678039551e-01,8.206871747970581055e-01,8.206529617309570312e-01,8.206186890602111816e-01,8.205844759941101074e-01,8.205502033233642578e-01,8.205159306526184082e-01,8.204817771911621094e-01,8.204475045204162598e-01,8.204133510589599609e-01,8.203790783882141113e-01,8.203448653221130371e-01,8.203106522560119629e-01,8.202764391899108887e-01,8.202422261238098145e-01,8.202080726623535156e-01,8.201737999916076660e-01,8.201395869255065918e-01,8.201054334640502930e-01,8.200711607933044434e-01,8.200370073318481445e-01,8.200027942657470703e-01,8.199686408042907715e-01,8.199344277381896973e-01,8.199002742767333984e-01,8.198660612106323242e-01,8.198319673538208008e-01,8.197977542877197266e-01,8.197636008262634277e-01,8.197293877601623535e-01,8.196951746940612793e-01,8.196610808372497559e-01,8.196268677711486816e-01,8.195927739143371582e-01,8.195585608482360840e-01,8.195244669914245605e-01,8.194902539253234863e-01,8.194561600685119629e-01,8.194220066070556641e-01,8.193879127502441406e-01,8.193536996841430664e-01,8.193196058273315430e-01,8.192854523658752441e-01,8.192512989044189453e-01,8.192172050476074219e-01,8.191830515861511230e-01,8.191489577293395996e-01,8.191148042678833008e-01,8.190807700157165527e-01,8.190466165542602539e-01,8.190125226974487305e-01,8.189783692359924316e-01,8.189443349838256836e-01,8.189101815223693848e-01,8.188761472702026367e-01,8.188419938087463379e-01,8.188078999519348145e-01,8.187738060951232910e-01,8.187397122383117676e-01,8.187056779861450195e-01,8.186715245246887207e-01,8.186374902725219727e-01,8.186033964157104492e-01
7.830069065093994141e-01,7.829756736755371094e-01,7.829445600509643555e-01,7.829133272171020508e-01,7.828822135925292969e-01,7.828510403633117676e-01,7.828199267387390137e-01,7.827886939048767090e-01,7.827575802803039551e-01,7.827264070510864258e-01,7.826952934265136719e-01,7.826641201972961426e-01,7.826330065727233887e-01,7.826018333435058594e-01,7.825706601142883301e-01,7.825395464897155762e-01,7.825083732604980469e-01,7.824773192405700684e-01,7.824461460113525391e-01,7.824150323867797852e-01,7.823838591575622559e-01,7.823528051376342773e-01,7.823216319084167480e-01,7.822905778884887695e-01,7.822594046592712402e-01,7.822283506393432617e-01,7.821971774101257324e-01,7.821660637855529785e-01,7.821349501609802246e-01,7.821038365364074707e-01,7.820727825164794922e-01,7.820416688919067383e-01,7.820106148719787598e-01,7.819794416427612305e-01,7.819483876228332520e-01,7.819172739982604980e-01,7.818862199783325195e-01,7.818551063537597656e-01,7.818239927291870117e-01,7.817929387092590332e-01,7.817618250846862793e-01,7.817308306694030762e-01,7.816997170448303223e-01,7.816686630249023438e-01,7.816375494003295898e-01,7.816065549850463867e-01,7.815754413604736328e-01,7.815444469451904297e-01,7.815133333206176758e-01,7.814823389053344727e-01,7.814512252807617188e-01,7.814201712608337402e-01,7.813891768455505371e-01,7.813580632209777832e-01,7.813270688056945801e-01,7.812960147857666016e-01,7.812650203704833984e-01,7.812339067459106445e-01,7.812029123306274414e-01,7.811718583106994629e-01,7.811408638954162598e-01,7.811098098754882812e-01,7.810788154602050781e-01,7.810477614402770996e-01,7.810167074203491211e-01,7.809857726097106934e-01,7.809547185897827148e-01,7.809237241744995117e-01,7.808927297592163086e-01,7.808617353439331055e-01,7.808306813240051270e-01,7.807997465133666992e-01,7.807686924934387207e-01,7.807377576828002930e-01,7.807067036628723145e-01,7.806757688522338867e-01,7.806447744369506836e-01,7.806137204170227051e-01,7.805827856063842773e-01,7.805517911911010742e-01
7.481221556663513184e-01,7.480937242507934570e-01,7.480652332305908203e-01,7.480368018150329590e-01,7.480083107948303223e-01,7.479798197746276855e-01,7.479514479637145996e-01,7.479229569435119629e-01,7.478945255279541016e-01,7.478660941123962402e-01,7.478376626968383789e-01,7.478092312812805176e-01,7.477807998657226562e-01,7.477523684501647949e-01,7.477239370346069336e-01,7.476955056190490723e-01,7.476671338081359863e-01,7.476386427879333496e-01,7.476102113723754883e-01,7.475818395614624023e-01,7.475533485412597656e-01,7.475249767303466797e-01,7.474965453147888184e-01,7.474681735038757324e-01,7.474397420883178711e-01,7.474113702774047852e-01,7.473829388618469238e-01,7.473545670509338379e-01,7.473261356353759766e-01,7.472977638244628906e-01,7.472693324089050293e-01,7.472409009933471680e-01,7.472125887870788574e-01,7.471841573715209961e-01,7.471557855606079102e-01,7.471274137496948242e-01,7.470990419387817383e-01,7.470706105232238770e-01,7.470422983169555664e-01,7.470138669013977051e-01,7.469855546951293945e-01,7.469571232795715332e-01,7.469287514686584473e-01,7.469003796577453613e-01,7.468720078468322754e-01,7.468436956405639648e-01,7.468153238296508789e-01,7.467869520187377930e-01,7.467585802078247070e-01,7.467302680015563965e-01,7.467018961906433105e-01,7.466735839843750000e-01,7.466452121734619141e-01,7.466168999671936035e-01,7.465885281562805176e-01,7.465601563453674316e-01,7.465318441390991211e-01,7.465034723281860352e-01,7.464751601219177246e-01,7.464467883110046387e-01,7.464185357093811035e-01,7.463901638984680176e-01,7.463618516921997070e-01,7.463334798812866211e-01,7.463052272796630859e-01,7.462768554687500000e-01,7.462486028671264648e-01,7.462202310562133789e-01,7.461919188499450684e-01,7.461636066436767578e-01,7.461352944374084473e-01,7.461070418357849121e-01,7.460786700248718262e-01,7.460504174232482910e-01,7.460221052169799805e-01,7.459937930107116699e-01,7.459654808044433594e-01,7.459372282028198242e-01,7.459089159965515137e-01,7.458806037902832031e-01
7.162131667137145996e-01,7.161871194839477539e-01,7.161610126495361328e-01,7.161349654197692871e-01,7.161088585853576660e-01,7.160828113555908203e-01,7.160567045211791992e-01,7.160306572914123535e-01,7.160046100616455078e-01,7.159785032272338867e-01,7.159524559974670410e-01,7.159263491630554199e-01,7.159003615379333496e-01,7.158742547035217285e-01,7.158482074737548828e-01,7.158221602439880371e-01,7.157961130142211914e-01,7.157700657844543457e-01,7.157440185546875000e-01,7.157179713249206543e-01,7.156919240951538086e-01,7.156658768653869629e-01,7.156397700309753418e-01,7.156137824058532715e-01,7.155877351760864258e-01,7.155617475509643555e-01,7.155356407165527344e-01,7.155096530914306641e-01,7.154836058616638184e-01,7.154576182365417480e-01,7.154315710067749023e-01,7.154055833816528320e-01,7.153795361518859863e-01,7.153535485267639160e-01,7.153275012969970703e-01,7.153014540672302246e-01,7.152754664421081543e-01,7.152494192123413086e-01,7.152234315872192383e-01,7.151973843574523926e-01,7.151713967323303223e-01,7.151454091072082520e-01,7.151194214820861816e-01,7.150933742523193359e-01,7.150673866271972656e-01,7.150413990020751953e-01,7.150153517723083496e-01,7.149894237518310547e-01,7.149633765220642090e-01,7.149374485015869141e-01,7.149114012718200684e-01,7.148854732513427734e-01,7.148594260215759277e-01,7.148334980010986328e-01,7.148074507713317871e-01,7.147815227508544922e-01,7.147555351257324219e-01,7.147296071052551270e-01,7.147035598754882812e-01,7.146775722503662109e-01,7.146516442298889160e-01,7.146256566047668457e-01,7.145997285842895508e-01,7.145737409591674805e-01,7.145478129386901855e-01,7.145218253135681152e-01,7.144958972930908203e-01,7.144699096679687500e-01,7.144439816474914551e-01,7.144179940223693848e-01,7.143920660018920898e-01,7.143660783767700195e-01,7.143400907516479492e-01,7.143142223358154297e-01,7.142882347106933594e-01,7.142623066902160645e-01,7.142363786697387695e-01,7.142104506492614746e-01,7.141844630241394043e-01,7.141585946083068848e-01
6.869148612022399902e-01,6.868909001350402832e-01,6.868668794631958008e-01,6.868429183959960938e-01,6.868188977241516113e-01,6.867949366569519043e-01,6.867709159851074219e-01,6.867469549179077148e-01,6.867229938507080078e-01,6.866990327835083008e-01,6.866750121116638184e-01,6.866510510444641113e-01,6.866270899772644043e-01,6.866030693054199219e-01,6.865791678428649902e-01,6.865551471710205078e-01,6.865311861038208008e-01,6.865072250366210938e-01,6.864832639694213867e-01,6.864593029022216797e-01,6.864353418350219727e-01,6.864113807678222656e-01,6.863874793052673340e-01,6.863634586334228516e-01,6.863395571708679199e-01,6.863155961036682129e-01,6.862915754318237305e-01,6.862676739692687988e-01,6.862437129020690918e-01,6.862198114395141602e-01,6.861958503723144531e-01,6.861718893051147461e-01,6.861479282379150391e-01,6.861240267753601074e-01,6.861000657081604004e-01,6.860761642456054688e-01,6.860522031784057617e-01,6.860283017158508301e-01,6.860043406486511230e-01,6.859803795814514160e-01,6.859565377235412598e-01,6.859325766563415527e-01,6.859086751937866211e-01,6.858847141265869141e-01,6.858608126640319824e-01,6.858369112014770508e-01,6.858130097389221191e-01,6.857890486717224121e-01,6.857651472091674805e-01,6.857412457466125488e-01,6.857172846794128418e-01,6.856934428215026855e-01,6.856694817543029785e-01,6.856456398963928223e-01,6.856216788291931152e-01,6.855978369712829590e-01,6.855738759040832520e-01,6.855500340461730957e-01,6.855260729789733887e-01,6.855022311210632324e-01,6.854783296585083008e-01,6.854544281959533691e-01,6.854305267333984375e-01,6.854066252708435059e-01,6.853827834129333496e-01,6.853588819503784180e-01,6.853349804878234863e-01,6.853110790252685547e-01,6.852872371673583984e-01,6.852633357048034668e-01,6.852394938468933105e-01,6.852155923843383789e-01,6.851917505264282227e-01,6.851678490638732910e-01,6.851440072059631348e-01,6.851201057434082031e-01,6.850962638854980469e-01,6.850724220275878906e-01,6.850485205650329590e-01,6.850246787071228027e-01
