1.934551239013671875e+00,1.961294651031494141e+00,1.988787651062011719e+00,2.017062425613403320e+00,2.046152830123901367e+00,2.076094627380371094e+00,2.106925725936889648e+00,2.138686418533325195e+00,2.171419143676757812e+00,2.205169677734375000e+00,2.239985704421997070e+00,2.275918722152709961e+00,2.313023567199707031e+00,2.351358175277709961e+00,2.390984773635864258e+00,2.431969881057739258e+00,2.474384784698486328e+00,2.518305301666259766e+00,2.563813209533691406e+00,2.610996246337890625e+00,2.659948348999023438e+00,2.710771083831787109e+00,2.763573884963989258e+00,2.818474531173706055e+00,2.875600576400756836e+00,2.935090541839599609e+00,2.997092485427856445e+00,3.061770439147949219e+00,3.129301786422729492e+00,3.199878931045532227e+00,3.273713350296020508e+00,3.351035118103027344e+00,3.432098388671875000e+00,3.517180442810058594e+00,3.606588363647460938e+00,3.700659990310668945e+00,3.799770832061767578e+00,3.904336214065551758e+00,4.014819622039794922e+00,4.131738185882568359e+00,4.255671024322509766e+00,4.387267589569091797e+00,5.000000000000000000e+00,5.000000000000000000e+00,5.000000000000000000e+00,5.000000000000000000e+00,5.000000000000000000e+00,5.000000000000000000e+00,5.000000000000000000e+00,5.000000000000000000e+00,5.000000000000000000e+00,5.000000000000000000e+00,5.000000000000000000e+00,5.000000000000000000e+00,5.000000000000000000e+00,5.000000000000000000e+00,5.000000000000000000e+00,5.000000000000000000e+00,5.000000000000000000e+00,5.000000000000000000e+00,5.000000000000000000e+00,5.000000000000000000e+00,5.000000000000000000e+00,5.000000000000000000e+00,5.000000000000000000e+00,5.000000000000000000e+00,5.000000000000000000e+00,5.000000000000000000e+00,5.000000000000000000e+00,5.000000000000000000e+00,5.000000000000000000e+00,5.000000000000000000e+00,5.000000000000000000e+00,5.000000000000000000e+00,5.000000000000000000e+00,5.000000000000000000e+00,5.000000000000000000e+00,5.000000000000000000e+00,5.000000000000000000e+00,5.000000000000000000e+00
1.934523224830627441e+00,1.961265683174133301e+00,1.988757967948913574e+00,2.017031669616699219e+00,2.046121358871459961e+00,2.076062202453613281e+00,2.106892347335815430e+00,2.138651847839355469e+00,2.171383857727050781e+00,2.205132961273193359e+00,2.239947795867919922e+00,2.275879621505737305e+00,2.312983036041259766e+00,2.351316452026367188e+00,2.390941619873046875e+00,2.431925296783447266e+00,2.474338531494140625e+00,2.518257617950439453e+00,2.563763618469238281e+00,2.610944747924804688e+00,2.659894943237304688e+00,2.710715770721435547e+00,2.763516426086425781e+00,2.818414688110351562e+00,2.875538349151611328e+00,2.935025453567504883e+00,2.997026205062866211e+00,3.061701297760009766e+00,3.129229307174682617e+00,3.199803113937377930e+00,3.273634195327758789e+00,3.350952148437500000e+00,3.432011365890502930e+00,3.517089366912841797e+00,3.606492280960083008e+00,3.700559139251708984e+00,3.799664258956909180e+00,3.904224157333374023e+00,4.014700889587402344e+00,4.131612300872802734e+00,4.255537033081054688e+00,4.387125492095947266e+00,4.527112007141113281e+00,5.000000000000000000e+00,5.000000000000000000e+00,5.000000000000000000e+00,2.727611303329467773e+00,2.689223289489746094e+00,2.697093009948730469e+00,5.000000000000000000e+00,5.000000000000000000e+00,5.000000000000000000e+00,5.000000000000000000e+00,5.000000000000000000e+00,5.000000000000000000e+00,5.000000000000000000e+00,5.000000000000000000e+00,5.000000000000000000e+00,5.000000000000000000e+00,5.000000000000000000e+00,5.000000000000000000e+00,5.000000000000000000e+00,5.000000000000000000e+00,5.000000000000000000e+00,5.000000000000000000e+00,5.000000000000000000e+00,5.000000000000000000e+00,5.000000000000000000e+00,5.000000000000000000e+00,5.000000000000000000e+00,5.000000000000000000e+00,5.000000000000000000e+00,5.000000000000000000e+00,5.000000000000000000e+00,5.000000000000000000e+00,5.000000000000000000e+00,5.000000000000000000e+00,5.000000000000000000e+00,5.000000000000000000e+00,5.000000000000000000e+00
1.934494376182556152e+00,1.961236596107482910e+00,1.988728046417236328e+00,2.017001152038574219e+00,2.046089887619018555e+00,2.076029777526855469e+00,2.106858968734741211e+00,2.138617515563964844e+00,2.171348333358764648e+00,2.205096244812011719e+00,2.239910125732421875e+00,2.275840520858764648e+00,2.312942743301391602e+00,2.351274728775024414e+00,2.390898466110229492e+00,2.431880712509155273e+00,2.474292516708374023e+00,2.518209695816040039e+00,2.563714265823364258e+00,2.610893487930297852e+00,2.659841537475585938e+00,2.710660219192504883e+00,2.763458728790283203e+00,2.818354606628417969e+00,2.875475883483886719e+00,2.934960603713989258e+00,2.996958017349243164e+00,3.061631679534912109e+00,3.129157066345214844e+00,3.199727773666381836e+00,3.273554801940917969e+00,3.350869655609130859e+00,3.431924343109130859e+00,3.516998052597045898e+00,3.606396198272705078e+00,3.700458049774169922e+00,3.799557447433471680e+00,3.904111385345458984e+00,4.014581680297851562e+00,4.131485939025878906e+00,4.255403041839599609e+00,4.386983394622802734e+00,4.526960372924804688e+00,4.676164150238037109e+00,5.000000000000000000e+00,5.000000000000000000e+00,2.721924066543579102e+00,2.702550172805786133e+00,2.697318792343139648e+00,2.743997335433959961e+00,5.000000000000000000e+00,5.000000000000000000e+00,5.000000000000000000e+00,5.000000000000000000e+00,5.000000000000000000e+00,5.000000000000000000e+00,5.000000000000000000e+00,5.000000000000000000e+00,5.000000000000000000e+00,5.000000000000000000e+00,5.000000000000000000e+00,5.000000000000000000e+00,5.000000000000000000e+00,5.000000000000000000e+00,5.000000000000000000e+00,5.000000000000000000e+00,5.000000000000000000e+00,5.000000000000000000e+00,5.000000000000000000e+00,5.000000000000000000e+00,5.000000000000000000e+00,5.000000000000000000e+00,5.000000000000000000e+00,5.000000000000000000e+00,5.000000000000000000e+00,5.000000000000000000e+00,5.000000000000000000e+00,5.000000000000000000e+00,5.000000000000000000e+00,5.000000000000000000e+00
1.934459567070007324e+00,1.961203575134277344e+00,1.988697290420532227e+00,2.016970396041870117e+00,2.046058177947998047e+00,2.075997352600097656e+00,2.106825590133666992e+00,2.138583183288574219e+00,2.171312570571899414e+00,2.205059528350830078e+00,2.239872217178344727e+00,2.275801420211791992e+00,2.312902450561523438e+00,2.351233005523681641e+00,2.390855550765991211e+00,2.431836128234863281e+00,2.474246263504028320e+00,2.518161773681640625e+00,2.563664674758911133e+00,2.610841989517211914e+00,2.659788370132446289e+00,2.710604906082153320e+00,2.763401031494140625e+00,2.818294763565063477e+00,2.875413656234741211e+00,2.934895515441894531e+00,2.996890306472778320e+00,3.061561346054077148e+00,3.129084348678588867e+00,3.199652194976806641e+00,3.273475646972656250e+00,3.350786685943603516e+00,3.431837320327758789e+00,3.516906499862670898e+00,3.606299877166748047e+00,3.700356721878051758e+00,3.799450874328613281e+00,3.903998851776123047e+00,4.014462471008300781e+00,4.131360054016113281e+00,4.255269050598144531e+00,4.386840820312500000e+00,4.526809215545654297e+00,4.676002502441406250e+00,4.835365772247314453e+00,5.000000000000000000e+00,2.740538835525512695e+00,2.699247837066650391e+00,2.705145597457885742e+00,5.000000000000000000e+00,5.000000000000000000e+00,5.000000000000000000e+00,5.000000000000000000e+00,5.000000000000000000e+00,5.000000000000000000e+00,5.000000000000000000e+00,5.000000000000000000e+00,5.000000000000000000e+00,5.000000000000000000e+00,5.000000000000000000e+00,5.000000000000000000e+00,5.000000000000000000e+00,5.000000000000000000e+00,5.000000000000000000e+00,5.000000000000000000e+00,5.000000000000000000e+00,5.000000000000000000e+00,5.000000000000000000e+00,5.000000000000000000e+00,5.000000000000000000e+00,5.000000000000000000e+00,5.000000000000000000e+00,5.000000000000000000e+00,5.000000000000000000e+00,5.000000000000000000e+00,5.000000000000000000e+00,5.000000000000000000e+00,5.000000000000000000e+00,5.000000000000000000e+00,5.000000000000000000e+00
1.934424638748168945e+00,1.961167573928833008e+00,1.988660335540771484e+00,2.016934871673583984e+00,2.046025276184082031e+00,2.075964927673339844e+00,2.106791973114013672e+00,2.138548612594604492e+00,2.171277046203613281e+00,2.205023050308227539e+00,2.239834308624267578e+00,2.275762557983398438e+00,2.312862157821655273e+00,2.351191282272338867e+00,2.390812397003173828e+00,2.431791543960571289e+00,2.474200248718261719e+00,2.518114089965820312e+00,2.563615083694458008e+00,2.610790729522705078e+00,2.659734964370727539e+00,2.710549592971801758e+00,2.763343572616577148e+00,2.818234920501708984e+00,2.875351190567016602e+00,2.934830665588378906e+00,2.996822834014892578e+00,3.061490535736083984e+00,3.129010438919067383e+00,3.199575901031494141e+00,3.273396492004394531e+00,3.350703477859497070e+00,3.431750297546386719e+00,3.516815185546875000e+00,3.606203794479370117e+00,3.700255632400512695e+00,3.799344062805175781e+00,3.903886079788208008e+00,4.014343261718750000e+00,4.131233692169189453e+00,4.255135536193847656e+00,4.386698722839355469e+00,4.526657581329345703e+00,4.675840854644775391e+00,4.835193157196044922e+00,5.000000000000000000e+00,5.000000000000000000e+00,2.709938764572143555e+00,2.726325511932373047e+00,2.783622980117797852e+00,5.000000000000000000e+00,5.000000000000000000e+00,5.000000000000000000e+00,5.000000000000000000e+00,5.000000000000000000e+00,5.000000000000000000e+00,5.000000000000000000e+00,5.000000000000000000e+00,5.000000000000000000e+00,5.000000000000000000e+00,5.000000000000000000e+00,5.000000000000000000e+00,5.000000000000000000e+00,5.000000000000000000e+00,5.000000000000000000e+00,5.000000000000000000e+00,5.000000000000000000e+00,5.000000000000000000e+00,5.000000000000000000e+00,5.000000000000000000e+00,5.000000000000000000e+00,5.000000000000000000e+00,5.000000000000000000e+00,5.000000000000000000e+00,5.000000000000000000e+00,5.000000000000000000e+00,5.000000000000000000e+00,5.000000000000000000e+00,5.000000000000000000e+00,5.000000000000000000e+00
1.934391140937805176e+00,1.961131572723388672e+00,1.988623380661010742e+00,2.016896963119506836e+00,2.045985937118530273e+00,2.075926542282104492e+00,2.106756210327148438e+00,2.138514041900634766e+00,2.171241521835327148e+00,2.204986333847045898e+00,2.239796638488769531e+00,2.275723457336425781e+00,2.312821865081787109e+00,2.351149559020996094e+00,2.390769243240356445e+00,2.431746959686279297e+00,2.474153995513916016e+00,2.518066167831420898e+00,2.563565492630004883e+00,2.610739231109619141e+00,2.659681558609008789e+00,2.710494041442871094e+00,2.763285875320434570e+00,2.818175077438354492e+00,2.875288963317871094e+00,2.934766054153442383e+00,2.996755123138427734e+00,3.061419963836669922e+00,3.128936767578125000e+00,3.199498653411865234e+00,3.273316621780395508e+00,3.350620508193969727e+00,3.431663274765014648e+00,3.516723632812500000e+00,3.606107711791992188e+00,3.700154304504394531e+00,3.799237489700317383e+00,3.903773546218872070e+00,4.014224052429199219e+00,4.131107807159423828e+00,4.255001544952392578e+00,4.386557102203369141e+00,4.526506423950195312e+00,4.675680160522460938e+00,4.835020542144775391e+00,5.000000000000000000e+00,5.000000000000000000e+00,2.792567253112792969e+00,2.764221906661987305e+00,2.712507009506225586e+00,2.711141347885131836e+00,2.674693107604980469e+00,2.669957876205444336e+00,5.000000000000000000e+00,5.000000000000000000e+00,5.000000000000000000e+00,5.000000000000000000e+00,5.000000000000000000e+00,5.000000000000000000e+00,5.000000000000000000e+00,5.000000000000000000e+00,5.000000000000000000e+00,5.000000000000000000e+00,5.000000000000000000e+00,5.000000000000000000e+00,5.000000000000000000e+00,5.000000000000000000e+00,5.000000000000000000e+00,5.000000000000000000e+00,5.000000000000000000e+00,5.000000000000000000e+00,5.000000000000000000e+00,5.000000000000000000e+00,5.000000000000000000e+00,5.000000000000000000e+00,5.000000000000000000e+00,5.000000000000000000e+00,5.000000000000000000e+00,5.000000000000000000e+00,5.000000000000000000e+00
1.934363007545471191e+00,1.961100816726684570e+00,1.988588452339172363e+00,2.016858816146850586e+00,2.045947074890136719e+00,2.075886249542236328e+00,2.106714725494384766e+00,2.138472795486450195e+00,2.171202898025512695e+00,2.204949617385864258e+00,2.239758729934692383e+00,2.275684356689453125e+00,2.312781333923339844e+00,2.351108074188232422e+00,2.390726089477539062e+00,2.431702375411987305e+00,2.474107742309570312e+00,2.518018484115600586e+00,2.563515901565551758e+00,2.610687971115112305e+00,2.659628391265869141e+00,2.710438728332519531e+00,2.763228416442871094e+00,2.818115472793579102e+00,2.875226736068725586e+00,2.934700965881347656e+00,2.996687412261962891e+00,3.061349153518676758e+00,3.128862857818603516e+00,3.199421405792236328e+00,3.273235797882080078e+00,3.350536584854125977e+00,3.431576251983642578e+00,3.516632318496704102e+00,3.606011629104614258e+00,3.700053215026855469e+00,3.799131155014038086e+00,3.903660774230957031e+00,4.014105319976806641e+00,4.130981922149658203e+00,4.254868030548095703e+00,4.386414527893066406e+00,4.526354789733886719e+00,4.675518512725830078e+00,4.834847927093505859e+00,5.000000000000000000e+00,2.765192985534667969e+00,2.755722522735595703e+00,2.700072050094604492e+00,2.674291372299194336e+00,2.663076639175415039e+00,2.664120197296142578e+00,2.644977331161499023e+00,2.712386369705200195e+00,5.000000000000000000e+00,5.000000000000000000e+00,5.000000000000000000e+00,5.000000000000000000e+00,5.000000000000000000e+00,5.000000000000000000e+00,5.000000000000000000e+00,5.000000000000000000e+00,5.000000000000000000e+00,5.000000000000000000e+00,5.000000000000000000e+00,5.000000000000000000e+00,5.000000000000000000e+00,5.000000000000000000e+00,5.000000000000000000e+00,5.000000000000000000e+00,5.000000000000000000e+00,5.000000000000000000e+00,5.000000000000000000e+00,5.000000000000000000e+00,5.000000000000000000e+00,5.000000000000000000e+00,5.000000000000000000e+00,5.000000000000000000e+00,5.000000000000000000e+00,5.000000000000000000e+00
1.934334754943847656e+00,1.961071968078613281e+00,1.988558769226074219e+00,2.016826868057250977e+00,2.045910596847534180e+00,2.075845956802368164e+00,2.106673240661621094e+00,2.138430118560791016e+00,2.171158790588378906e+00,2.204905033111572266e+00,2.239716768264770508e+00,2.275645256042480469e+00,2.312741041183471680e+00,2.351066350936889648e+00,2.390683174133300781e+00,2.431657791137695312e+00,2.474061727523803711e+00,2.517970561981201172e+00,2.563466310501098633e+00,2.610636472702026367e+00,2.659574985504150391e+00,2.710383415222167969e+00,2.763170957565307617e+00,2.818055629730224609e+00,2.875164508819580078e+00,2.934636116027832031e+00,2.996619701385498047e+00,3.061278581619262695e+00,3.128788948059082031e+00,3.199344396591186523e+00,3.273155212402343750e+00,3.350451946258544922e+00,3.431488037109375000e+00,3.516540765762329102e+00,3.605916023254394531e+00,3.699952125549316406e+00,3.799024581909179688e+00,3.903548240661621094e+00,4.013986110687255859e+00,4.130855560302734375e+00,4.254734516143798828e+00,4.386272430419921875e+00,4.526203632354736328e+00,4.675356864929199219e+00,2.828441619873046875e+00,2.763073444366455078e+00,2.722438812255859375e+00,2.689493894577026367e+00,2.653167963027954102e+00,2.648496389389038086e+00,2.661946296691894531e+00,2.675487279891967773e+00,2.660490751266479492e+00,2.680950164794921875e+00,5.000000000000000000e+00,5.000000000000000000e+00,5.000000000000000000e+00,5.000000000000000000e+00,5.000000000000000000e+00,5.000000000000000000e+00,5.000000000000000000e+00,5.000000000000000000e+00,5.000000000000000000e+00,5.000000000000000000e+00,5.000000000000000000e+00,5.000000000000000000e+00,5.000000000000000000e+00,5.000000000000000000e+00,5.000000000000000000e+00,5.000000000000000000e+00,5.000000000000000000e+00,5.000000000000000000e+00,5.000000000000000000e+00,5.000000000000000000e+00,5.000000000000000000e+00,5.000000000000000000e+00,5.000000000000000000e+00,5.000000000000000000e+00,5.000000000000000000e+00,5.000000000000000000e+00
1.934306621551513672e+00,1.961043119430541992e+00,1.988529086112976074e+00,2.016796112060546875e+00,2.045878887176513672e+00,2.075812578201293945e+00,2.106635332107543945e+00,2.138387441635131836e+00,2.171114921569824219e+00,2.204859733581542969e+00,2.239670038223266602e+00,2.275597095489501953e+00,2.312695741653442383e+00,2.351024150848388672e+00,2.390640020370483398e+00,2.431613206863403320e+00,2.474015474319458008e+00,2.517922878265380859e+00,2.563416957855224609e+00,2.610584974288940430e+00,2.659521579742431641e+00,2.710328102111816406e+00,2.763113498687744141e+00,2.817995548248291016e+00,2.875102043151855469e+00,2.934571266174316406e+00,2.996551990509033203e+00,3.061208009719848633e+00,3.128715276718139648e+00,3.199267148971557617e+00,3.273074388504028320e+00,3.350367307662963867e+00,3.431399345397949219e+00,3.516448020935058594e+00,3.605819940567016602e+00,3.699850797653198242e+00,3.798917770385742188e+00,3.903435707092285156e+00,4.013867378234863281e+00,4.130729675292968750e+00,4.254600524902343750e+00,4.386130332946777344e+00,4.526051998138427734e+00,2.846219778060913086e+00,2.801023244857788086e+00,2.723782777786254883e+00,2.691304445266723633e+00,2.670336484909057617e+00,2.647662639617919922e+00,2.643817663192749023e+00,2.660453081130981445e+00,2.700013399124145508e+00,2.674682855606079102e+00,2.690645694732666016e+00,5.000000000000000000e+00,5.000000000000000000e+00,5.000000000000000000e+00,5.000000000000000000e+00,5.000000000000000000e+00,5.000000000000000000e+00,5.000000000000000000e+00,5.000000000000000000e+00,5.000000000000000000e+00,5.000000000000000000e+00,5.000000000000000000e+00,5.000000000000000000e+00,5.000000000000000000e+00,5.000000000000000000e+00,5.000000000000000000e+00,5.000000000000000000e+00,5.000000000000000000e+00,5.000000000000000000e+00,5.000000000000000000e+00,5.000000000000000000e+00,5.000000000000000000e+00,5.000000000000000000e+00,5.000000000000000000e+00,5.000000000000000000e+00,5.000000000000000000e+00,5.000000000000000000e+00
1.934278249740600586e+00,1.961014032363891602e+00,1.988499164581298828e+00,2.016765594482421875e+00,2.045847415924072266e+00,2.075780153274536133e+00,2.106601953506469727e+00,2.138352632522583008e+00,2.171075105667114258e+00,2.204814672470092773e+00,2.239623308181762695e+00,2.275548934936523438e+00,2.312645912170410156e+00,2.350972652435302734e+00,2.390590906143188477e+00,2.431567430496215820e+00,2.473969459533691406e+00,2.517874956130981445e+00,2.563367366790771484e+00,2.610533714294433594e+00,2.659468412399291992e+00,2.710272789001464844e+00,2.763056039810180664e+00,2.817935705184936523e+00,2.875039815902709961e+00,2.934506177902221680e+00,2.996484279632568359e+00,3.061137199401855469e+00,3.128641366958618164e+00,3.199189901351928711e+00,3.272993564605712891e+00,3.350282669067382812e+00,3.431310653686523438e+00,3.516354799270629883e+00,3.605721712112426758e+00,3.699749708175659180e+00,3.798811197280883789e+00,3.903322935104370117e+00,4.013748168945312500e+00,4.130603313446044922e+00,4.254466533660888672e+00,4.385988235473632812e+00,4.525900840759277344e+00,2.857851982116699219e+00,2.810280084609985352e+00,2.727505207061767578e+00,2.689772844314575195e+00,2.664008855819702148e+00,2.653014898300170898e+00,2.657109498977661133e+00,2.668699264526367188e+00,2.703418731689453125e+00,2.683447360992431641e+00,2.698182821273803711e+00,5.000000000000000000e+00,5.000000000000000000e+00,5.000000000000000000e+00,5.000000000000000000e+00,5.000000000000000000e+00,5.000000000000000000e+00,5.000000000000000000e+00,5.000000000000000000e+00,5.000000000000000000e+00,5.000000000000000000e+00,5.000000000000000000e+00,5.000000000000000000e+00,5.000000000000000000e+00,5.000000000000000000e+00,5.000000000000000000e+00,5.000000000000000000e+00,5.000000000000000000e+00,5.000000000000000000e+00,5.000000000000000000e+00,5.000000000000000000e+00,5.000000000000000000e+00,5.000000000000000000e+00,5.000000000000000000e+00,5.000000000000000000e+00,5.000000000000000000e+00,5.000000000000000000e+00
1.934250235557556152e+00,1.960985064506530762e+00,1.988469481468200684e+00,2.016735076904296875e+00,2.045815944671630859e+00,2.075747728347778320e+00,2.106568336486816406e+00,2.138318061828613281e+00,2.171039581298828125e+00,2.204777956008911133e+00,2.239581584930419922e+00,2.275501489639282227e+00,2.312595844268798828e+00,2.350920915603637695e+00,2.390537500381469727e+00,2.431512117385864258e+00,2.473915815353393555e+00,2.517824888229370117e+00,2.563317775726318359e+00,2.610482454299926758e+00,2.659415245056152344e+00,2.710217475891113281e+00,2.762998342514038086e+00,2.817875862121582031e+00,2.874977588653564453e+00,2.934441328048706055e+00,2.996416807174682617e+00,3.061066627502441406e+00,3.128567695617675781e+00,3.199112892150878906e+00,3.272912740707397461e+00,3.350198030471801758e+00,3.431221723556518555e+00,3.516261577606201172e+00,3.605623722076416016e+00,3.699646472930908203e+00,3.798704385757446289e+00,3.903210401535034180e+00,4.013628959655761719e+00,4.130477428436279297e+00,4.254333019256591797e+00,4.385846138000488281e+00,4.525749206542968750e+00,2.888901948928833008e+00,2.830424785614013672e+00,2.745061874389648438e+00,2.681699514389038086e+00,2.657830238342285156e+00,2.646433115005493164e+00,2.649458408355712891e+00,2.673440217971801758e+00,2.705410242080688477e+00,2.689968585968017578e+00,2.704835414886474609e+00,5.000000000000000000e+00,5.000000000000000000e+00,5.000000000000000000e+00,5.000000000000000000e+00,5.000000000000000000e+00,5.000000000000000000e+00,5.000000000000000000e+00,5.000000000000000000e+00,5.000000000000000000e+00,5.000000000000000000e+00,5.000000000000000000e+00,5.000000000000000000e+00,5.000000000000000000e+00,5.000000000000000000e+00,5.000000000000000000e+00,5.000000000000000000e+00,5.000000000000000000e+00,5.000000000000000000e+00,5.000000000000000000e+00,5.000000000000000000e+00,5.000000000000000000e+00,5.000000000000000000e+00,5.000000000000000000e+00,5.000000000000000000e+00,5.000000000000000000e+00,5.000000000000000000e+00
1.934221863746643066e+00,1.960955977439880371e+00,1.988439559936523438e+00,2.016704320907592773e+00,2.045784473419189453e+00,2.075715303421020508e+00,2.106534957885742188e+00,2.138283729553222656e+00,2.171004056930541992e+00,2.204741239547729492e+00,2.239543676376342773e+00,2.275462627410888672e+00,2.312552213668823242e+00,2.350871086120605469e+00,2.390484094619750977e+00,2.431457042694091797e+00,2.473858833312988281e+00,2.517765760421752930e+00,2.563259601593017578e+00,2.610427618026733398e+00,2.659361839294433594e+00,2.710161924362182617e+00,2.762940883636474609e+00,2.817816019058227539e+00,2.874915122985839844e+00,2.934376478195190430e+00,2.996349096298217773e+00,3.060996055603027344e+00,3.128493785858154297e+00,3.199035644531250000e+00,3.272831916809082031e+00,3.350113391876220703e+00,3.431133031845092773e+00,3.516168355941772461e+00,3.605525732040405273e+00,3.699543237686157227e+00,3.798595190048217773e+00,3.903097391128540039e+00,4.013510227203369141e+00,4.130351543426513672e+00,4.254199504852294922e+00,4.385704040527343750e+00,4.525598526000976562e+00,4.674710750579833984e+00,2.821831703186035156e+00,2.737621307373046875e+00,2.684950113296508789e+00,2.659617424011230469e+00,2.646671533584594727e+00,2.649810075759887695e+00,2.679068088531494141e+00,2.720438480377197266e+00,2.696458339691162109e+00,2.713584423065185547e+00,5.000000000000000000e+00,5.000000000000000000e+00,5.000000000000000000e+00,5.000000000000000000e+00,5.000000000000000000e+00,5.000000000000000000e+00,5.000000000000000000e+00,5.000000000000000000e+00,5.000000000000000000e+00,5.000000000000000000e+00,5.000000000000000000e+00,5.000000000000000000e+00,5.000000000000000000e+00,5.000000000000000000e+00,5.000000000000000000e+00,5.000000000000000000e+00,5.000000000000000000e+00,5.000000000000000000e+00,5.000000000000000000e+00,5.000000000000000000e+00,5.000000000000000000e+00,5.000000000000000000e+00,5.000000000000000000e+00,5.000000000000000000e+00,5.000000000000000000e+00,5.000000000000000000e+00
1.934193730354309082e+00,1.960927128791809082e+00,1.988409757614135742e+00,2.016673564910888672e+00,2.045752763748168945e+00,2.075682878494262695e+00,2.106501579284667969e+00,2.138249158859252930e+00,2.170968532562255859e+00,2.204704761505126953e+00,2.239506006240844727e+00,2.275423526763916016e+00,2.312511920928955078e+00,2.350829362869262695e+00,2.390438079833984375e+00,2.431404352188110352e+00,2.473801612854003906e+00,2.517706632614135742e+00,2.563198089599609375e+00,2.610363960266113281e+00,2.659297943115234375e+00,2.710101842880249023e+00,2.762883186340332031e+00,2.817756175994873047e+00,2.874852895736694336e+00,2.934311389923095703e+00,2.996281385421752930e+00,3.060925245285034180e+00,3.128420114517211914e+00,3.198958396911621094e+00,3.272751331329345703e+00,3.350028753280639648e+00,3.431044340133666992e+00,3.516075134277343750e+00,3.605427742004394531e+00,3.699440002441406250e+00,3.798486471176147461e+00,3.902982473373413086e+00,4.013390541076660156e+00,4.130225658416748047e+00,4.254065513610839844e+00,4.385561943054199219e+00,4.525446891784667969e+00,4.674549579620361328e+00,2.820124149322509766e+00,2.742170333862304688e+00,2.688604116439819336e+00,2.658944368362426758e+00,2.635496854782104492e+00,2.638591766357421875e+00,2.668086767196655273e+00,2.741528511047363281e+00,2.709815979003906250e+00,2.724756002426147461e+00,5.000000000000000000e+00,5.000000000000000000e+00,5.000000000000000000e+00,5.000000000000000000e+00,5.000000000000000000e+00,5.000000000000000000e+00,5.000000000000000000e+00,5.000000000000000000e+00,5.000000000000000000e+00,5.000000000000000000e+00,5.000000000000000000e+00,5.000000000000000000e+00,5.000000000000000000e+00,5.000000000000000000e+00,5.000000000000000000e+00,5.000000000000000000e+00,5.000000000000000000e+00,5.000000000000000000e+00,5.000000000000000000e+00,5.000000000000000000e+00,5.000000000000000000e+00,5.000000000000000000e+00,5.000000000000000000e+00,5.000000000000000000e+00,5.000000000000000000e+00,5.000000000000000000e+00
1.934165477752685547e+00,1.960898041725158691e+00,1.988379836082458496e+00,2.016643047332763672e+00,2.045721292495727539e+00,2.075650215148925781e+00,2.106468200683593750e+00,2.138214826583862305e+00,2.170933008193969727e+00,2.204668045043945312e+00,2.239468097686767578e+00,2.275384426116943359e+00,2.312471628189086914e+00,2.350787639617919922e+00,2.390395164489746094e+00,2.431359767913818359e+00,2.473753213882446289e+00,2.517651081085205078e+00,2.563136816024780273e+00,2.610300302505493164e+00,2.659231901168823242e+00,2.710033416748046875e+00,2.762813329696655273e+00,2.817690134048461914e+00,2.874790430068969727e+00,2.934246540069580078e+00,2.996213674545288086e+00,3.060854673385620117e+00,3.128346204757690430e+00,3.198881387710571289e+00,3.272670507431030273e+00,3.349944114685058594e+00,3.430955410003662109e+00,3.515981912612915039e+00,3.605329751968383789e+00,3.699337005615234375e+00,3.798377752304077148e+00,3.902868032455444336e+00,4.013268947601318359e+00,4.130098342895507812e+00,4.253931999206542969e+00,4.385419845581054688e+00,4.525295734405517578e+00,4.674387931823730469e+00,2.828950643539428711e+00,2.717481851577758789e+00,2.676800251007080078e+00,2.648874998092651367e+00,2.628905296325683594e+00,2.634621143341064453e+00,2.662539005279541016e+00,2.758132934570312500e+00,2.721023797988891602e+00,2.730214595794677734e+00,5.000000000000000000e+00,5.000000000000000000e+00,5.000000000000000000e+00,5.000000000000000000e+00,5.000000000000000000e+00,5.000000000000000000e+00,5.000000000000000000e+00,5.000000000000000000e+00,5.000000000000000000e+00,5.000000000000000000e+00,5.000000000000000000e+00,5.000000000000000000e+00,5.000000000000000000e+00,5.000000000000000000e+00,5.000000000000000000e+00,5.000000000000000000e+00,5.000000000000000000e+00,5.000000000000000000e+00,5.000000000000000000e+00,5.000000000000000000e+00,5.000000000000000000e+00,5.000000000000000000e+00,5.000000000000000000e+00,5.000000000000000000e+00,5.000000000000000000e+00,5.000000000000000000e+00
1.934137344360351562e+00,1.960869193077087402e+00,1.988350152969360352e+00,2.016612291336059570e+00,2.045689821243286133e+00,2.075617790222167969e+00,2.106434822082519531e+00,2.138180494308471680e+00,2.170897483825683594e+00,2.204631328582763672e+00,2.239430427551269531e+00,2.275345325469970703e+00,2.312431335449218750e+00,2.350746154785156250e+00,2.390352010726928711e+00,2.431315422058105469e+00,2.473707199096679688e+00,2.517603397369384766e+00,2.563085794448852539e+00,2.610241651535034180e+00,2.659165859222412109e+00,2.709964513778686523e+00,2.762742042541503906e+00,2.817615985870361328e+00,2.874713897705078125e+00,2.934173822402954102e+00,2.996145486831665039e+00,3.060784101486206055e+00,3.128272533416748047e+00,3.198804140090942383e+00,3.272589683532714844e+00,3.349859714508056641e+00,3.430866718292236328e+00,3.515888690948486328e+00,3.605231761932373047e+00,3.699234008789062500e+00,3.798269271850585938e+00,3.902753353118896484e+00,4.013147830963134766e+00,4.129969596862792969e+00,4.253797054290771484e+00,4.385277748107910156e+00,4.525144100189208984e+00,4.674226284027099609e+00,2.832601308822631836e+00,2.742691993713378906e+00,2.684309959411621094e+00,2.658896684646606445e+00,2.643621921539306641e+00,2.647162199020385742e+00,2.667747497558593750e+00,2.752746343612670898e+00,2.712088346481323242e+00,2.719898223876953125e+00,5.000000000000000000e+00,5.000000000000000000e+00,5.000000000000000000e+00,5.000000000000000000e+00,5.000000000000000000e+00,5.000000000000000000e+00,5.000000000000000000e+00,5.000000000000000000e+00,5.000000000000000000e+00,5.000000000000000000e+00,5.000000000000000000e+00,5.000000000000000000e+00,5.000000000000000000e+00,5.000000000000000000e+00,5.000000000000000000e+00,5.000000000000000000e+00,5.000000000000000000e+00,5.000000000000000000e+00,5.000000000000000000e+00,5.000000000000000000e+00,5.000000000000000000e+00,5.000000000000000000e+00,5.000000000000000000e+00,5.000000000000000000e+00,5.000000000000000000e+00,5.000000000000000000e+00
1.934109091758728027e+00,1.960839986801147461e+00,1.988320231437683105e+00,2.016581773757934570e+00,2.045658111572265625e+00,2.075585365295410156e+00,2.106401205062866211e+00,2.138145923614501953e+00,2.170861959457397461e+00,2.204594850540161133e+00,2.239392518997192383e+00,2.275306463241577148e+00,2.312391042709350586e+00,2.350704431533813477e+00,2.390308856964111328e+00,2.431270837783813477e+00,2.473660945892333984e+00,2.517555475234985352e+00,2.563036203384399414e+00,2.610190391540527344e+00,2.659111976623535156e+00,2.709902524948120117e+00,2.762670993804931641e+00,2.817541837692260742e+00,2.874636650085449219e+00,2.934093475341796875e+00,2.996061325073242188e+00,3.060703754425048828e+00,3.128196716308593750e+00,3.198727130889892578e+00,3.272509098052978516e+00,3.349775075912475586e+00,3.430778026580810547e+00,3.515795469284057617e+00,3.605134010314941406e+00,3.699131011962890625e+00,3.798160552978515625e+00,3.902638435363769531e+00,4.013026237487792969e+00,4.129841327667236328e+00,4.253660202026367188e+00,4.385133743286132812e+00,4.524992942810058594e+00,2.816111326217651367e+00,2.801598310470581055e+00,2.737153291702270508e+00,2.689470529556274414e+00,2.671401977539062500e+00,2.658158540725708008e+00,2.640012979507446289e+00,2.655267953872680664e+00,5.000000000000000000e+00,2.707675457000732422e+00,2.715735912322998047e+00,5.000000000000000000e+00,5.000000000000000000e+00,5.000000000000000000e+00,5.000000000000000000e+00,5.000000000000000000e+00,5.000000000000000000e+00,5.000000000000000000e+00,5.000000000000000000e+00,5.000000000000000000e+00,5.000000000000000000e+00,5.000000000000000000e+00,5.000000000000000000e+00,5.000000000000000000e+00,5.000000000000000000e+00,5.000000000000000000e+00,5.000000000000000000e+00,5.000000000000000000e+00,5.000000000000000000e+00,5.000000000000000000e+00,5.000000000000000000e+00,5.000000000000000000e+00,5.000000000000000000e+00,5.000000000000000000e+00,5.000000000000000000e+00,5.000000000000000000e+00,5.000000000000000000e+00
1.934080958366394043e+00,1.960811138153076172e+00,1.988290548324584961e+00,2.016551017761230469e+00,2.045626640319824219e+00,2.075552940368652344e+00,2.106367826461791992e+00,2.138111352920532227e+00,2.170826435089111328e+00,2.204558134078979492e+00,2.239354848861694336e+00,2.275267362594604492e+00,2.312350749969482422e+00,2.350662708282470703e+00,2.390265703201293945e+00,2.431226253509521484e+00,2.473614931106567383e+00,2.517507791519165039e+00,2.562986612319946289e+00,2.610138893127441406e+00,2.659058570861816406e+00,2.709846973419189453e+00,2.762613534927368164e+00,2.817475557327270508e+00,2.874560594558715820e+00,2.934013128280639648e+00,2.995977640151977539e+00,3.060616254806518555e+00,3.128105401992797852e+00,3.198637962341308594e+00,3.272424697875976562e+00,3.349690437316894531e+00,3.430689334869384766e+00,3.515702724456787109e+00,3.605036020278930664e+00,3.699027776718139648e+00,3.798051834106445312e+00,3.902523517608642578e+00,4.012904644012451172e+00,4.129712581634521484e+00,4.253523826599121094e+00,4.384988784790039062e+00,4.524839401245117188e+00,2.774734497070312500e+00,2.793303489685058594e+00,2.740668773651123047e+00,2.720332384109497070e+00,2.693711996078491211e+00,2.597088336944580078e+00,2.594123601913452148e+00,2.629945755004882812e+00,5.000000000000000000e+00,2.698462247848510742e+00,2.706841230392456055e+00,5.000000000000000000e+00,5.000000000000000000e+00,5.000000000000000000e+00,5.000000000000000000e+00,5.000000000000000000e+00,5.000000000000000000e+00,5.000000000000000000e+00,5.000000000000000000e+00,5.000000000000000000e+00,5.000000000000000000e+00,5.000000000000000000e+00,5.000000000000000000e+00,5.000000000000000000e+00,5.000000000000000000e+00,5.000000000000000000e+00,5.000000000000000000e+00,5.000000000000000000e+00,5.000000000000000000e+00,5.000000000000000000e+00,5.000000000000000000e+00,5.000000000000000000e+00,5.000000000000000000e+00,5.000000000000000000e+00,5.000000000000000000e+00,5.000000000000000000e+00,5.000000000000000000e+00
1.934052586555480957e+00,1.960782051086425781e+00,1.988260626792907715e+00,2.016520261764526367e+00,2.045595169067382812e+00,2.075520515441894531e+00,2.106334447860717773e+00,2.138077020645141602e+00,2.170790910720825195e+00,2.204521656036376953e+00,2.239316940307617188e+00,2.275228500366210938e+00,2.312310218811035156e+00,2.350620985031127930e+00,2.390222787857055664e+00,2.431181669235229492e+00,2.473568677902221680e+00,2.517460107803344727e+00,2.562937021255493164e+00,2.610087633132934570e+00,2.659005165100097656e+00,2.709791660308837891e+00,2.762555837631225586e+00,2.817415714263916016e+00,2.874498367309570312e+00,2.933942079544067383e+00,2.995896100997924805e+00,3.060528516769409180e+00,3.128013849258422852e+00,3.198542356491088867e+00,3.272324562072753906e+00,3.349591016769409180e+00,3.430594921112060547e+00,3.515609502792358398e+00,3.604938030242919922e+00,3.698924541473388672e+00,3.797943115234375000e+00,3.902408838272094727e+00,4.012783527374267578e+00,4.129583835601806641e+00,4.253387451171875000e+00,4.384843826293945312e+00,4.524684906005859375e+00,2.757381916046142578e+00,4.832948684692382812e+00,2.745224475860595703e+00,2.731689929962158203e+00,2.608719110488891602e+00,2.576677560806274414e+00,2.574503421783447266e+00,2.612808704376220703e+00,5.000000000000000000e+00,2.698713779449462891e+00,2.701756477355957031e+00,5.000000000000000000e+00,5.000000000000000000e+00,5.000000000000000000e+00,5.000000000000000000e+00,5.000000000000000000e+00,5.000000000000000000e+00,5.000000000000000000e+00,5.000000000000000000e+00,5.000000000000000000e+00,5.000000000000000000e+00,5.000000000000000000e+00,5.000000000000000000e+00,5.000000000000000000e+00,5.000000000000000000e+00,5.000000000000000000e+00,5.000000000000000000e+00,5.000000000000000000e+00,5.000000000000000000e+00,5.000000000000000000e+00,5.000000000000000000e+00,5.000000000000000000e+00,5.000000000000000000e+00,5.000000000000000000e+00,5.000000000000000000e+00,5.000000000000000000e+00,5.000000000000000000e+00
1.934024572372436523e+00,1.960753202438354492e+00,1.988230943679809570e+00,2.016489744186401367e+00,2.045563459396362305e+00,2.075487852096557617e+00,2.106300830841064453e+00,2.138042449951171875e+00,2.170755386352539062e+00,2.204484939575195312e+00,2.239279270172119141e+00,2.275189399719238281e+00,2.312270164489746094e+00,2.350579500198364258e+00,2.390179634094238281e+00,2.431137084960937500e+00,2.473522663116455078e+00,2.517412185668945312e+00,2.562887668609619141e+00,2.610036134719848633e+00,2.658951997756958008e+00,2.709736347198486328e+00,2.762498378753662109e+00,2.817355871200561523e+00,2.874436140060424805e+00,2.933877468109130859e+00,2.995828390121459961e+00,3.060452699661254883e+00,3.127926349639892578e+00,3.198446750640869141e+00,3.272224664688110352e+00,3.349486351013183594e+00,3.430485010147094727e+00,3.515498161315917969e+00,3.604831933975219727e+00,3.698821544647216797e+00,3.797834157943725586e+00,3.902293920516967773e+00,4.012661933898925781e+00,4.129455566406250000e+00,4.253251075744628906e+00,4.384698867797851562e+00,2.721254587173461914e+00,2.787540435791015625e+00,4.832773208618164062e+00,2.743898868560791016e+00,2.730188846588134766e+00,2.581780910491943359e+00,2.560516357421875000e+00,2.560199975967407227e+00,2.610031843185424805e+00,5.000000000000000000e+00,2.697470426559448242e+00,2.709964752197265625e+00,5.000000000000000000e+00,5.000000000000000000e+00,5.000000000000000000e+00,5.000000000000000000e+00,5.000000000000000000e+00,5.000000000000000000e+00,5.000000000000000000e+00,5.000000000000000000e+00,5.000000000000000000e+00,5.000000000000000000e+00,5.000000000000000000e+00,5.000000000000000000e+00,5.000000000000000000e+00,5.000000000000000000e+00,5.000000000000000000e+00,5.000000000000000000e+00,5.000000000000000000e+00,5.000000000000000000e+00,5.000000000000000000e+00,5.000000000000000000e+00,5.000000000000000000e+00,5.000000000000000000e+00,5.000000000000000000e+00,5.000000000000000000e+00,5.000000000000000000e+00,5.000000000000000000e+00
1.933996438980102539e+00,1.960724353790283203e+00,1.988201022148132324e+00,2.016458988189697266e+00,2.045531988143920898e+00,2.075455427169799805e+00,2.106267452239990234e+00,2.138008117675781250e+00,2.170719861984252930e+00,2.204448223114013672e+00,2.239241361618041992e+00,2.275150299072265625e+00,2.312229871749877930e+00,2.350538015365600586e+00,2.390136480331420898e+00,2.431092500686645508e+00,2.473476409912109375e+00,2.517364501953125000e+00,2.562838077545166016e+00,2.609984874725341797e+00,2.658898591995239258e+00,2.709681034088134766e+00,2.762440919876098633e+00,2.817296028137207031e+00,2.874373912811279297e+00,2.933812379837036133e+00,2.995760917663574219e+00,3.060382127761840820e+00,3.127852439880371094e+00,3.198365211486816406e+00,3.272130250930786133e+00,3.349381446838378906e+00,3.430375099182128906e+00,3.515382528305053711e+00,3.604710340499877930e+00,3.698696374893188477e+00,3.797714710235595703e+00,3.902179002761840820e+00,4.012540340423583984e+00,4.129326820373535156e+00,4.253115177154541016e+00,4.384554386138916016e+00,2.670995712280273438e+00,4.673410415649414062e+00,4.832597255706787109e+00,2.752658843994140625e+00,2.734004974365234375e+00,2.556561231613159180e+00,2.546422004699707031e+00,2.556962728500366211e+00,2.634292602539062500e+00,5.000000000000000000e+00,2.690838336944580078e+00,2.694857358932495117e+00,5.000000000000000000e+00,5.000000000000000000e+00,5.000000000000000000e+00,5.000000000000000000e+00,5.000000000000000000e+00,5.000000000000000000e+00,5.000000000000000000e+00,5.000000000000000000e+00,5.000000000000000000e+00,5.000000000000000000e+00,5.000000000000000000e+00,5.000000000000000000e+00,5.000000000000000000e+00,5.000000000000000000e+00,5.000000000000000000e+00,5.000000000000000000e+00,5.000000000000000000e+00,5.000000000000000000e+00,5.000000000000000000e+00,5.000000000000000000e+00,5.000000000000000000e+00,5.000000000000000000e+00,5.000000000000000000e+00,5.000000000000000000e+00,5.000000000000000000e+00,5.000000000000000000e+00
1.933968186378479004e+00,1.960695266723632812e+00,1.988171339035034180e+00,2.016428470611572266e+00,2.045500516891479492e+00,2.075423002243041992e+00,2.106234073638916016e+00,2.137973546981811523e+00,2.170684337615966797e+00,2.204411745071411133e+00,2.239203691482543945e+00,2.275111436843872070e+00,2.312189579010009766e+00,2.350496292114257812e+00,2.390093803405761719e+00,2.431047916412353516e+00,2.473430395126342773e+00,2.517316579818725586e+00,2.562788486480712891e+00,2.609933376312255859e+00,2.658845424652099609e+00,2.709625482559204102e+00,2.762383222579956055e+00,2.817236185073852539e+00,2.874311685562133789e+00,2.933747529983520508e+00,2.995693445205688477e+00,3.060311794281005859e+00,3.127778768539428711e+00,3.198287963867187500e+00,3.272049427032470703e+00,3.349293470382690430e+00,3.430273056030273438e+00,3.515267372131347656e+00,3.604589223861694336e+00,3.698568582534790039e+00,3.797579765319824219e+00,3.902037858963012695e+00,4.012404918670654297e+00,4.129197597503662109e+00,4.252978801727294922e+00,2.671164512634277344e+00,4.524222373962402344e+00,4.673245906829833984e+00,4.832420825958251953e+00,2.770406007766723633e+00,2.744744062423706055e+00,2.530242204666137695e+00,2.529025316238403320e+00,2.564496994018554688e+00,5.000000000000000000e+00,5.000000000000000000e+00,5.000000000000000000e+00,2.686552762985229492e+00,5.000000000000000000e+00,5.000000000000000000e+00,5.000000000000000000e+00,5.000000000000000000e+00,5.000000000000000000e+00,5.000000000000000000e+00,5.000000000000000000e+00,5.000000000000000000e+00,5.000000000000000000e+00,5.000000000000000000e+00,5.000000000000000000e+00,5.000000000000000000e+00,5.000000000000000000e+00,5.000000000000000000e+00,5.000000000000000000e+00,5.000000000000000000e+00,5.000000000000000000e+00,5.000000000000000000e+00,5.000000000000000000e+00,5.000000000000000000e+00,5.000000000000000000e+00,5.000000000000000000e+00,5.000000000000000000e+00,5.000000000000000000e+00,5.000000000000000000e+00,5.000000000000000000e+00
1.933940052986145020e+00,1.960666298866271973e+00,1.988141655921936035e+00,2.016397953033447266e+00,2.045468807220458984e+00,2.075390577316284180e+00,2.106200456619262695e+00,2.137939214706420898e+00,2.170648813247680664e+00,2.204375028610229492e+00,2.239165782928466797e+00,2.275072336196899414e+00,2.312149286270141602e+00,2.350454568862915039e+00,2.390050649642944336e+00,2.431003570556640625e+00,2.473384141921997070e+00,2.517268896102905273e+00,2.562739133834838867e+00,2.609882116317749023e+00,2.658792018890380859e+00,2.709570169448852539e+00,2.762325763702392578e+00,2.817176342010498047e+00,2.874249219894409180e+00,2.933682680130004883e+00,2.995625734329223633e+00,3.060240983963012695e+00,3.127705335617065430e+00,3.198210954666137695e+00,3.271968841552734375e+00,3.349208831787109375e+00,3.430184125900268555e+00,3.515172004699707031e+00,3.604478120803833008e+00,3.698441028594970703e+00,3.797445297241210938e+00,3.901895999908447266e+00,4.012254714965820312e+00,4.129038333892822266e+00,4.252823829650878906e+00,4.384260654449462891e+00,4.524067878723144531e+00,4.673080921173095703e+00,4.832244873046875000e+00,2.790759325027465820e+00,2.560580253601074219e+00,2.508791446685791016e+00,2.517166614532470703e+00,2.577927350997924805e+00,5.000000000000000000e+00,5.000000000000000000e+00,5.000000000000000000e+00,2.677586317062377930e+00,5.000000000000000000e+00,5.000000000000000000e+00,5.000000000000000000e+00,5.000000000000000000e+00,5.000000000000000000e+00,5.000000000000000000e+00,5.000000000000000000e+00,5.000000000000000000e+00,5.000000000000000000e+00,5.000000000000000000e+00,5.000000000000000000e+00,5.000000000000000000e+00,5.000000000000000000e+00,5.000000000000000000e+00,5.000000000000000000e+00,5.000000000000000000e+00,5.000000000000000000e+00,5.000000000000000000e+00,5.000000000000000000e+00,5.000000000000000000e+00,5.000000000000000000e+00,5.000000000000000000e+00,5.000000000000000000e+00,5.000000000000000000e+00,5.000000000000000000e+00,5.000000000000000000e+00
1.933911681175231934e+00,1.960637211799621582e+00,1.988111734390258789e+00,2.016367197036743164e+00,2.045437574386596680e+00,2.075357913970947266e+00,2.106167078018188477e+00,2.137904644012451172e+00,2.170613288879394531e+00,2.204338312149047852e+00,2.239128112792968750e+00,2.275033235549926758e+00,2.312108993530273438e+00,2.350412845611572266e+00,2.390007495880126953e+00,2.430958986282348633e+00,2.473338127136230469e+00,2.517221212387084961e+00,2.562689542770385742e+00,2.609830856323242188e+00,2.658738851547241211e+00,2.709514856338500977e+00,2.762268304824829102e+00,2.817116498947143555e+00,2.874186992645263672e+00,2.933617830276489258e+00,2.995558023452758789e+00,3.060170412063598633e+00,3.127631425857543945e+00,3.198133945465087891e+00,3.271888017654418945e+00,3.349124431610107422e+00,3.430095434188842773e+00,3.515078783035278320e+00,3.604380130767822266e+00,3.698337078094482422e+00,3.797323703765869141e+00,3.901754856109619141e+00,4.012104034423828125e+00,4.128879070281982422e+00,4.252654552459716797e+00,4.384080886840820312e+00,4.523890018463134766e+00,4.672909259796142578e+00,4.832068920135498047e+00,2.812345743179321289e+00,2.530675172805786133e+00,2.493972778320312500e+00,2.518623113632202148e+00,2.591024637222290039e+00,5.000000000000000000e+00,5.000000000000000000e+00,5.000000000000000000e+00,5.000000000000000000e+00,5.000000000000000000e+00,5.000000000000000000e+00,5.000000000000000000e+00,5.000000000000000000e+00,5.000000000000000000e+00,5.000000000000000000e+00,5.000000000000000000e+00,5.000000000000000000e+00,5.000000000000000000e+00,5.000000000000000000e+00,5.000000000000000000e+00,5.000000000000000000e+00,5.000000000000000000e+00,5.000000000000000000e+00,5.000000000000000000e+00,5.000000000000000000e+00,5.000000000000000000e+00,5.000000000000000000e+00,5.000000000000000000e+00,5.000000000000000000e+00,5.000000000000000000e+00,5.000000000000000000e+00,5.000000000000000000e+00,5.000000000000000000e+00,5.000000000000000000e+00,5.000000000000000000e+00
1.933883666992187500e+00,1.960608363151550293e+00,1.988082051277160645e+00,2.016336441040039062e+00,2.045405864715576172e+00,2.075325727462768555e+00,2.106133699417114258e+00,2.137870311737060547e+00,2.170577764511108398e+00,2.204301834106445312e+00,2.239090204238891602e+00,2.274994373321533203e+00,2.312068700790405273e+00,2.350371360778808594e+00,2.389964580535888672e+00,2.430914402008056641e+00,2.473292112350463867e+00,2.517173528671264648e+00,2.562639951705932617e+00,2.609779357910156250e+00,2.658685445785522461e+00,2.709459543228149414e+00,2.762210607528686523e+00,2.817056655883789062e+00,2.874124765396118164e+00,2.933552980422973633e+00,2.995490312576293945e+00,3.060099840164184570e+00,3.127557754516601562e+00,3.198056936264038086e+00,3.271807670593261719e+00,3.349039793014526367e+00,3.430006742477416992e+00,3.514985561370849609e+00,3.604282140731811523e+00,3.698234081268310547e+00,3.797214984893798828e+00,3.901640176773071289e+00,4.011970520019531250e+00,4.128723144531250000e+00,4.252485752105712891e+00,4.383901596069335938e+00,4.523698806762695312e+00,4.672705173492431641e+00,4.831862449645996094e+00,5.000000000000000000e+00,2.519217967987060547e+00,2.491161823272705078e+00,2.530900478363037109e+00,5.000000000000000000e+00,5.000000000000000000e+00,5.000000000000000000e+00,5.000000000000000000e+00,5.000000000000000000e+00,5.000000000000000000e+00,5.000000000000000000e+00,5.000000000000000000e+00,5.000000000000000000e+00,5.000000000000000000e+00,5.000000000000000000e+00,5.000000000000000000e+00,5.000000000000000000e+00,5.000000000000000000e+00,5.000000000000000000e+00,5.000000000000000000e+00,5.000000000000000000e+00,5.000000000000000000e+00,5.000000000000000000e+00,5.000000000000000000e+00,5.000000000000000000e+00,5.000000000000000000e+00,5.000000000000000000e+00,5.000000000000000000e+00,5.000000000000000000e+00,5.000000000000000000e+00,5.000000000000000000e+00,5.000000000000000000e+00,5.000000000000000000e+00,5.000000000000000000e+00,5.000000000000000000e+00
1.933855295181274414e+00,1.960579276084899902e+00,1.988052129745483398e+00,2.016305923461914062e+00,2.045374393463134766e+00,2.075293302536010742e+00,2.106100320816040039e+00,2.137835741043090820e+00,2.170542240142822266e+00,2.204265117645263672e+00,2.239052295684814453e+00,2.274955272674560547e+00,2.312028408050537109e+00,2.350329637527465820e+00,2.389921426773071289e+00,2.430869817733764648e+00,2.473246097564697266e+00,2.517125844955444336e+00,2.562590599060058594e+00,2.609728097915649414e+00,2.658632040023803711e+00,2.709404230117797852e+00,2.762153148651123047e+00,2.816996812820434570e+00,2.874062538146972656e+00,2.933487892150878906e+00,2.995422601699829102e+00,3.060029268264770508e+00,3.127484083175659180e+00,3.197979927062988281e+00,3.271726846694946289e+00,3.348955631256103516e+00,3.429918050765991211e+00,3.514892339706420898e+00,3.604184150695800781e+00,3.698130846023559570e+00,3.797106266021728516e+00,3.901525259017944336e+00,4.011849403381347656e+00,4.128594398498535156e+00,4.252337932586669922e+00,4.383728504180908203e+00,4.523507595062255859e+00,4.672501087188720703e+00,4.831644535064697266e+00,5.000000000000000000e+00,2.533826112747192383e+00,2.502235889434814453e+00,2.525297164916992188e+00,5.000000000000000000e+00,5.000000000000000000e+00,5.000000000000000000e+00,5.000000000000000000e+00,5.000000000000000000e+00,5.000000000000000000e+00,5.000000000000000000e+00,5.000000000000000000e+00,5.000000000000000000e+00,5.000000000000000000e+00,5.000000000000000000e+00,5.000000000000000000e+00,5.000000000000000000e+00,5.000000000000000000e+00,5.000000000000000000e+00,5.000000000000000000e+00,5.000000000000000000e+00,5.000000000000000000e+00,5.000000000000000000e+00,5.000000000000000000e+00,5.000000000000000000e+00,5.000000000000000000e+00,5.000000000000000000e+00,5.000000000000000000e+00,5.000000000000000000e+00,5.000000000000000000e+00,5.000000000000000000e+00,5.000000000000000000e+00,5.000000000000000000e+00,5.000000000000000000e+00,5.000000000000000000e+00
1.933827280998229980e+00,1.960550427436828613e+00,1.988022446632385254e+00,2.016275167465209961e+00,2.045342922210693359e+00,2.075260639190673828e+00,2.106066942214965820e+00,2.137801408767700195e+00,2.170506715774536133e+00,2.204228401184082031e+00,2.239014625549316406e+00,2.274916172027587891e+00,2.311988115310668945e+00,2.350287914276123047e+00,2.389878273010253906e+00,2.430825233459472656e+00,2.473199844360351562e+00,2.517077922821044922e+00,2.562541246414184570e+00,2.609676837921142578e+00,2.658578872680664062e+00,2.709348917007446289e+00,2.762095689773559570e+00,2.816936969757080078e+00,2.874000072479248047e+00,2.933423042297363281e+00,2.995355129241943359e+00,3.059958696365356445e+00,3.127410173416137695e+00,3.197902679443359375e+00,3.271646261215209961e+00,3.348870992660522461e+00,3.429829835891723633e+00,3.514799356460571289e+00,3.604086160659790039e+00,3.698027849197387695e+00,3.796997547149658203e+00,3.901410579681396484e+00,4.011728286743164062e+00,4.128466129302978516e+00,4.252201557159423828e+00,4.383583545684814453e+00,4.523343086242675781e+00,4.672307491302490234e+00,4.831426143646240234e+00,5.000000000000000000e+00,2.801092624664306641e+00,2.516835927963256836e+00,2.526857852935791016e+00,5.000000000000000000e+00,5.000000000000000000e+00,5.000000000000000000e+00,5.000000000000000000e+00,5.000000000000000000e+00,5.000000000000000000e+00,5.000000000000000000e+00,5.000000000000000000e+00,5.000000000000000000e+00,5.000000000000000000e+00,5.000000000000000000e+00,5.000000000000000000e+00,5.000000000000000000e+00,5.000000000000000000e+00,5.000000000000000000e+00,5.000000000000000000e+00,5.000000000000000000e+00,5.000000000000000000e+00,5.000000000000000000e+00,5.000000000000000000e+00,5.000000000000000000e+00,5.000000000000000000e+00,5.000000000000000000e+00,5.000000000000000000e+00,5.000000000000000000e+00,5.000000000000000000e+00,5.000000000000000000e+00,5.000000000000000000e+00,5.000000000000000000e+00,5.000000000000000000e+00,5.000000000000000000e+00
1.933798909187316895e+00,1.960521340370178223e+00,1.987992525100708008e+00,2.016244649887084961e+00,2.045311212539672852e+00,2.075228214263916016e+00,2.106033563613891602e+00,2.137767076492309570e+00,2.170471429824829102e+00,2.204191923141479492e+00,2.238976716995239258e+00,2.274877309799194336e+00,2.311947584152221680e+00,2.350246429443359375e+00,2.389835357666015625e+00,2.430780649185180664e+00,2.473153829574584961e+00,2.517030239105224609e+00,2.562491655349731445e+00,2.609625577926635742e+00,2.658525705337524414e+00,2.709293365478515625e+00,2.762038230895996094e+00,2.816877126693725586e+00,2.873937845230102539e+00,2.933358192443847656e+00,2.995287418365478516e+00,3.059888124465942383e+00,3.127336502075195312e+00,3.197825670242309570e+00,3.271565437316894531e+00,3.348786354064941406e+00,3.429741144180297852e+00,3.514706611633300781e+00,3.603988409042358398e+00,3.697924613952636719e+00,3.796888828277587891e+00,3.901295661926269531e+00,4.011606693267822266e+00,4.128337860107421875e+00,4.252065658569335938e+00,4.383438587188720703e+00,4.523189067840576172e+00,4.672142982482910156e+00,4.831242084503173828e+00,5.000000000000000000e+00,5.000000000000000000e+00,2.527650594711303711e+00,2.532423734664916992e+00,5.000000000000000000e+00,5.000000000000000000e+00,5.000000000000000000e+00,5.000000000000000000e+00,5.000000000000000000e+00,5.000000000000000000e+00,5.000000000000000000e+00,5.000000000000000000e+00,5.000000000000000000e+00,5.000000000000000000e+00,5.000000000000000000e+00,5.000000000000000000e+00,5.000000000000000000e+00,5.000000000000000000e+00,5.000000000000000000e+00,5.000000000000000000e+00,5.000000000000000000e+00,5.000000000000000000e+00,5.000000000000000000e+00,5.000000000000000000e+00,5.000000000000000000e+00,5.000000000000000000e+00,5.000000000000000000e+00,5.000000000000000000e+00,5.000000000000000000e+00,5.000000000000000000e+00,5.000000000000000000e+00,5.000000000000000000e+00,5.000000000000000000e+00,5.000000000000000000e+00,5.000000000000000000e+00
1.933770895004272461e+00,1.960492491722106934e+00,1.987962841987609863e+00,2.016213893890380859e+00,2.045279741287231445e+00,2.075195789337158203e+00,2.105999946594238281e+00,2.137732505798339844e+00,2.170435905456542969e+00,2.204155445098876953e+00,2.238939046859741211e+00,2.274838209152221680e+00,2.311907291412353516e+00,2.350204706192016602e+00,2.389792203903198242e+00,2.430736303329467773e+00,2.473107576370239258e+00,2.516982316970825195e+00,2.562442064285278320e+00,2.609574317932128906e+00,2.658472537994384766e+00,2.709238290786743164e+00,2.761980533599853516e+00,2.816817283630371094e+00,2.873875617980957031e+00,2.933293342590332031e+00,2.995219707489013672e+00,3.059817552566528320e+00,3.127262830734252930e+00,3.197748422622680664e+00,3.271484851837158203e+00,3.348701953887939453e+00,3.429652452468872070e+00,3.514613389968872070e+00,3.603890895843505859e+00,3.697821617126464844e+00,3.796780109405517578e+00,3.901180982589721680e+00,4.011485576629638672e+00,4.128209114074707031e+00,4.251929283142089844e+00,4.383294105529785156e+00,4.523034572601318359e+00,4.671978473663330078e+00,4.831066131591796875e+00,5.000000000000000000e+00,5.000000000000000000e+00,2.526249885559082031e+00,2.537018775939941406e+00,2.963255643844604492e+00,5.000000000000000000e+00,5.000000000000000000e+00,5.000000000000000000e+00,5.000000000000000000e+00,5.000000000000000000e+00,5.000000000000000000e+00,5.000000000000000000e+00,5.000000000000000000e+00,5.000000000000000000e+00,5.000000000000000000e+00,5.000000000000000000e+00,5.000000000000000000e+00,5.000000000000000000e+00,5.000000000000000000e+00,5.000000000000000000e+00,5.000000000000000000e+00,5.000000000000000000e+00,5.000000000000000000e+00,5.000000000000000000e+00,5.000000000000000000e+00,5.000000000000000000e+00,5.000000000000000000e+00,5.000000000000000000e+00,5.000000000000000000e+00,5.000000000000000000e+00,5.000000000000000000e+00,5.000000000000000000e+00,5.000000000000000000e+00,5.000000000000000000e+00,5.000000000000000000e+00
1.933742523193359375e+00,1.960463404655456543e+00,1.987932920455932617e+00,2.016183376312255859e+00,2.045248270034790039e+00,2.075163364410400391e+00,2.105966567993164062e+00,2.137697935104370117e+00,2.170400381088256836e+00,2.204118728637695312e+00,2.238901376724243164e+00,2.274799108505249023e+00,2.311866998672485352e+00,2.350162982940673828e+00,2.389749050140380859e+00,2.430691719055175781e+00,2.473061561584472656e+00,2.516934633255004883e+00,2.562392711639404297e+00,2.609522819519042969e+00,2.658419132232666016e+00,2.709182977676391602e+00,2.761923313140869141e+00,2.816757440567016602e+00,2.873813390731811523e+00,2.933228492736816406e+00,2.995152235031127930e+00,3.059746980667114258e+00,3.127188920974731445e+00,3.197671413421630859e+00,3.271404027938842773e+00,3.348617315292358398e+00,3.429563760757446289e+00,3.514520168304443359e+00,3.603792905807495117e+00,3.697718858718872070e+00,3.796671390533447266e+00,3.901066303253173828e+00,4.011363983154296875e+00,4.128080844879150391e+00,4.251792907714843750e+00,4.383149147033691406e+00,4.522880554199218750e+00,4.671813964843750000e+00,4.830890178680419922e+00,5.000000000000000000e+00,5.000000000000000000e+00,2.524851083755493164e+00,2.541735410690307617e+00,2.981245756149291992e+00,5.000000000000000000e+00,5.000000000000000000e+00,5.000000000000000000e+00,5.000000000000000000e+00,5.000000000000000000e+00,5.000000000000000000e+00,5.000000000000000000e+00,5.000000000000000000e+00,5.000000000000000000e+00,5.000000000000000000e+00,5.000000000000000000e+00,5.000000000000000000e+00,5.000000000000000000e+00,5.000000000000000000e+00,5.000000000000000000e+00,5.000000000000000000e+00,5.000000000000000000e+00,5.000000000000000000e+00,5.000000000000000000e+00,5.000000000000000000e+00,5.000000000000000000e+00,5.000000000000000000e+00,5.000000000000000000e+00,5.000000000000000000e+00,5.000000000000000000e+00,5.000000000000000000e+00,5.000000000000000000e+00,5.000000000000000000e+00,5.000000000000000000e+00,5.000000000000000000e+00
1.933714509010314941e+00,1.960434436798095703e+00,1.987903237342834473e+00,2.016152620315551758e+00,2.045216798782348633e+00,2.075130939483642578e+00,2.105933189392089844e+00,2.137663602828979492e+00,2.170364856719970703e+00,2.204082012176513672e+00,2.238863468170166016e+00,2.274760246276855469e+00,2.311826705932617188e+00,2.350121498107910156e+00,2.389706134796142578e+00,2.430647134780883789e+00,2.473015308380126953e+00,2.516886949539184570e+00,2.562343120574951172e+00,2.609471559524536133e+00,2.658365964889526367e+00,2.709127664566040039e+00,2.761865854263305664e+00,2.816697835922241211e+00,2.873751163482666016e+00,2.933163642883300781e+00,2.995084524154663086e+00,3.059676408767700195e+00,3.127115249633789062e+00,3.197594404220581055e+00,3.271323442459106445e+00,3.348532676696777344e+00,3.429475069046020508e+00,3.514427185058593750e+00,3.603694915771484375e+00,3.697615623474121094e+00,3.796563148498535156e+00,3.900951623916625977e+00,4.011242866516113281e+00,4.127952575683593750e+00,4.251656532287597656e+00,4.383004188537597656e+00,4.522726535797119141e+00,4.671649456024169922e+00,4.830714225769042969e+00,5.000000000000000000e+00,5.000000000000000000e+00,2.525581121444702148e+00,2.546469688415527344e+00,3.010421752929687500e+00,5.000000000000000000e+00,5.000000000000000000e+00,5.000000000000000000e+00,5.000000000000000000e+00,5.000000000000000000e+00,5.000000000000000000e+00,5.000000000000000000e+00,5.000000000000000000e+00,5.000000000000000000e+00,5.000000000000000000e+00,5.000000000000000000e+00,5.000000000000000000e+00,5.000000000000000000e+00,5.000000000000000000e+00,5.000000000000000000e+00,5.000000000000000000e+00,5.000000000000000000e+00,5.000000000000000000e+00,5.000000000000000000e+00,5.000000000000000000e+00,5.000000000000000000e+00,5.000000000000000000e+00,5.000000000000000000e+00,5.000000000000000000e+00,5.000000000000000000e+00,5.000000000000000000e+00,5.000000000000000000e+00,5.000000000000000000e+00,5.000000000000000000e+00,5.000000000000000000e+00
1.933686137199401855e+00,1.960405349731445312e+00,1.987873315811157227e+00,2.016122102737426758e+00,2.045185089111328125e+00,2.075098276138305664e+00,2.105899810791015625e+00,2.137629032135009766e+00,2.170329332351684570e+00,2.204045534133911133e+00,2.238825798034667969e+00,2.274721384048461914e+00,2.311786651611328125e+00,2.350079774856567383e+00,2.389662981033325195e+00,2.430602550506591797e+00,2.472969293594360352e+00,2.516839027404785156e+00,2.562293529510498047e+00,2.609420299530029297e+00,2.658312559127807617e+00,2.709072351455688477e+00,2.761808395385742188e+00,2.816637992858886719e+00,2.873688936233520508e+00,2.933099031448364258e+00,2.995016813278198242e+00,3.059605598449707031e+00,3.127041578292846680e+00,3.197517156600952148e+00,3.271242618560791016e+00,3.348448276519775391e+00,3.429386377334594727e+00,3.514333963394165039e+00,3.603596925735473633e+00,3.697512626647949219e+00,3.796454429626464844e+00,3.900837182998657227e+00,4.011121273040771484e+00,4.127823829650878906e+00,4.251520633697509766e+00,4.382859706878662109e+00,4.522572040557861328e+00,4.671484947204589844e+00,4.830538272857666016e+00,5.000000000000000000e+00,5.000000000000000000e+00,2.535459041595458984e+00,2.552399635314941406e+00,3.054649591445922852e+00,3.121201992034912109e+00,5.000000000000000000e+00,5.000000000000000000e+00,5.000000000000000000e+00,5.000000000000000000e+00,5.000000000000000000e+00,5.000000000000000000e+00,5.000000000000000000e+00,5.000000000000000000e+00,5.000000000000000000e+00,5.000000000000000000e+00,5.000000000000000000e+00,5.000000000000000000e+00,5.000000000000000000e+00,5.000000000000000000e+00,5.000000000000000000e+00,5.000000000000000000e+00,5.000000000000000000e+00,5.000000000000000000e+00,5.000000000000000000e+00,5.000000000000000000e+00,5.000000000000000000e+00,5.000000000000000000e+00,5.000000000000000000e+00,5.000000000000000000e+00,5.000000000000000000e+00,5.000000000000000000e+00,5.000000000000000000e+00,5.000000000000000000e+00,5.000000000000000000e+00
1.933658123016357422e+00,1.960376501083374023e+00,1.987843632698059082e+00,2.016091346740722656e+00,2.045153617858886719e+00,2.075065851211547852e+00,2.105866193771362305e+00,2.137594699859619141e+00,2.170293807983398438e+00,2.204008817672729492e+00,2.238787889480590820e+00,2.274682283401489258e+00,2.311746358871459961e+00,2.350038290023803711e+00,2.389620065689086914e+00,2.430557966232299805e+00,2.472923278808593750e+00,2.516791343688964844e+00,2.562244176864624023e+00,2.609368801116943359e+00,2.658259391784667969e+00,2.709017038345336914e+00,2.761750698089599609e+00,2.816578149795532227e+00,2.873626708984375000e+00,2.933034181594848633e+00,2.994949102401733398e+00,3.059535026550292969e+00,3.126967906951904297e+00,3.197440147399902344e+00,3.271162033081054688e+00,3.348363637924194336e+00,3.429297685623168945e+00,3.514240741729736328e+00,3.603499174118041992e+00,3.697409629821777344e+00,3.796345949172973633e+00,3.900722503662109375e+00,4.011000156402587891e+00,4.127695560455322266e+00,4.251384258270263672e+00,4.382714748382568359e+00,4.522418022155761719e+00,4.671320438385009766e+00,4.830362319946289062e+00,5.000000000000000000e+00,5.000000000000000000e+00,2.539849042892456055e+00,2.558472871780395508e+00,3.149244546890258789e+00,3.110938310623168945e+00,5.000000000000000000e+00,5.000000000000000000e+00,5.000000000000000000e+00,5.000000000000000000e+00,5.000000000000000000e+00,5.000000000000000000e+00,5.000000000000000000e+00,5.000000000000000000e+00,5.000000000000000000e+00,5.000000000000000000e+00,5.000000000000000000e+00,5.000000000000000000e+00,5.000000000000000000e+00,5.000000000000000000e+00,5.000000000000000000e+00,5.000000000000000000e+00,5.000000000000000000e+00,5.000000000000000000e+00,5.000000000000000000e+00,5.000000000000000000e+00,5.000000000000000000e+00,5.000000000000000000e+00,5.000000000000000000e+00,5.000000000000000000e+00,5.000000000000000000e+00,5.000000000000000000e+00,5.000000000000000000e+00,5.000000000000000000e+00,5.000000000000000000e+00
1.933629989624023438e+00,1.960347652435302734e+00,1.987813711166381836e+00,2.016060590744018555e+00,2.045122146606445312e+00,2.075033426284790039e+00,2.105832815170288086e+00,2.137560129165649414e+00,2.170258283615112305e+00,2.203972101211547852e+00,2.238750219345092773e+00,2.274643182754516602e+00,2.311706066131591797e+00,2.349996566772460938e+00,2.389577150344848633e+00,2.430513381958007812e+00,2.472877025604248047e+00,2.516743659973144531e+00,2.562194585800170898e+00,2.609317541122436523e+00,2.658205986022949219e+00,2.708961725234985352e+00,2.761693239212036133e+00,2.816518545150756836e+00,2.873564481735229492e+00,2.932969331741333008e+00,2.994881868362426758e+00,3.059464931488037109e+00,3.126894235610961914e+00,3.197363138198852539e+00,3.271081447601318359e+00,3.348279237747192383e+00,3.429208993911743164e+00,3.514147758483886719e+00,3.603401184082031250e+00,3.697306394577026367e+00,3.796237230300903320e+00,3.900607824325561523e+00,4.010879039764404297e+00,4.127567291259765625e+00,4.251247882843017578e+00,4.382569789886474609e+00,4.522264003753662109e+00,4.671155929565429688e+00,4.821252346038818359e+00,4.820066928863525391e+00,4.818881988525390625e+00,2.541047811508178711e+00,2.564691543579101562e+00,3.121440172195434570e+00,3.089767694473266602e+00,4.812966823577880859e+00,4.811785221099853516e+00,4.810604572296142578e+00,4.809424400329589844e+00,4.808245182037353516e+00,4.807065963745117188e+00,4.805887222290039062e+00,4.804709434509277344e+00,4.803532123565673828e+00,4.802355766296386719e+00,4.801179885864257812e+00,4.800004005432128906e+00,4.798829078674316406e+00,4.797654628753662109e+00,4.796480655670166016e+00,4.795307636260986328e+00,4.794135093688964844e+00,4.792963027954101562e+00,4.791791439056396484e+00,4.790620326995849609e+00,4.789450168609619141e+00,4.788280487060546875e+00,4.787111282348632812e+00,4.785942554473876953e+00,4.784774303436279297e+00,4.783606529235839844e+00,4.782439708709716797e+00,4.781273365020751953e+00,4.780107498168945312e+00
1.933601737022399902e+00,1.960318565368652344e+00,1.987784028053283691e+00,2.016030073165893555e+00,2.045090436935424805e+00,2.075001001358032227e+00,2.105799436569213867e+00,2.137525796890258789e+00,2.170222759246826172e+00,2.203935623168945312e+00,2.238712310791015625e+00,2.274604320526123047e+00,2.311665773391723633e+00,2.349955081939697266e+00,2.389533996582031250e+00,2.430469036102294922e+00,2.472831010818481445e+00,2.516695976257324219e+00,2.562145233154296875e+00,2.609266281127929688e+00,2.658152818679809570e+00,2.708906412124633789e+00,2.761635780334472656e+00,2.816458702087402344e+00,2.873502254486083984e+00,2.932904481887817383e+00,2.994814157485961914e+00,3.059394359588623047e+00,3.126820325851440430e+00,3.197285890579223633e+00,3.271000623703002930e+00,3.348194599151611328e+00,3.429120302200317383e+00,3.514054536819458008e+00,3.603303194046020508e+00,3.697203397750854492e+00,3.751514673233032227e+00,3.750796556472778320e+00,3.750079393386840820e+00,3.749362468719482422e+00,3.748645305633544922e+00,3.747928857803344727e+00,3.747212648391723633e+00,3.746496438980102539e+00,3.745780944824218750e+00,3.745065212249755859e+00,3.744349956512451172e+00,2.549553155899047852e+00,3.742920398712158203e+00,3.090934514999389648e+00,3.066071271896362305e+00,3.740777730941772461e+00,3.740063905715942383e+00,3.739350795745849609e+00,3.738637447357177734e+00,3.737924814224243164e+00,3.737212181091308594e+00,3.736500024795532227e+00,3.735787868499755859e+00,3.735075950622558594e+00,3.734364748001098633e+00,3.733653306961059570e+00,3.732942581176757812e+00,3.732231855392456055e+00,3.731521129608154297e+00,3.730811357498168945e+00,3.730101346969604492e+00,3.729392051696777344e+00,3.728682518005371094e+00,3.727973699569702148e+00,3.727264642715454102e+00,3.726556062698364258e+00,3.725847959518432617e+00,3.725139856338500977e+00,3.724432468414306641e+00,3.723724842071533203e+00,3.723017454147338867e+00,3.722310781478881836e+00,3.721603870391845703e+00,3.720897912979125977e+00
1.933573603630065918e+00,1.960289716720581055e+00,1.987754464149475098e+00,2.015999555587768555e+00,2.045058965682983398e+00,2.074968576431274414e+00,2.105766057968139648e+00,2.137491226196289062e+00,2.170187234878540039e+00,2.203898906707763672e+00,2.238674640655517578e+00,2.274565219879150391e+00,2.311625480651855469e+00,2.349913358688354492e+00,2.389491081237792969e+00,2.430424451828002930e+00,2.472784996032714844e+00,2.516648054122924805e+00,2.562095642089843750e+00,2.609214782714843750e+00,2.658099412918090820e+00,2.708851099014282227e+00,2.761578321456909180e+00,2.816398859024047852e+00,2.873440027236938477e+00,2.932839632034301758e+00,2.994746685028076172e+00,3.059323787689208984e+00,3.070281028747558594e+00,3.069800376892089844e+00,3.069319725036621094e+00,3.068839311599731445e+00,3.068359136581420898e+00,3.067879199981689453e+00,3.067399024963378906e+00,3.066919326782226562e+00,3.066439867019653320e+00,3.065960168838500977e+00,3.065480947494506836e+00,3.065001964569091797e+00,3.064522743225097656e+00,3.064043760299682617e+00,3.063565254211425781e+00,3.063086509704589844e+00,3.062608003616333008e+00,3.062129735946655273e+00,2.494666814804077148e+00,2.514075994491577148e+00,3.060695886611938477e+00,3.060217857360839844e+00,3.059740543365478516e+00,3.059262990951538086e+00,3.058785676956176758e+00,3.058308362960815430e+00,3.057831287384033203e+00,3.057354450225830078e+00,3.056877613067626953e+00,3.056401252746582031e+00,3.055924654006958008e+00,3.055448293685913086e+00,3.054972410202026367e+00,3.054496288299560547e+00,3.054020643234252930e+00,3.053544759750366211e+00,3.053069353103637695e+00,3.052593708038330078e+00,3.052118539810180664e+00,3.051643610000610352e+00,3.051168441772460938e+00,3.050693750381469727e+00,3.050219058990478516e+00,3.049744606018066406e+00,3.049270153045654297e+00,3.048795938491821289e+00,3.048321962356567383e+00,3.047847986221313477e+00,3.047374486923217773e+00,3.046900749206542969e+00,3.046427011489868164e+00,3.045953989028930664e+00
1.933545351028442383e+00,1.960260629653930664e+00,1.987724542617797852e+00,2.015968799591064453e+00,2.045027494430541992e+00,2.074935913085937500e+00,2.105732440948486328e+00,2.137456893920898438e+00,2.170151710510253906e+00,2.203862428665161133e+00,2.238636732101440430e+00,2.274526357650756836e+00,2.311585187911987305e+00,2.349871635437011719e+00,2.389447927474975586e+00,2.430380105972290039e+00,2.472738981246948242e+00,2.516600608825683594e+00,2.562046051025390625e+00,2.598778724670410156e+00,2.598434209823608398e+00,2.598089933395385742e+00,2.597745656967163086e+00,2.597401618957519531e+00,2.597057342529296875e+00,2.596713542938232422e+00,2.596369743347167969e+00,2.596025943756103516e+00,2.595682382583618164e+00,2.595338821411132812e+00,2.594995260238647461e+00,2.594651699066162109e+00,2.594308614730834961e+00,2.593965530395507812e+00,2.593622207641601562e+00,2.593279123306274414e+00,2.592936277389526367e+00,2.592593431472778320e+00,2.592250585556030273e+00,2.591907978057861328e+00,2.591565370559692383e+00,2.591222763061523438e+00,2.590880632400512695e+00,2.590538024902343750e+00,2.590195894241333008e+00,2.589853763580322266e+00,2.450639724731445312e+00,2.589169740676879883e+00,2.588828086853027344e+00,2.588486433029174805e+00,2.588144540786743164e+00,2.587802886962890625e+00,2.587461471557617188e+00,2.587120056152343750e+00,2.586778640747070312e+00,2.586437463760375977e+00,2.586096048355102539e+00,2.585755109786987305e+00,2.585414171218872070e+00,2.585073232650756836e+00,2.584732294082641602e+00,2.584391593933105469e+00,2.584051132202148438e+00,2.583710432052612305e+00,2.583369970321655273e+00,2.583029508590698242e+00,2.582689523696899414e+00,2.582349061965942383e+00,2.582008838653564453e+00,2.581669092178344727e+00,2.581329107284545898e+00,2.580989360809326172e+00,2.580649375915527344e+00,2.580309629440307617e+00,2.579970121383666992e+00,2.579630613327026367e+00,2.579291343688964844e+00,2.578952074050903320e+00,2.578612804412841797e+00,2.578273773193359375e+00
1.933517217636108398e+00,1.960231781005859375e+00,1.987694859504699707e+00,2.015938282012939453e+00,2.044996023178100586e+00,2.074903726577758789e+00,2.105699062347412109e+00,2.137422323226928711e+00,2.170116186141967773e+00,2.203825712203979492e+00,2.238599061965942383e+00,2.252555608749389648e+00,2.252296924591064453e+00,2.252038240432739258e+00,2.251779556274414062e+00,2.251520872116088867e+00,2.251262426376342773e+00,2.251003980636596680e+00,2.250745534896850586e+00,2.250487327575683594e+00,2.250229120254516602e+00,2.249970674514770508e+00,2.249712705612182617e+00,2.249454498291015625e+00,2.249196529388427734e+00,2.248938560485839844e+00,2.248680591583251953e+00,2.248422622680664062e+00,2.248164892196655273e+00,2.247907161712646484e+00,2.247649431228637695e+00,2.247391939163208008e+00,2.247134447097778320e+00,2.246876955032348633e+00,2.246619462966918945e+00,2.246361970901489258e+00,2.246104717254638672e+00,2.245847463607788086e+00,2.245590209960937500e+00,2.245332956314086914e+00,2.245075941085815430e+00,2.244818925857543945e+00,2.244561910629272461e+00,2.244304895401000977e+00,2.244048118591308594e+00,2.243791341781616211e+00,2.243534803390502930e+00,2.243277788162231445e+00,2.243021249771118164e+00,2.242764711380004883e+00,2.242508172988891602e+00,2.242251873016357422e+00,2.241995573043823242e+00,2.241739034652709961e+00,2.241482734680175781e+00,2.241226673126220703e+00,2.240970373153686523e+00,2.240714311599731445e+00,2.240458250045776367e+00,2.240202188491821289e+00,2.239946126937866211e+00,2.239690303802490234e+00,2.239434480667114258e+00,2.239178657531738281e+00,2.238923072814941406e+00,2.238667249679565430e+00,2.238411664962768555e+00,2.238156080245971680e+00,2.237900733947753906e+00,2.237645149230957031e+00,2.237389802932739258e+00,2.237134695053100586e+00,2.236879348754882812e+00,2.236624240875244141e+00,2.236368894577026367e+00,2.236113786697387695e+00,2.235858917236328125e+00,2.235603809356689453e+00,2.235348939895629883e+00,2.235094070434570312e+00
1.933488965034484863e+00,1.960202693939208984e+00,1.987664937973022461e+00,1.987738609313964844e+00,1.987537026405334473e+00,1.987335562705993652e+00,1.987134337425231934e+00,1.986932873725891113e+00,1.986731410026550293e+00,1.986530303955078125e+00,1.986328959465026855e+00,1.986127734184265137e+00,1.985926747322082520e+00,1.985725522041320801e+00,1.985524296760559082e+00,1.985323429107666016e+00,1.985122442245483398e+00,1.984921336174011230e+00,1.984720587730407715e+00,1.984519600868225098e+00,1.984318971633911133e+00,1.984117984771728516e+00,1.983917236328125000e+00,1.983716607093811035e+00,1.983515858650207520e+00,1.983315229415893555e+00,1.983114719390869141e+00,1.982914090156555176e+00,1.982713460922241211e+00,1.982513189315795898e+00,1.982312679290771484e+00,1.982112169265747070e+00,1.981912016868591309e+00,1.981711626052856445e+00,1.981511235237121582e+00,1.981311202049255371e+00,1.981110930442810059e+00,1.980910658836364746e+00,1.980710744857788086e+00,1.980510592460632324e+00,1.980310440063476562e+00,1.980110645294189453e+00,1.979910612106323242e+00,1.979710698127746582e+00,1.979510903358459473e+00,1.979310989379882812e+00,1.979111433029174805e+00,1.978911519050598145e+00,1.978711724281311035e+00,1.978512287139892578e+00,1.978312492370605469e+00,1.978112936019897461e+00,1.977913498878479004e+00,1.977713942527770996e+00,1.977514386177062988e+00,1.977315068244934082e+00,1.977115631103515625e+00,1.976916193962097168e+00,1.976716995239257812e+00,1.976517677307128906e+00,1.976318359375000000e+00,1.976119399070739746e+00,1.975920081138610840e+00,1.975721001625061035e+00,1.975521802902221680e+00,1.975322723388671875e+00,1.975123882293701172e+00,1.974924802780151367e+00,1.974725842475891113e+00,1.974526882171630859e+00,1.974328041076660156e+00,1.974129438400268555e+00,1.973930597305297852e+00,1.973731756210327148e+00,1.973533034324645996e+00,1.973334550857543945e+00,1.973135948181152344e+00,1.972937345504760742e+00,1.972738742828369141e+00,1.972540140151977539e+00
1.777830481529235840e+00,1.777669310569763184e+00,1.777508020401000977e+00,1.777347087860107422e+00,1.777185916900634766e+00,1.777024745941162109e+00,1.776863813400268555e+00,1.776702761650085449e+00,1.776541709899902344e+00,1.776380896568298340e+00,1.776219964027404785e+00,1.776059031486511230e+00,1.775898218154907227e+00,1.775737404823303223e+00,1.775576472282409668e+00,1.775415778160095215e+00,1.775254964828491211e+00,1.775094270706176758e+00,1.774933695793151855e+00,1.774773001670837402e+00,1.774612426757812500e+00,1.774451732635498047e+00,1.774291157722473145e+00,1.774130702018737793e+00,1.773970127105712891e+00,1.773809552192687988e+00,1.773649215698242188e+00,1.773488759994506836e+00,1.773328304290771484e+00,1.773168087005615234e+00,1.773007631301879883e+00,1.772847294807434082e+00,1.772687077522277832e+00,1.772526741027832031e+00,1.772366523742675781e+00,1.772206425666809082e+00,1.772046208381652832e+00,1.771885991096496582e+00,1.771726012229919434e+00,1.771565914154052734e+00,1.771405816078186035e+00,1.771245837211608887e+00,1.771085739135742188e+00,1.770925760269165039e+00,1.770765900611877441e+00,1.770606040954589844e+00,1.770446181297302246e+00,1.770286321640014648e+00,1.770126461982727051e+00,1.769966721534729004e+00,1.769806981086730957e+00,1.769647121429443359e+00,1.769487500190734863e+00,1.769327759742736816e+00,1.769168138504028320e+00,1.769008636474609375e+00,1.768848896026611328e+00,1.768689274787902832e+00,1.768529891967773438e+00,1.768370389938354492e+00,1.768210768699645996e+00,1.768051505088806152e+00,1.767892003059387207e+00,1.767732501029968262e+00,1.767573356628417969e+00,1.767413973808288574e+00,1.767254590988159180e+00,1.767095208168029785e+00,1.766936063766479492e+00,1.766776800155639648e+00,1.766617536544799805e+00,1.766458392143249512e+00,1.766299128532409668e+00,1.766140222549438477e+00,1.765981078147888184e+00,1.765821933746337891e+00,1.765662908554077148e+00,1.765504002571105957e+00,1.765344977378845215e+00,1.765186071395874023e+00
1.607625603675842285e+00,1.607493758201599121e+00,1.607361912727355957e+00,1.607230305671691895e+00,1.607098460197448730e+00,1.606966733932495117e+00,1.606835126876831055e+00,1.606703400611877441e+00,1.606571674346923828e+00,1.606440186500549316e+00,1.606308579444885254e+00,1.606176853179931641e+00,1.606045365333557129e+00,1.605913877487182617e+00,1.605782270431518555e+00,1.605650901794433594e+00,1.605519294738769531e+00,1.605387806892395020e+00,1.605256438255310059e+00,1.605125069618225098e+00,1.604993700981140137e+00,1.604862332344055176e+00,1.604730963706970215e+00,1.604599714279174805e+00,1.604468345642089844e+00,1.604336977005004883e+00,1.604205846786499023e+00,1.604074597358703613e+00,1.603943228721618652e+00,1.603812217712402344e+00,1.603680968284606934e+00,1.603549718856811523e+00,1.603418707847595215e+00,1.603287577629089355e+00,1.603156447410583496e+00,1.603025436401367188e+00,1.602894306182861328e+00,1.602763295173645020e+00,1.602632403373718262e+00,1.602501392364501953e+00,1.602370262145996094e+00,1.602239489555358887e+00,1.602108478546142578e+00,1.601977586746215820e+00,1.601846814155578613e+00,1.601715922355651855e+00,1.601585149765014648e+00,1.601454257965087891e+00,1.601323485374450684e+00,1.601192831993103027e+00,1.601061940193176270e+00,1.600931167602539062e+00,1.600800633430480957e+00,1.600669860839843750e+00,1.600539207458496094e+00,1.600408673286437988e+00,1.600278019905090332e+00,1.600147366523742676e+00,1.600016832351684570e+00,1.599886178970336914e+00,1.599755644798278809e+00,1.599625229835510254e+00,1.599494695663452148e+00,1.599364161491394043e+00,1.599233746528625488e+00,1.599103331565856934e+00,1.598972797393798828e+00,1.598842501640319824e+00,1.598712205886840820e+00,1.598581790924072266e+00,1.598451495170593262e+00,1.598321199417114258e+00,1.598190903663635254e+00,1.598060488700866699e+00,1.597930312156677246e+00,1.597800135612487793e+00,1.597669839859008789e+00,1.597539663314819336e+00,1.597409486770629883e+00,1.597279429435729980e+00
1.467163205146789551e+00,1.467053294181823730e+00,1.466943502426147461e+00,1.466833949089050293e+00,1.466724157333374023e+00,1.466614365577697754e+00,1.466504812240600586e+00,1.466395020484924316e+00,1.466285347938537598e+00,1.466175794601440430e+00,1.466066122055053711e+00,1.465956449508666992e+00,1.465846896171569824e+00,1.465737342834472656e+00,1.465627670288085938e+00,1.465518236160278320e+00,1.465408682823181152e+00,1.465299129486083984e+00,1.465189695358276367e+00,1.465080142021179199e+00,1.464970827102661133e+00,1.464861273765563965e+00,1.464751839637756348e+00,1.464642524719238281e+00,1.464533090591430664e+00,1.464423656463623047e+00,1.464314341545104980e+00,1.464204907417297363e+00,1.464095592498779297e+00,1.463986277580261230e+00,1.463876962661743164e+00,1.463767647743225098e+00,1.463658452033996582e+00,1.463549137115478516e+00,1.463439941406250000e+00,1.463330745697021484e+00,1.463221549987792969e+00,1.463112235069274902e+00,1.463003158569335938e+00,1.462893962860107422e+00,1.462784767150878906e+00,1.462675809860229492e+00,1.462566614151000977e+00,1.462457537651062012e+00,1.462348461151123047e+00,1.462239384651184082e+00,1.462130427360534668e+00,1.462021350860595703e+00,1.461912393569946289e+00,1.461803436279296875e+00,1.461694478988647461e+00,1.461585402488708496e+00,1.461476564407348633e+00,1.461367607116699219e+00,1.461258649826049805e+00,1.461149811744689941e+00,1.461040973663330078e+00,1.460932016372680664e+00,1.460823297500610352e+00,1.460714340209960938e+00,1.460605502128601074e+00,1.460496783256530762e+00,1.460387945175170898e+00,1.460279226303100586e+00,1.460170507431030273e+00,1.460061788558959961e+00,1.459952950477600098e+00,1.459844350814819336e+00,1.459735631942749023e+00,1.459627032279968262e+00,1.459518432617187500e+00,1.459409713745117188e+00,1.459301114082336426e+00,1.459192514419555664e+00,1.459083914756774902e+00,1.458975315093994141e+00,1.458866715431213379e+00,1.458758234977722168e+00,1.458649635314941406e+00,1.458541154861450195e+00
1.349273562431335449e+00,1.349180698394775391e+00,1.349087834358215332e+00,1.348995089530944824e+00,1.348902225494384766e+00,1.348809361457824707e+00,1.348716735839843750e+00,1.348623871803283691e+00,1.348531126976013184e+00,1.348438501358032227e+00,1.348345637321472168e+00,1.348252892494201660e+00,1.348160266876220703e+00,1.348067522048950195e+00,1.347974896430969238e+00,1.347882270812988281e+00,1.347789525985717773e+00,1.347696900367736816e+00,1.347604393959045410e+00,1.347511649131774902e+00,1.347419142723083496e+00,1.347326636314392090e+00,1.347234010696411133e+00,1.347141504287719727e+00,1.347048878669738770e+00,1.346956372261047363e+00,1.346863865852355957e+00,1.346771359443664551e+00,1.346678733825683594e+00,1.346586346626281738e+00,1.346493840217590332e+00,1.346401333808898926e+00,1.346308946609497070e+00,1.346216559410095215e+00,1.346124053001403809e+00,1.346031665802001953e+00,1.345939278602600098e+00,1.345846891403198242e+00,1.345754504203796387e+00,1.345662117004394531e+00,1.345569729804992676e+00,1.345477461814880371e+00,1.345385193824768066e+00,1.345292806625366211e+00,1.345200538635253906e+00,1.345108270645141602e+00,1.345016002655029297e+00,1.344923734664916992e+00,1.344831466674804688e+00,1.344739317893981934e+00,1.344647049903869629e+00,1.344554781913757324e+00,1.344462633132934570e+00,1.344370484352111816e+00,1.344278216361999512e+00,1.344186186790466309e+00,1.344094038009643555e+00,1.344001770019531250e+00,1.343909740447998047e+00,1.343817591667175293e+00,1.343725442886352539e+00,1.343633532524108887e+00,1.343541383743286133e+00,1.343449234962463379e+00,1.343357324600219727e+00,1.343265295028686523e+00,1.343173146247863770e+00,1.343081235885620117e+00,1.342989206314086914e+00,1.342897295951843262e+00,1.342805266380310059e+00,1.342713356018066406e+00,1.342621445655822754e+00,1.342529416084289551e+00,1.342437505722045898e+00,1.342345714569091797e+00,1.342253684997558594e+00,1.342161774635314941e+00,1.342069864273071289e+00,1.341978192329406738e+00
1.248920321464538574e+00,1.248840689659118652e+00,1.248761177062988281e+00,1.248681664466857910e+00,1.248602151870727539e+00,1.248522639274597168e+00,1.248443126678466797e+00,1.248363614082336426e+00,1.248284101486206055e+00,1.248204708099365234e+00,1.248125314712524414e+00,1.248045802116394043e+00,1.247966408729553223e+00,1.247886896133422852e+00,1.247807502746582031e+00,1.247728109359741211e+00,1.247648715972900391e+00,1.247569322586059570e+00,1.247490048408508301e+00,1.247410655021667480e+00,1.247331261634826660e+00,1.247251987457275391e+00,1.247172594070434570e+00,1.247093319892883301e+00,1.247013926506042480e+00,1.246934652328491211e+00,1.246855378150939941e+00,1.246776103973388672e+00,1.246696710586547852e+00,1.246617555618286133e+00,1.246538281440734863e+00,1.246459007263183594e+00,1.246379852294921875e+00,1.246300578117370605e+00,1.246221303939819336e+00,1.246142148971557617e+00,1.246062994003295898e+00,1.245983719825744629e+00,1.245904684066772461e+00,1.245825409889221191e+00,1.245746254920959473e+00,1.245667219161987305e+00,1.245588064193725586e+00,1.245508790016174316e+00,1.245429754257202148e+00,1.245350718498229980e+00,1.245271682739257812e+00,1.245192527770996094e+00,1.245113372802734375e+00,1.245034456253051758e+00,1.244955301284790039e+00,1.244876265525817871e+00,1.244797229766845703e+00,1.244718194007873535e+00,1.244639158248901367e+00,1.244560241699218750e+00,1.244481205940246582e+00,1.244402170181274414e+00,1.244323253631591797e+00,1.244244337081909180e+00,1.244165301322937012e+00,1.244086384773254395e+00,1.244007468223571777e+00,1.243928551673889160e+00,1.243849635124206543e+00,1.243770718574523926e+00,1.243691802024841309e+00,1.243613004684448242e+00,1.243534088134765625e+00,1.243455290794372559e+00,1.243376374244689941e+00,1.243297576904296875e+00,1.243218779563903809e+00,1.243139863014221191e+00,1.243061065673828125e+00,1.242982387542724609e+00,1.242903470993041992e+00,1.242824673652648926e+00,1.242745995521545410e+00,1.242667198181152344e+00
1.162461400032043457e+00,1.162392377853393555e+00,1.162323474884033203e+00,1.162254571914672852e+00,1.162185668945312500e+00,1.162116765975952148e+00,1.162047982215881348e+00,1.161979079246520996e+00,1.161910176277160645e+00,1.161841392517089844e+00,1.161772489547729492e+00,1.161703705787658691e+00,1.161634922027587891e+00,1.161566019058227539e+00,1.161497235298156738e+00,1.161428451538085938e+00,1.161359667778015137e+00,1.161290884017944336e+00,1.161222100257873535e+00,1.161153316497802734e+00,1.161084651947021484e+00,1.161015868186950684e+00,1.160947084426879883e+00,1.160878419876098633e+00,1.160809636116027832e+00,1.160740852355957031e+00,1.160672187805175781e+00,1.160603523254394531e+00,1.160534739494323730e+00,1.160466074943542480e+00,1.160397410392761230e+00,1.160328745841979980e+00,1.160260081291198730e+00,1.160191416740417480e+00,1.160122752189636230e+00,1.160054206848144531e+00,1.159985542297363281e+00,1.159916877746582031e+00,1.159848332405090332e+00,1.159779667854309082e+00,1.159711003303527832e+00,1.159642457962036133e+00,1.159573912620544434e+00,1.159505248069763184e+00,1.159436821937561035e+00,1.159368157386779785e+00,1.159299731254577637e+00,1.159231066703796387e+00,1.159162521362304688e+00,1.159094095230102539e+00,1.159025549888610840e+00,1.158957004547119141e+00,1.158888578414916992e+00,1.158820033073425293e+00,1.158751487731933594e+00,1.158683061599731445e+00,1.158614635467529297e+00,1.158546090126037598e+00,1.158477663993835449e+00,1.158409237861633301e+00,1.158340811729431152e+00,1.158272385597229004e+00,1.158203959465026855e+00,1.158135533332824707e+00,1.158067226409912109e+00,1.157998800277709961e+00,1.157930374145507812e+00,1.157862067222595215e+00,1.157793641090393066e+00,1.157725334167480469e+00,1.157656908035278320e+00,1.157588601112365723e+00,1.157520294189453125e+00,1.157451987266540527e+00,1.157383561134338379e+00,1.157315373420715332e+00,1.157246947288513184e+00,1.157178640365600586e+00,1.157110452651977539e+00,1.157042145729064941e+00
1.087197899818420410e+00,1.087137579917907715e+00,1.087077260017395020e+00,1.087017059326171875e+00,1.086956739425659180e+00,1.086896538734436035e+00,1.086836338043212891e+00,1.086776018142700195e+00,1.086715817451477051e+00,1.086655616760253906e+00,1.086595416069030762e+00,1.086535096168518066e+00,1.086475014686584473e+00,1.086414694786071777e+00,1.086354494094848633e+00,1.086294412612915039e+00,1.086234211921691895e+00,1.086174011230468750e+00,1.086113810539245605e+00,1.086053729057312012e+00,1.085993528366088867e+00,1.085933446884155273e+00,1.085873246192932129e+00,1.085813164710998535e+00,1.085752964019775391e+00,1.085692882537841797e+00,1.085632801055908203e+00,1.085572719573974609e+00,1.085512518882751465e+00,1.085452556610107422e+00,1.085392355918884277e+00,1.085332274436950684e+00,1.085272312164306641e+00,1.085212230682373047e+00,1.085152149200439453e+00,1.085092067718505859e+00,1.085031986236572266e+00,1.084971904754638672e+00,1.084911942481994629e+00,1.084851980209350586e+00,1.084791898727416992e+00,1.084731936454772949e+00,1.084671854972839355e+00,1.084611773490905762e+00,1.084551930427551270e+00,1.084491848945617676e+00,1.084431886672973633e+00,1.084371924400329590e+00,1.084311962127685547e+00,1.084251999855041504e+00,1.084192037582397461e+00,1.084132075309753418e+00,1.084072232246398926e+00,1.084012269973754883e+00,1.083952307701110840e+00,1.083892464637756348e+00,1.083832502365112305e+00,1.083772540092468262e+00,1.083712697029113770e+00,1.083652734756469727e+00,1.083592891693115234e+00,1.083533048629760742e+00,1.083473086357116699e+00,1.083413243293762207e+00,1.083353400230407715e+00,1.083293557167053223e+00,1.083233714103698730e+00,1.083173871040344238e+00,1.083114027976989746e+00,1.083054304122924805e+00,1.082994341850280762e+00,1.082934617996215820e+00,1.082874774932861328e+00,1.082814931869506836e+00,1.082755208015441895e+00,1.082695364952087402e+00,1.082635641098022461e+00,1.082575798034667969e+00,1.082516074180603027e+00,1.082456350326538086e+00
1.021087646484375000e+00,1.021034479141235352e+00,1.020981311798095703e+00,1.020928144454956055e+00,1.020874977111816406e+00,1.020821809768676758e+00,1.020768761634826660e+00,1.020715594291687012e+00,1.020662426948547363e+00,1.020609378814697266e+00,1.020556211471557617e+00,1.020503044128417969e+00,1.020449995994567871e+00,1.020396828651428223e+00,1.020343780517578125e+00,1.020290732383728027e+00,1.020237565040588379e+00,1.020184516906738281e+00,1.020131468772888184e+00,1.020078301429748535e+00,1.020025253295898438e+00,1.019972205162048340e+00,1.019919157028198242e+00,1.019866108894348145e+00,1.019813060760498047e+00,1.019760012626647949e+00,1.019706964492797852e+00,1.019653916358947754e+00,1.019600987434387207e+00,1.019547939300537109e+00,1.019494891166687012e+00,1.019441843032836914e+00,1.019388914108276367e+00,1.019335865974426270e+00,1.019282937049865723e+00,1.019230008125305176e+00,1.019176959991455078e+00,1.019123911857604980e+00,1.019071102142333984e+00,1.019018054008483887e+00,1.018965125083923340e+00,1.018912196159362793e+00,1.018859148025512695e+00,1.018806219100952148e+00,1.018753409385681152e+00,1.018700361251831055e+00,1.018647551536560059e+00,1.018594622611999512e+00,1.018541693687438965e+00,1.018488764762878418e+00,1.018435835838317871e+00,1.018382906913757324e+00,1.018330097198486328e+00,1.018277168273925781e+00,1.018224239349365234e+00,1.018171429634094238e+00,1.018118500709533691e+00,1.018065690994262695e+00,1.018012881278991699e+00,1.017959952354431152e+00,1.017907142639160156e+00,1.017854332923889160e+00,1.017801403999328613e+00,1.017748594284057617e+00,1.017695784568786621e+00,1.017642974853515625e+00,1.017590165138244629e+00,1.017537355422973633e+00,1.017484545707702637e+00,1.017431855201721191e+00,1.017379045486450195e+00,1.017326235771179199e+00,1.017273426055908203e+00,1.017220616340637207e+00,1.017167806625366211e+00,1.017115116119384766e+00,1.017062306404113770e+00,1.017009615898132324e+00,1.016956806182861328e+00,1.016904115676879883e+00
9.625566601753234863e-01,9.625093936920166016e-01,9.624621272087097168e-01,9.624149799346923828e-01,9.623677134513854980e-01,9.623204469680786133e-01,9.622731804847717285e-01,9.622259736061096191e-01,9.621787071228027344e-01,9.621316194534301758e-01,9.620843529701232910e-01,9.620371460914611816e-01,9.619899392127990723e-01,9.619427323341369629e-01,9.618955254554748535e-01,9.618484377861022949e-01,9.618012309074401855e-01,9.617540240287780762e-01,9.617068171501159668e-01,9.616596698760986328e-01,9.616125822067260742e-01,9.615654349327087402e-01,9.615182280540466309e-01,9.614710807800292969e-01,9.614239335060119629e-01,9.613767266273498535e-01,9.613296985626220703e-01,9.612825512886047363e-01,9.612354040145874023e-01,9.611882567405700684e-01,9.611411094665527344e-01,9.610940217971801758e-01,9.610469937324523926e-01,9.609998464584350586e-01,9.609527587890625000e-01,9.609056115150451660e-01,9.608585238456726074e-01,9.608114361763000488e-01,9.607644081115722656e-01,9.607173204421997070e-01,9.606702327728271484e-01,9.606231451034545898e-01,9.605761170387268066e-01,9.605290293693542480e-01,9.604820609092712402e-01,9.604349732398986816e-01,9.603879451751708984e-01,9.603408575057983398e-01,9.602938294410705566e-01,9.602468609809875488e-01,9.601998329162597656e-01,9.601528048515319824e-01,9.601057767868041992e-01,9.600587487220764160e-01,9.600117206573486328e-01,9.599648118019104004e-01,9.599177837371826172e-01,9.598707556724548340e-01,9.598237276077270508e-01,9.597767591476440430e-01,9.597297310829162598e-01,9.596828818321228027e-01,9.596359133720397949e-01,9.595888853073120117e-01,9.595419168472290039e-01,9.594949483871459961e-01,9.594479799270629883e-01,9.594011306762695312e-01,9.593541622161865234e-01,9.593071937561035156e-01,9.592602252960205078e-01,9.592133164405822754e-01,9.591664671897888184e-01,9.591195583343505859e-01,9.590725898742675781e-01,9.590256810188293457e-01,9.589787721633911133e-01,9.589318037033081055e-01,9.588850140571594238e-01,9.588381052017211914e-01
