3.794366836547851562e+00,3.753504514694213867e+00,3.713513135910034180e+00,3.674364566802978516e+00,3.636033058166503906e+00,3.598492622375488281e+00,3.561719894409179688e+00,3.525691270828247070e+00,3.490383386611938477e+00,3.455776453018188477e+00,3.421848535537719727e+00,3.388580799102783203e+00,3.355953693389892578e+00,3.323948383331298828e+00,3.292548179626464844e+00,3.261735439300537109e+00,3.231494426727294922e+00,3.201808929443359375e+00,3.172663450241088867e+00,3.144044160842895508e+00,3.115936517715454102e+00,3.088326930999755859e+00,3.061202526092529297e+00,3.034550189971923828e+00,3.008358240127563477e+00,2.982614040374755859e+00,2.957307100296020508e+00,2.932426214218139648e+00,2.907959938049316406e+00,2.883898973464965820e+00,2.860232591629028320e+00,2.836951732635498047e+00,2.814046621322631836e+00,2.791508436203002930e+00,2.769328594207763672e+00,2.747498273849487305e+00,2.726009607315063477e+00,2.704854249954223633e+00,2.684024810791015625e+00,2.663513660430908203e+00,2.643313646316528320e+00,2.623417854309082031e+00,7.449203729629516602e-01,6.909996271133422852e-01,6.852203011512756348e-01,6.795007586479187012e-01,6.727351546287536621e-01,6.668618321418762207e-01,6.626757383346557617e-01,6.578689217567443848e-01,6.528103351593017578e-01,6.508588790893554688e-01,6.545510888099670410e-01,6.592264771461486816e-01,6.673777103424072266e-01,7.768934965133666992e-01,7.677925229072570801e-01,7.589023709297180176e-01,7.502157092094421387e-01,7.419687509536743164e-01,7.347759008407592773e-01,7.313660383224487305e-01,7.312850952148437500e-01,7.312331795692443848e-01,7.311812043190002441e-01,7.311292886734008789e-01,7.310774326324462891e-01,2.194045782089233398e+00,2.180320978164672852e+00,2.166766405105590820e+00,2.153379678726196289e+00,2.140157222747802734e+00,2.127096176147460938e+00,2.114193439483642578e+00,2.101446390151977539e+00,2.088852167129516602e+00,2.076407670974731445e+00,2.064110755920410156e+00,2.051958799362182617e+00,2.039948940277099609e+00
3.794368505477905273e+00,3.753506183624267578e+00,3.713514804840087891e+00,3.674365997314453125e+00,3.636034488677978516e+00,3.598494291305541992e+00,3.561721324920654297e+00,3.525692701339721680e+00,3.490384817123413086e+00,3.455777883529663086e+00,3.421849966049194336e+00,3.388582229614257812e+00,3.355954885482788086e+00,3.323949813842773438e+00,3.292549610137939453e+00,3.261737108230590820e+00,3.231495618820190430e+00,3.201810121536254883e+00,3.172664642333984375e+00,3.144045352935791016e+00,3.115937948226928711e+00,3.088328123092651367e+00,3.061203718185424805e+00,3.034551143646240234e+00,3.008359193801879883e+00,2.982615470886230469e+00,2.957308292388916016e+00,2.932427167892456055e+00,2.907960891723632812e+00,2.883899927139282227e+00,2.860233783721923828e+00,2.836952686309814453e+00,2.814047574996948242e+00,2.791509389877319336e+00,2.769329547882080078e+00,2.747499465942382812e+00,2.726010322570800781e+00,2.704855203628540039e+00,2.684025764465332031e+00,2.663514852523803711e+00,2.643314599990844727e+00,2.623418807983398438e+00,2.603820323944091797e+00,6.925801634788513184e-01,6.867745518684387207e-01,6.810653209686279297e-01,6.748531460762023926e-01,6.685897111892700195e-01,6.643819808959960938e-01,6.593349575996398926e-01,6.542538404464721680e-01,6.520320177078247070e-01,6.557375788688659668e-01,6.594855189323425293e-01,6.674889326095581055e-01,7.805007696151733398e-01,7.713156342506408691e-01,7.623441815376281738e-01,7.535789608955383301e-01,7.450130581855773926e-01,7.366396784782409668e-01,7.301356792449951172e-01,7.300508022308349609e-01,7.299188971519470215e-01,7.297869324684143066e-01,7.296550273895263672e-01,7.299491763114929199e-01,7.640126347541809082e-01,2.180321931838989258e+00,2.166767358779907227e+00,2.153380632400512695e+00,2.140158176422119141e+00,2.127096891403198242e+00,2.114194154739379883e+00,2.101447343826293945e+00,2.088852882385253906e+00,2.076408386230468750e+00,2.064111709594726562e+00,2.051959753036499023e+00,2.039949893951416016e+00
3.794370651245117188e+00,3.753507852554321289e+00,3.713516473770141602e+00,3.674367666244506836e+00,3.636036157608032227e+00,3.598496198654174805e+00,3.561722755432128906e+00,3.525694131851196289e+00,3.490386486053466797e+00,3.455779314041137695e+00,3.421851873397827148e+00,3.388583660125732422e+00,3.355956315994262695e+00,3.323951005935668945e+00,3.292550802230834961e+00,3.261738300323486328e+00,3.231497287750244141e+00,3.201811313629150391e+00,3.172666311264038086e+00,3.144046783447265625e+00,3.115939378738403320e+00,3.088329553604125977e+00,3.061205148696899414e+00,3.034552812576293945e+00,3.008360862731933594e+00,2.982616662979125977e+00,2.957309722900390625e+00,2.932428598403930664e+00,2.907962560653686523e+00,2.883901357650756836e+00,2.860235214233398438e+00,2.836954355239868164e+00,2.814049005508422852e+00,2.791511058807373047e+00,2.769331216812133789e+00,2.747500658035278320e+00,2.726011991500854492e+00,2.704856872558593750e+00,2.684027433395385742e+00,2.663516044616699219e+00,2.643316030502319336e+00,2.623420238494873047e+00,2.603821754455566406e+00,6.941680908203125000e-01,6.883357763290405273e-01,6.826007962226867676e-01,6.769604682922363281e-01,6.703265905380249023e-01,6.659912467002868652e-01,6.608074903488159180e-01,6.557037830352783203e-01,6.532093882560729980e-01,6.569283604621887207e-01,6.606899499893188477e-01,6.676000952720642090e-01,7.896063923835754395e-01,7.748712301254272461e-01,7.658173441886901855e-01,7.569725513458251953e-01,7.483297586441040039e-01,7.396605610847473145e-01,7.305234670639038086e-01,7.281877994537353516e-01,7.280564308166503906e-01,7.282570600509643555e-01,7.286550998687744141e-01,7.290534973144531250e-01,7.506676912307739258e-01,2.180322885513305664e+00,2.166768312454223633e+00,2.153381586074829102e+00,2.140159130096435547e+00,2.127097845077514648e+00,2.114195108413696289e+00,2.101448059082031250e+00,2.088853836059570312e+00,2.076409339904785156e+00,2.064112663269042969e+00,2.051960468292236328e+00,2.039950609207153320e+00
3.794372797012329102e+00,3.753510475158691406e+00,3.713518381118774414e+00,3.674370050430297852e+00,3.636038541793823242e+00,3.598498344421386719e+00,3.561725139617919922e+00,3.525696277618408203e+00,3.490388870239257812e+00,3.455781459808349609e+00,3.421853780746459961e+00,3.388586044311523438e+00,3.355958700180053711e+00,3.323953390121459961e+00,3.292553186416625977e+00,3.261740684509277344e+00,3.231499433517456055e+00,3.201813459396362305e+00,3.172668218612670898e+00,3.144048929214477539e+00,3.115941047668457031e+00,3.088331460952758789e+00,3.061207056045532227e+00,3.034554719924926758e+00,3.008362531661987305e+00,2.982618570327758789e+00,2.957311630249023438e+00,2.932430505752563477e+00,2.907964229583740234e+00,2.883903264999389648e+00,2.860236883163452148e+00,2.836955785751342773e+00,2.814050674438476562e+00,2.791512727737426758e+00,2.769332885742187500e+00,2.747502326965332031e+00,2.726013422012329102e+00,2.704858303070068359e+00,2.684028863906860352e+00,2.663517475128173828e+00,2.643317699432373047e+00,2.623421669006347656e+00,2.603822946548461914e+00,7.055711150169372559e-01,6.899042129516601562e-01,6.841430664062500000e-01,6.784774661064147949e-01,6.723711490631103516e-01,6.674937605857849121e-01,6.622866392135620117e-01,6.571601033210754395e-01,6.543909907341003418e-01,6.581234931945800781e-01,6.618988513946533203e-01,6.677113771438598633e-01,8.023647665977478027e-01,7.784597277641296387e-01,7.693222165107727051e-01,7.603968381881713867e-01,7.512683272361755371e-01,7.418439984321594238e-01,7.326532602310180664e-01,7.267277240753173828e-01,7.270705103874206543e-01,7.274136543273925781e-01,7.277626395225524902e-01,7.281600236892700195e-01,7.304193377494812012e-01,2.180323839187622070e+00,2.166769504547119141e+00,2.153382539749145508e+00,2.140160083770751953e+00,2.127098798751831055e+00,2.114196062088012695e+00,2.101449012756347656e+00,2.088854789733886719e+00,2.076410293579101562e+00,2.064113378524780273e+00,2.051961421966552734e+00,2.039951562881469727e+00
3.794375896453857422e+00,3.753513336181640625e+00,3.713521242141723633e+00,3.674372911453247070e+00,3.636041164398193359e+00,3.598500728607177734e+00,3.561727762222290039e+00,3.525698900222778320e+00,3.490391492843627930e+00,3.455783843994140625e+00,3.421856403350830078e+00,3.388588428497314453e+00,3.355961084365844727e+00,3.323955774307250977e+00,3.292555332183837891e+00,3.261742830276489258e+00,3.231501340866088867e+00,3.201815605163574219e+00,3.172670364379882812e+00,3.144051074981689453e+00,3.115943193435668945e+00,3.088333606719970703e+00,3.061208963394165039e+00,3.034556627273559570e+00,3.008364439010620117e+00,2.982620477676391602e+00,2.957313299179077148e+00,2.932431936264038086e+00,2.907966136932373047e+00,2.883904933929443359e+00,2.860238790512084961e+00,2.836957454681396484e+00,2.814052343368530273e+00,2.791514396667480469e+00,2.769334316253662109e+00,2.747503995895385742e+00,2.726015090942382812e+00,2.704859733581542969e+00,2.684030055999755859e+00,2.663518905639648438e+00,2.643319129943847656e+00,2.623423099517822266e+00,2.603824377059936523e+00,7.222621440887451172e-01,6.915150880813598633e-01,6.856924891471862793e-01,6.800011992454528809e-01,6.744036078453063965e-01,6.690029501914978027e-01,6.637724041938781738e-01,6.586229801177978516e-01,6.555768847465515137e-01,6.593230366706848145e-01,6.631121635437011719e-01,6.678226590156555176e-01,8.213807940483093262e-01,7.840554118156433105e-01,7.728594541549682617e-01,7.632462382316589355e-01,7.534674406051635742e-01,7.436466813087463379e-01,7.329263687133789062e-01,7.284428477287292480e-01,7.287872433662414551e-01,7.291319966316223145e-01,7.292384505271911621e-01,7.292174696922302246e-01,7.369045615196228027e-01,2.180324792861938477e+00,2.166770458221435547e+00,2.153383493423461914e+00,2.140160799026489258e+00,2.127099752426147461e+00,2.114197015762329102e+00,2.101449966430664062e+00,2.088855504989624023e+00,2.076411247253417969e+00,2.064114332199096680e+00,2.051962375640869141e+00,2.039952278137207031e+00
3.794378757476806641e+00,3.753515958786010742e+00,3.713524103164672852e+00,3.674375772476196289e+00,3.636044025421142578e+00,3.598503351211547852e+00,3.561730384826660156e+00,3.525701522827148438e+00,3.490394115447998047e+00,3.455786466598510742e+00,3.421858787536621094e+00,3.388590812683105469e+00,3.355962991714477539e+00,3.323957920074462891e+00,3.292557716369628906e+00,3.261744976043701172e+00,3.231503486633300781e+00,3.201817750930786133e+00,3.172672510147094727e+00,3.144052982330322266e+00,3.115945100784301758e+00,3.088335514068603516e+00,3.061211109161376953e+00,3.034558296203613281e+00,3.008366346359252930e+00,2.982622146606445312e+00,2.957315206527709961e+00,2.932433843612670898e+00,2.907967805862426758e+00,2.883906602859497070e+00,2.860240459442138672e+00,2.836959123611450195e+00,2.814054012298583984e+00,2.791515827178955078e+00,2.769335746765136719e+00,2.747505426406860352e+00,2.726016521453857422e+00,2.704861402511596680e+00,2.684031724929809570e+00,2.663520574569702148e+00,2.643320560455322266e+00,2.623424530029296875e+00,2.603825807571411133e+00,2.584517717361450195e+00,6.941514611244201660e-01,6.875059008598327637e-01,6.817308664321899414e-01,6.760520935058593750e-01,6.706777215003967285e-01,6.654628515243530273e-01,6.602714657783508301e-01,6.581180691719055176e-01,6.611712574958801270e-01,6.646195650100708008e-01,6.681770086288452148e-01,2.373331308364868164e+00,8.009275794029235840e-01,7.754183411598205566e-01,7.652193307876586914e-01,7.541141510009765625e-01,7.430921196937561035e-01,7.323876619338989258e-01,7.300172448158264160e-01,7.299962043762207031e-01,7.299751639366149902e-01,7.299540638923645020e-01,7.299330234527587891e-01,7.454180121421813965e-01,2.180325746536254883e+00,2.166771411895751953e+00,2.153384447097778320e+00,2.140161752700805664e+00,2.127100706100463867e+00,2.114197969436645508e+00,2.101450681686401367e+00,2.088856458663940430e+00,2.076411962509155273e+00,2.064115285873413086e+00,2.051963090896606445e+00,2.039953231811523438e+00
3.794381856918334961e+00,3.753518819808959961e+00,3.713526964187622070e+00,3.674378633499145508e+00,3.636046648025512695e+00,3.598506212234497070e+00,3.561733007431030273e+00,3.525704145431518555e+00,3.490396261215209961e+00,3.455788850784301758e+00,3.421861171722412109e+00,3.388593196868896484e+00,3.355965375900268555e+00,3.323960304260253906e+00,3.292559862136840820e+00,3.261747360229492188e+00,3.231505632400512695e+00,3.201819896697998047e+00,3.172674655914306641e+00,3.144054889678955078e+00,3.115947246551513672e+00,3.088337421417236328e+00,3.061213016510009766e+00,3.034560203552246094e+00,3.008368015289306641e+00,2.982624053955078125e+00,2.957317113876342773e+00,2.932435512542724609e+00,2.907969474792480469e+00,2.883908271789550781e+00,2.860241889953613281e+00,2.836960792541503906e+00,2.814055681228637695e+00,2.791517496109008789e+00,2.769337415695190430e+00,2.747507095336914062e+00,2.726018190383911133e+00,2.704862594604492188e+00,2.684033155441284180e+00,2.663522005081176758e+00,2.643321990966796875e+00,7.493002414703369141e-01,7.128530144691467285e-01,6.998156309127807617e-01,6.946358680725097656e-01,6.902234554290771484e-01,6.835429668426513672e-01,6.778340935707092285e-01,6.724847555160522461e-01,6.671483516693115234e-01,6.618778705596923828e-01,6.613349914550781250e-01,6.634954810142517090e-01,6.669680476188659668e-01,2.389604091644287109e+00,2.373332500457763672e+00,8.195090889930725098e-01,7.763801813125610352e-01,7.646119594573974609e-01,7.531950473785400391e-01,7.416028380393981934e-01,7.327734827995300293e-01,7.326671481132507324e-01,7.325609326362609863e-01,7.324547171592712402e-01,7.323485612869262695e-01,7.324369549751281738e-01,7.541305422782897949e-01,2.180326700210571289e+00,2.166772365570068359e+00,2.153385162353515625e+00,2.140162706375122070e+00,2.127101659774780273e+00,2.114198923110961914e+00,2.101451635360717773e+00,2.088857412338256836e+00,2.076412916183471680e+00,2.064116001129150391e+00,2.051964044570922852e+00,2.039954185485839844e+00
3.794384479522705078e+00,3.753521680831909180e+00,3.713530063629150391e+00,3.674381256103515625e+00,3.636049032211303711e+00,3.598508834838867188e+00,3.561735630035400391e+00,3.525706768035888672e+00,3.490398645401000977e+00,3.455791473388671875e+00,3.421863555908203125e+00,3.388595104217529297e+00,3.355967760086059570e+00,3.323962688446044922e+00,3.292562246322631836e+00,3.261749267578125000e+00,3.231507778167724609e+00,3.201822042465209961e+00,3.172676801681518555e+00,3.144057035446166992e+00,3.115949153900146484e+00,3.088339567184448242e+00,3.061214685440063477e+00,3.034562110900878906e+00,3.008369922637939453e+00,2.982625961303710938e+00,2.957318544387817383e+00,2.932437419891357422e+00,2.907971382141113281e+00,2.883910179138183594e+00,2.860243558883666992e+00,2.836962461471557617e+00,2.814057350158691406e+00,2.791518926620483398e+00,2.769338846206665039e+00,2.747508525848388672e+00,2.726019620895385742e+00,2.704864263534545898e+00,2.684034585952758789e+00,2.663523435592651367e+00,7.174432277679443359e-01,7.086721062660217285e-01,7.025253176689147949e-01,6.977599263191223145e-01,6.929775476455688477e-01,6.881791353225708008e-01,6.838731169700622559e-01,6.796079874038696289e-01,6.741700172424316406e-01,6.687884330749511719e-01,6.634920239448547363e-01,6.645835638046264648e-01,6.658360362052917480e-01,6.693332791328430176e-01,2.389605283737182617e+00,2.373333692550659180e+00,2.357282161712646484e+00,7.748357057571411133e-01,7.625447511672973633e-01,7.506378293037414551e-01,7.390969395637512207e-01,7.358422875404357910e-01,7.357351183891296387e-01,7.356280088424682617e-01,7.355208992958068848e-01,7.344303727149963379e-01,7.416945695877075195e-01,7.666702866554260254e-01,2.180327653884887695e+00,2.166773319244384766e+00,2.153386116027832031e+00,2.140163660049438477e+00,2.127102613449096680e+00,2.114199876785278320e+00,2.101452589035034180e+00,2.088858366012573242e+00,2.076413869857788086e+00,2.064116954803466797e+00,2.051964759826660156e+00,2.039954900741577148e+00
3.794387340545654297e+00,3.753524780273437500e+00,3.713532924652099609e+00,3.674384117126464844e+00,3.636051893234252930e+00,3.598511457443237305e+00,3.561738252639770508e+00,3.525708913803100586e+00,3.490401268005371094e+00,3.455793857574462891e+00,3.421866178512573242e+00,3.388597726821899414e+00,3.355970144271850586e+00,3.323964834213256836e+00,3.292564392089843750e+00,3.261751413345336914e+00,3.231509923934936523e+00,3.201824188232421875e+00,3.172678470611572266e+00,3.144058942794799805e+00,3.115951299667358398e+00,3.088341474533081055e+00,3.061216592788696289e+00,3.034564018249511719e+00,3.008371829986572266e+00,2.982627868652343750e+00,2.957320451736450195e+00,2.932439088821411133e+00,2.907973051071166992e+00,2.883911609649658203e+00,2.860245227813720703e+00,2.836964130401611328e+00,2.814059019088745117e+00,2.791520595550537109e+00,2.769340515136718750e+00,2.747510194778442383e+00,2.726021289825439453e+00,2.704865694046020508e+00,7.290888428688049316e-01,7.200325131416320801e-01,7.111983895301818848e-01,7.051072120666503906e-01,7.003068327903747559e-01,6.955714225769042969e-01,6.908996105194091797e-01,6.862717270851135254e-01,6.818478107452392578e-01,6.775297522544860840e-01,6.732661128044128418e-01,6.692147254943847656e-01,6.667768359184265137e-01,6.678642630577087402e-01,6.690011620521545410e-01,6.717152595520019531e-01,2.389606475830078125e+00,2.373334884643554688e+00,7.841405272483825684e-01,7.721005082130432129e-01,7.598955631256103516e-01,7.480704784393310547e-01,7.390450239181518555e-01,7.389369606971740723e-01,7.388288378715515137e-01,7.387208342552185059e-01,7.373685240745544434e-01,7.396610379219055176e-01,7.539834380149841309e-01,2.194053649902343750e+00,2.180328845977783203e+00,2.166774272918701172e+00,2.153387069702148438e+00,2.140164613723754883e+00,2.127103567123413086e+00,2.114200592041015625e+00,2.101453542709350586e+00,2.088859319686889648e+00,2.076414823532104492e+00,2.064117670059204102e+00,2.051965713500976562e+00,2.039955854415893555e+00
3.794390439987182617e+00,3.753527641296386719e+00,3.713535785675048828e+00,3.674386501312255859e+00,3.636054515838623047e+00,3.598514318466186523e+00,3.561740875244140625e+00,3.525711536407470703e+00,3.490403890609741211e+00,3.455796480178833008e+00,3.421868562698364258e+00,3.388600111007690430e+00,3.355972528457641602e+00,3.323967218399047852e+00,3.292566299438476562e+00,3.261753559112548828e+00,3.231512069702148438e+00,3.201826333999633789e+00,3.172680616378784180e+00,3.144061088562011719e+00,3.115953207015991211e+00,3.088343381881713867e+00,3.061218500137329102e+00,3.034565925598144531e+00,3.008373737335205078e+00,2.982629299163818359e+00,2.957322359085083008e+00,2.932440996170043945e+00,2.907974958419799805e+00,2.883913278579711914e+00,2.860246896743774414e+00,2.836965799331665039e+00,2.814060688018798828e+00,2.791522264480590820e+00,2.769342184066772461e+00,2.747511863708496094e+00,7.417596578598022461e-01,7.317630052566528320e-01,7.226406335830688477e-01,7.137427926063537598e-01,7.077081203460693359e-01,7.028723955154418945e-01,6.981023550033569336e-01,6.933966279029846191e-01,6.891798377037048340e-01,6.858412027359008789e-01,6.825347542762756348e-01,6.789335012435913086e-01,6.751518845558166504e-01,6.719322204589843750e-01,6.712347865104675293e-01,6.719113588333129883e-01,6.725893020629882812e-01,7.027950286865234375e-01,2.389607667922973633e+00,2.373335838317871094e+00,7.811888456344604492e-01,7.693845629692077637e-01,7.572646141052246094e-01,7.455207109451293945e-01,7.421666979789733887e-01,7.420577406883239746e-01,7.419487833976745605e-01,7.403302192687988281e-01,7.394013404846191406e-01,7.472940087318420410e-01,7.666863203048706055e-01,2.194054841995239258e+00,2.180329799652099609e+00,2.166775226593017578e+00,2.153388261795043945e+00,2.140165567398071289e+00,2.127104520797729492e+00,2.114201545715332031e+00,2.101454496383666992e+00,2.088860034942626953e+00,2.076415538787841797e+00,2.064118623733520508e+00,2.051966667175292969e+00,2.039956808090209961e+00
3.794393539428710938e+00,3.753530740737915039e+00,3.713538646697998047e+00,3.674389362335205078e+00,3.636057376861572266e+00,3.598516941070556641e+00,3.561743497848510742e+00,3.525714159011840820e+00,3.490406274795532227e+00,3.455798864364624023e+00,3.421870708465576172e+00,3.388602495193481445e+00,3.355974674224853516e+00,3.323969602584838867e+00,3.292568683624267578e+00,3.261755704879760742e+00,3.231514215469360352e+00,3.201828479766845703e+00,3.172682762145996094e+00,3.144062995910644531e+00,3.115955352783203125e+00,3.088345050811767578e+00,3.061220407485961914e+00,3.034567832946777344e+00,3.008375644683837891e+00,2.982631206512451172e+00,2.957324028015136719e+00,2.932442665100097656e+00,2.907976627349853516e+00,2.883914947509765625e+00,2.860248804092407227e+00,2.836967468261718750e+00,2.814062118530273438e+00,2.791523694992065430e+00,2.769343852996826172e+00,7.498692274093627930e-01,7.363317012786865234e-01,7.252676486968994141e-01,7.163053750991821289e-01,7.103283405303955078e-01,7.054568529129028320e-01,7.008401155471801758e-01,6.973877549171447754e-01,6.939693689346313477e-01,6.905842423439025879e-01,6.872320175170898438e-01,6.839120984077453613e-01,6.806241869926452637e-01,6.775131225585937500e-01,6.767069101333618164e-01,6.759665012359619141e-01,6.764383912086486816e-01,6.771255135536193848e-01,2.406105279922485352e+00,2.389608860015869141e+00,8.220613002777099609e-01,7.782592773437500000e-01,7.666876316070556641e-01,7.546519041061401367e-01,7.454249262809753418e-01,7.453148961067199707e-01,7.452049851417541504e-01,7.433158755302429199e-01,7.414084076881408691e-01,7.470290064811706543e-01,7.550861835479736328e-01,2.207954645156860352e+00,2.194055795669555664e+00,2.180330753326416016e+00,2.166776180267333984e+00,2.153389215469360352e+00,2.140166521072387695e+00,2.127105236053466797e+00,2.114202499389648438e+00,2.101455450057983398e+00,2.088860988616943359e+00,2.076416492462158203e+00,2.064119577407836914e+00,2.051967382431030273e+00,2.039957523345947266e+00
3.794396400451660156e+00,3.753533601760864258e+00,3.713541030883789062e+00,3.674392223358154297e+00,3.636060237884521484e+00,3.598519563674926758e+00,3.561745882034301758e+00,3.525716781616210938e+00,3.490408897399902344e+00,3.455801486968994141e+00,3.421873092651367188e+00,3.388604879379272461e+00,3.355977058410644531e+00,3.323971509933471680e+00,3.292570829391479492e+00,3.261758089065551758e+00,3.231516599655151367e+00,3.201830387115478516e+00,3.172684907913208008e+00,3.144065141677856445e+00,3.115957260131835938e+00,3.088347196578979492e+00,3.061222553253173828e+00,3.034569978713989258e+00,3.008377313613891602e+00,2.982633113861083984e+00,2.957325935363769531e+00,2.932444572448730469e+00,2.907978057861328125e+00,2.883916854858398438e+00,2.860250473022460938e+00,2.836969137191772461e+00,2.814063787460327148e+00,2.791525363922119141e+00,7.578767538070678711e-01,7.451509833335876465e-01,7.309826016426086426e-01,7.188864946365356445e-01,7.129679918289184570e-01,7.093297243118286133e-01,7.057936191558837891e-01,7.026179432868957520e-01,6.995624899864196777e-01,6.965335011482238770e-01,6.935306191444396973e-01,6.905535459518432617e-01,6.876018643379211426e-01,6.879236698150634766e-01,6.851579546928405762e-01,6.822082996368408203e-01,6.807988286018371582e-01,6.810268759727478027e-01,2.422832250595092773e+00,2.406106472015380859e+00,2.389610052108764648e+00,7.867423295974731445e-01,7.753517627716064453e-01,7.640095949172973633e-01,7.520570755004882812e-01,7.486008405685424805e-01,7.482584714889526367e-01,7.463256716728210449e-01,7.444027662277221680e-01,7.467641234397888184e-01,7.548155784606933594e-01,7.667023539543151855e-01,2.207955837249755859e+00,2.194056749343872070e+00,2.180331468582153320e+00,2.166777133941650391e+00,2.153390169143676758e+00,2.140167474746704102e+00,2.127106189727783203e+00,2.114203453063964844e+00,2.101456403732299805e+00,2.088861942291259766e+00,2.076417207717895508e+00,2.064120531082153320e+00,2.051968336105346680e+00,2.039958238601684570e+00
3.794399499893188477e+00,3.753536462783813477e+00,3.713543891906738281e+00,3.674395084381103516e+00,3.636062860488891602e+00,3.598522424697875977e+00,3.561748504638671875e+00,3.525719404220581055e+00,3.490411520004272461e+00,3.455803632736206055e+00,3.421875476837158203e+00,3.388607263565063477e+00,3.355979442596435547e+00,3.323973894119262695e+00,3.292573213577270508e+00,3.261760234832763672e+00,3.231518745422363281e+00,3.201832532882690430e+00,3.172686815261840820e+00,3.144067287445068359e+00,3.115958929061889648e+00,3.088349103927612305e+00,3.061224460601806641e+00,3.034571886062622070e+00,3.008379220962524414e+00,2.982635021209716797e+00,2.957327842712402344e+00,2.932446479797363281e+00,2.907979965209960938e+00,2.883918523788452148e+00,2.860252141952514648e+00,2.836970567703247070e+00,2.814065456390380859e+00,7.660570740699768066e-01,7.540910243988037109e-01,7.396734356880187988e-01,7.257106304168701172e-01,7.199304699897766113e-01,7.167378664016723633e-01,7.135586142539978027e-01,7.104075551033020020e-01,7.072841525077819824e-01,7.041880488395690918e-01,7.011189460754394531e-01,6.980764865875244141e-01,6.979097723960876465e-01,6.985781788825988770e-01,6.960209012031555176e-01,6.929772496223449707e-01,6.899600625038146973e-01,6.869689822196960449e-01,2.439793109893798828e+00,2.422833442687988281e+00,2.406107425689697266e+00,2.389611244201660156e+00,7.837710976600646973e-01,7.724657654762268066e-01,7.613501548767089844e-01,7.519158720970153809e-01,7.513085007667541504e-01,7.493598461151123047e-01,7.474214434623718262e-01,7.464994192123413086e-01,7.545451521873474121e-01,7.627661824226379395e-01,2.222033023834228516e+00,2.207956790924072266e+00,2.194057703018188477e+00,2.180332660675048828e+00,2.166778087615966797e+00,2.153391122817993164e+00,2.140168428421020508e+00,2.127107143402099609e+00,2.114204406738281250e+00,2.101457357406616211e+00,2.088862657546997070e+00,2.076418161392211914e+00,2.064121246337890625e+00,2.051969289779663086e+00,2.039959192276000977e+00
3.794402360916137695e+00,3.753539323806762695e+00,3.713546752929687500e+00,3.674397945404052734e+00,3.636065721511840820e+00,3.598524570465087891e+00,3.561751127243041992e+00,3.525721788406372070e+00,3.490413904190063477e+00,3.455806016921997070e+00,3.421877861022949219e+00,3.388609647750854492e+00,3.355981826782226562e+00,3.323976039886474609e+00,3.292575359344482422e+00,3.261762380599975586e+00,3.231520652770996094e+00,3.201834678649902344e+00,3.172688961029052734e+00,3.144069194793701172e+00,3.115961074829101562e+00,3.088351249694824219e+00,3.061226367950439453e+00,3.034573793411254883e+00,3.008381128311157227e+00,2.982636928558349609e+00,2.957329511642456055e+00,2.932447910308837891e+00,2.907981634140014648e+00,2.883920192718505859e+00,2.860253810882568359e+00,2.836972236633300781e+00,7.744158506393432617e-01,7.621893286705017090e-01,7.485734224319458008e-01,7.342758774757385254e-01,7.280246019363403320e-01,7.247857451438903809e-01,7.215756177902221680e-01,7.183717489242553711e-01,7.151781916618347168e-01,7.120127081871032715e-01,7.088751792907714844e-01,7.081900238990783691e-01,7.088783383369445801e-01,7.095679640769958496e-01,7.072339057922363281e-01,7.040915489196777344e-01,7.009770274162292480e-01,2.474436521530151367e+00,2.456993341445922852e+00,2.439794540405273438e+00,2.422834634780883789e+00,2.406108617782592773e+00,8.168537020683288574e-01,7.808222770690917969e-01,7.696011662483215332e-01,7.586980462074279785e-01,7.543834447860717773e-01,7.524189352989196777e-01,7.504646182060241699e-01,7.485204339027404785e-01,7.542749643325805664e-01,7.624900937080383301e-01,7.708861231803894043e-01,2.222034215927124023e+00,2.207957744598388672e+00,2.194058656692504883e+00,2.180333614349365234e+00,2.166779041290283203e+00,2.153392076492309570e+00,2.140169382095336914e+00,2.127108097076416016e+00,2.114205360412597656e+00,2.101458072662353516e+00,2.088863611221313477e+00,2.076419115066528320e+00,2.064122200012207031e+00,2.051970005035400391e+00,2.039960145950317383e+00
3.794405460357666016e+00,3.753541946411132812e+00,3.713549613952636719e+00,3.674400568008422852e+00,3.636068344116210938e+00,3.598527431488037109e+00,3.561753749847412109e+00,3.525724411010742188e+00,3.490416526794433594e+00,3.455808401107788086e+00,3.421880483627319336e+00,3.388612031936645508e+00,3.355983734130859375e+00,3.323978424072265625e+00,3.292577743530273438e+00,3.261764764785766602e+00,3.231522798538208008e+00,3.201836824417114258e+00,3.172691106796264648e+00,3.144071340560913086e+00,3.115962982177734375e+00,3.088353157043457031e+00,3.061228275299072266e+00,3.034575462341308594e+00,3.008383035659790039e+00,2.982638597488403320e+00,2.957331418991088867e+00,2.932449579238891602e+00,2.907983303070068359e+00,2.883922100067138672e+00,2.860255479812622070e+00,7.829591035842895508e-01,7.704635262489318848e-01,7.576901912689208984e-01,7.430456876754760742e-01,7.363027334213256836e-01,7.329900264739990234e-01,7.297069430351257324e-01,7.264531850814819336e-01,7.232282161712646484e-01,7.200132608413696289e-01,7.187776565551757812e-01,7.194867134094238281e-01,7.201971411705017090e-01,7.209090590476989746e-01,7.188140153884887695e-01,7.155682444572448730e-01,2.510078191757202148e+00,2.492130756378173828e+00,2.474437952041625977e+00,2.456994771957397461e+00,2.439795732498168945e+00,2.422835826873779297e+00,2.406109809875488281e+00,7.902073264122009277e-01,7.789272069931030273e-01,7.679644823074340820e-01,7.573061585426330566e-01,7.545371055603027344e-01,7.524449825286865234e-01,7.503644227981567383e-01,7.484279274940490723e-01,7.588599920272827148e-01,7.706040740013122559e-01,7.798577547073364258e-01,2.222035169601440430e+00,2.207958936691284180e+00,2.194059610366821289e+00,2.180334568023681641e+00,2.166779994964599609e+00,2.153393030166625977e+00,2.140170335769653320e+00,2.127109050750732422e+00,2.114206314086914062e+00,2.101459026336669922e+00,2.088864564895629883e+00,2.076420068740844727e+00,2.064123153686523438e+00,2.051970958709716797e+00,2.039960861206054688e+00
3.794408321380615234e+00,3.753544807434082031e+00,3.713552474975585938e+00,3.674403429031372070e+00,3.636070728302001953e+00,3.598530054092407227e+00,3.561756372451782227e+00,3.525727033615112305e+00,3.490418672561645508e+00,3.455811023712158203e+00,3.421882867813110352e+00,3.388614416122436523e+00,3.355986118316650391e+00,3.323980808258056641e+00,3.292579889297485352e+00,3.261766672134399414e+00,3.231524944305419922e+00,3.201838970184326172e+00,3.172693252563476562e+00,3.144073009490966797e+00,3.115965127944946289e+00,3.088355064392089844e+00,3.061230182647705078e+00,3.034577369689941406e+00,3.008384943008422852e+00,2.982640504837036133e+00,2.957332849502563477e+00,2.932451486587524414e+00,2.907985210418701172e+00,2.883923768997192383e+00,7.916929125785827637e-01,7.789192795753479004e-01,7.665513157844543457e-01,7.520274519920349121e-01,7.447712421417236328e-01,7.413820624351501465e-01,7.380235195159912109e-01,7.346953749656677246e-01,7.313970923423767090e-01,7.282034158706665039e-01,7.288643717765808105e-01,7.311496734619140625e-01,7.318834066390991211e-01,7.326185107231140137e-01,7.307797670364379883e-01,2.546761512756347656e+00,2.528287410736083984e+00,2.510079622268676758e+00,2.492131948471069336e+00,2.474439144134521484e+00,2.456995964050292969e+00,2.439796924591064453e+00,2.422837018966674805e+00,2.406111001968383789e+00,7.900134921073913574e-01,7.787250280380249023e-01,7.677680253982543945e-01,7.571150064468383789e-01,7.540881633758544922e-01,7.519985437393188477e-01,7.499203681945800781e-01,7.482514381408691406e-01,7.596880197525024414e-01,7.714707851409912109e-01,2.236293077468872070e+00,2.222036123275756836e+00,2.207959890365600586e+00,2.194060564041137695e+00,2.180335521697998047e+00,2.166780948638916016e+00,2.153393745422363281e+00,2.140171289443969727e+00,2.127110004425048828e+00,2.114207267761230469e+00,2.101459980010986328e+00,2.088865518569946289e+00,2.076421022415161133e+00,2.064123868942260742e+00,2.051971673965454102e+00,2.039961814880371094e+00
3.794410943984985352e+00,3.753547906875610352e+00,3.713555335998535156e+00,3.674406290054321289e+00,3.636073589324951172e+00,3.598532676696777344e+00,3.561758995056152344e+00,3.525729656219482422e+00,3.490421295166015625e+00,3.455813407897949219e+00,3.421885251998901367e+00,3.388616323471069336e+00,3.355988502502441406e+00,3.323982954025268555e+00,3.292582273483276367e+00,3.261768817901611328e+00,3.231527090072631836e+00,3.201841115951538086e+00,3.172695398330688477e+00,3.144075155258178711e+00,3.115967035293579102e+00,3.088357210159301758e+00,3.061231851577758789e+00,3.034579277038574219e+00,3.008386611938476562e+00,2.982642412185668945e+00,2.957334756851196289e+00,2.932453393936157227e+00,2.907986879348754883e+00,8.026314973831176758e-01,7.875627279281616211e-01,7.749210596084594727e-01,7.612290978431701660e-01,7.534368634223937988e-01,7.499685287475585938e-01,7.465319633483886719e-01,7.431392669677734375e-01,7.398717999458312988e-01,7.366328835487365723e-01,7.360321879386901855e-01,7.388807535171508789e-01,7.417514324188232422e-01,7.446445822715759277e-01,2.584532976150512695e+00,2.565508604049682617e+00,2.546762704849243164e+00,2.528288841247558594e+00,2.510081052780151367e+00,2.492133140563964844e+00,2.474440336227416992e+00,2.456997156143188477e+00,2.439798116683959961e+00,2.422838211059570312e+00,2.406112432479858398e+00,7.898223996162414551e-01,7.785229682922363281e-01,7.675715684890747070e-01,7.569240927696228027e-01,7.536396980285644531e-01,7.515525221824645996e-01,7.494768500328063965e-01,7.480751276016235352e-01,7.605177164077758789e-01,7.723264694213867188e-01,2.236294031143188477e+00,2.222037076950073242e+00,2.207960605621337891e+00,2.194061517715454102e+00,2.180336475372314453e+00,2.166781902313232422e+00,2.153394699096679688e+00,2.140172243118286133e+00,2.127110958099365234e+00,2.114208221435546875e+00,2.101460695266723633e+00,2.088866472244262695e+00,2.076421737670898438e+00,2.064124822616577148e+00,2.051972627639770508e+00,2.039962768554687500e+00
3.794414043426513672e+00,3.753550767898559570e+00,3.713558197021484375e+00,3.674409151077270508e+00,3.636076211929321289e+00,3.598535537719726562e+00,3.561761856079101562e+00,3.525731801986694336e+00,3.490423679351806641e+00,3.455816030502319336e+00,3.421887636184692383e+00,3.388618946075439453e+00,3.355990886688232422e+00,3.323985338211059570e+00,3.292584419250488281e+00,3.261770963668823242e+00,3.231529235839843750e+00,3.201843261718750000e+00,3.172697067260742188e+00,3.144077301025390625e+00,3.115969181060791016e+00,3.088359117507934570e+00,3.061233997344970703e+00,3.034581184387207031e+00,3.008388519287109375e+00,2.982644319534301758e+00,2.957336664199829102e+00,2.932455062866210938e+00,2.907988786697387695e+00,7.977539300918579102e-01,7.834755182266235352e-01,7.706586718559265137e-01,7.623065114021301270e-01,7.587562203407287598e-01,7.552952170372009277e-01,7.519201636314392090e-01,7.485752105712890625e-01,7.452598810195922852e-01,7.441627383232116699e-01,7.462479472160339355e-01,7.491763234138488770e-01,7.521277070045471191e-01,2.603842496871948242e+00,2.584534406661987305e+00,2.565510034561157227e+00,2.546764135360717773e+00,2.528290033340454102e+00,2.510082244873046875e+00,2.492134332656860352e+00,2.474441766738891602e+00,2.456998586654663086e+00,2.439799308776855469e+00,2.422839403152465820e+00,2.406113624572753906e+00,7.896313667297363281e-01,7.783250212669372559e-01,7.673752903938293457e-01,7.567331790924072266e-01,7.531917691230773926e-01,7.511070966720581055e-01,7.492808103561401367e-01,7.478988170623779297e-01,7.613493800163269043e-01,7.731841206550598145e-01,2.236295223236083984e+00,2.222038269042968750e+00,2.207961797714233398e+00,2.194062709808349609e+00,2.180337429046630859e+00,2.166782855987548828e+00,2.153395652770996094e+00,2.140173196792602539e+00,2.127111911773681641e+00,2.114208936691284180e+00,2.101461648941040039e+00,2.088867187500000000e+00,2.076422691345214844e+00,2.064125537872314453e+00,2.051973581314086914e+00,2.039963483810424805e+00
3.794417142868041992e+00,3.753553628921508789e+00,3.713561296463012695e+00,3.674411535263061523e+00,3.636079072952270508e+00,3.598538160324096680e+00,3.561764478683471680e+00,3.525734424591064453e+00,3.490426301956176758e+00,3.455818414688110352e+00,3.421890258789062500e+00,3.388621330261230469e+00,3.355993270874023438e+00,3.323987722396850586e+00,3.292586326599121094e+00,3.261773347854614258e+00,3.231531381607055664e+00,3.201845407485961914e+00,3.172699213027954102e+00,3.144079208374023438e+00,3.115971088409423828e+00,3.088361024856567383e+00,3.061235904693603516e+00,3.034583091735839844e+00,3.008390426635742188e+00,2.982645750045776367e+00,2.957338333129882812e+00,2.932456970214843750e+00,8.091044425964355469e-01,7.939492464065551758e-01,7.794303894042968750e-01,7.713874578475952148e-01,7.678555250167846680e-01,7.643675208091735840e-01,7.609111666679382324e-01,7.574859261512756348e-01,7.540913224220275879e-01,7.527194023132324219e-01,7.537634372711181641e-01,7.567512392997741699e-01,7.597628235816955566e-01,2.623442888259887695e+00,2.603843927383422852e+00,2.584535598754882812e+00,2.565511465072631836e+00,2.546765565872192383e+00,2.528291463851928711e+00,2.510083436965942383e+00,2.492135763168334961e+00,2.474442958831787109e+00,2.456999778747558594e+00,2.439800500869750977e+00,2.422840595245361328e+00,2.406114816665649414e+00,7.894403934478759766e-01,7.781395316123962402e-01,7.671791315078735352e-01,7.565423250198364258e-01,7.527443766593933105e-01,7.506621479988098145e-01,7.491039633750915527e-01,7.480884194374084473e-01,7.619501352310180664e-01,7.740436196327209473e-01,2.236296176910400391e+00,2.222038984298706055e+00,2.207962751388549805e+00,2.194063663482666016e+00,2.180338621139526367e+00,2.166783809661865234e+00,2.153396606445312500e+00,2.140174150466918945e+00,2.127112865447998047e+00,2.114209890365600586e+00,2.101462602615356445e+00,2.088868141174316406e+00,2.076423406600952148e+00,2.064126491546630859e+00,2.051974296569824219e+00,2.039964437484741211e+00
3.794420003890991211e+00,3.753556728363037109e+00,3.713564157485961914e+00,3.674414396286010742e+00,3.636081695556640625e+00,3.598540782928466797e+00,3.561766624450683594e+00,3.525737047195434570e+00,3.490428924560546875e+00,3.455821037292480469e+00,3.421892166137695312e+00,3.388623714447021484e+00,3.355995655059814453e+00,3.323989868164062500e+00,3.292588710784912109e+00,3.261775493621826172e+00,3.231533527374267578e+00,3.201847076416015625e+00,3.172701358795166016e+00,3.144081354141235352e+00,3.115973234176635742e+00,3.088362693786621094e+00,3.061237812042236328e+00,3.034584999084472656e+00,3.008392333984375000e+00,2.982647657394409180e+00,2.957340240478515625e+00,8.198611140251159668e-01,8.053253889083862305e-01,7.901806235313415527e-01,7.810693979263305664e-01,7.772338986396789551e-01,7.736604809761047363e-01,7.701197862625122070e-01,7.666112780570983887e-01,7.631345987319946289e-01,7.614750266075134277e-01,7.618243694305419922e-01,7.644809484481811523e-01,7.675544619560241699e-01,2.643340587615966797e+00,2.623444318771362305e+00,2.603845357894897461e+00,2.584536790847778320e+00,2.565512895584106445e+00,2.546766757965087891e+00,2.528292655944824219e+00,2.510084629058837891e+00,2.492136955261230469e+00,2.474444389343261719e+00,2.457000732421875000e+00,2.439801692962646484e+00,2.422841787338256836e+00,2.406116008758544922e+00,7.892495989799499512e-01,7.779541611671447754e-01,7.669829726219177246e-01,7.563517093658447266e-01,7.522975802421569824e-01,7.503129839897155762e-01,7.489272356033325195e-01,7.484321594238281250e-01,7.623067498207092285e-01,7.749050855636596680e-01,2.236297369003295898e+00,2.222040176391601562e+00,2.207963705062866211e+00,2.194064617156982422e+00,2.180339574813842773e+00,2.166784763336181641e+00,2.153397798538208008e+00,2.140175104141235352e+00,2.127113580703735352e+00,2.114210844039916992e+00,2.101463556289672852e+00,2.088869094848632812e+00,2.076424360275268555e+00,2.064127445220947266e+00,2.051975011825561523e+00,2.039965152740478516e+00
3.794423103332519531e+00,3.753559589385986328e+00,3.713566541671752930e+00,3.674417257308959961e+00,3.636084556579589844e+00,3.598543643951416016e+00,3.561769247055053711e+00,3.525739669799804688e+00,3.490431308746337891e+00,3.455823421478271484e+00,3.421894788742065430e+00,3.388626098632812500e+00,3.355998039245605469e+00,3.323992013931274414e+00,3.292590856552124023e+00,3.261777639389038086e+00,3.231535911560058594e+00,3.201849222183227539e+00,3.172703504562377930e+00,3.144083499908447266e+00,3.115975141525268555e+00,3.088364839553833008e+00,3.061239719390869141e+00,3.034586906433105469e+00,3.008394002914428711e+00,2.982649564743041992e+00,8.309077024459838867e-01,8.170322179794311523e-01,8.014483451843261719e-01,7.915549874305725098e-01,7.875240445137023926e-01,7.835339903831481934e-01,7.795841097831726074e-01,7.759591341018676758e-01,7.723973989486694336e-01,7.704367041587829590e-01,7.707943916320800781e-01,7.723701596260070801e-01,2.684053897857666016e+00,2.663542270660400391e+00,2.643342018127441406e+00,2.623445749282836914e+00,2.603846788406372070e+00,2.584538221359252930e+00,2.565514087677001953e+00,2.546768188476562500e+00,2.528293848037719727e+00,2.510086059570312500e+00,2.492138385772705078e+00,2.474445581436157227e+00,2.457002162933349609e+00,2.439802885055541992e+00,2.422842979431152344e+00,2.406117200851440430e+00,7.890588641166687012e-01,7.777687907218933105e-01,7.667972445487976074e-01,7.561610937118530273e-01,7.518512010574340820e-01,7.501356601715087891e-01,7.487505674362182617e-01,7.487761378288269043e-01,7.626636028289794922e-01,7.757683992385864258e-01,2.236297845840454102e+00,2.222040891647338867e+00,2.207964420318603516e+00,2.194065093994140625e+00,2.180340051651000977e+00,2.166785240173339844e+00,2.153398275375366211e+00,2.140175580978393555e+00,2.127114057540893555e+00,2.114211320877075195e+00,2.101464033126831055e+00,2.088869571685791016e+00,2.076424837112426758e+00,2.064127683639526367e+00,2.051975488662719727e+00,2.039965629577636719e+00
3.794425964355468750e+00,3.753562450408935547e+00,3.713569402694702148e+00,3.674419879913330078e+00,3.636087417602539062e+00,3.598546266555786133e+00,3.561771869659423828e+00,3.525742292404174805e+00,3.490433931350708008e+00,3.455825567245483398e+00,3.421897172927856445e+00,3.388628482818603516e+00,3.356000185012817383e+00,3.323994159698486328e+00,3.292593240737915039e+00,3.261780023574829102e+00,3.231538057327270508e+00,3.201851367950439453e+00,3.172705411911010742e+00,3.144085407257080078e+00,3.115977048873901367e+00,3.088366746902465820e+00,3.061241626739501953e+00,3.034588813781738281e+00,3.008395910263061523e+00,8.422559499740600586e-01,8.281360268592834473e-01,8.130419254302978516e-01,8.023260235786437988e-01,7.981849312782287598e-01,7.940863370895385742e-01,7.900295257568359375e-01,7.860140800476074219e-01,7.820392251014709473e-01,7.796118855476379395e-01,7.799781560897827148e-01,7.804238796234130859e-01,2.704885244369506836e+00,2.684055089950561523e+00,2.663543462753295898e+00,2.643342971801757812e+00,2.623446702957153320e+00,2.603847742080688477e+00,2.584539175033569336e+00,2.565515279769897461e+00,2.546768903732299805e+00,2.528294801712036133e+00,2.510087013244628906e+00,2.492139101028442383e+00,2.474446296691894531e+00,2.457002878189086914e+00,2.439803600311279297e+00,2.422843694686889648e+00,8.337403535842895508e-01,7.888682484626770020e-01,7.775835394859313965e-01,7.666171789169311523e-01,7.559705376625061035e-01,7.514054179191589355e-01,7.499583959579467773e-01,7.485739588737487793e-01,7.491204738616943359e-01,7.630208730697631836e-01,7.766336798667907715e-01,2.236298561096191406e+00,2.222041368484497070e+00,2.207965135574340820e+00,2.194065809249877930e+00,2.180340528488159180e+00,2.166785955429077148e+00,2.153398752212524414e+00,2.140176057815551758e+00,2.127114772796630859e+00,2.114211797714233398e+00,2.101464509963989258e+00,2.088870048522949219e+00,2.076425313949584961e+00,2.064128398895263672e+00,2.051976203918457031e+00,2.039966106414794922e+00
3.794429063796997070e+00,3.753565549850463867e+00,3.713572263717651367e+00,3.674422740936279297e+00,3.636090040206909180e+00,3.598548650741577148e+00,3.561774730682373047e+00,3.525744915008544922e+00,3.490436553955078125e+00,3.455827951431274414e+00,3.421899557113647461e+00,3.388630867004394531e+00,3.356002569198608398e+00,3.323996543884277344e+00,3.292595386505126953e+00,3.261782169342041016e+00,3.231539726257324219e+00,3.201853513717651367e+00,3.172707319259643555e+00,3.144087076187133789e+00,3.115978717803955078e+00,3.088368415832519531e+00,3.061243057250976562e+00,3.034590244293212891e+00,3.008397340774536133e+00,8.394081592559814453e-01,8.249758481979370117e-01,8.133941888809204102e-01,8.091383576393127441e-01,8.049267530441284180e-01,8.007587790489196777e-01,7.966541647911071777e-01,7.926705479621887207e-01,7.924942970275878906e-01,7.909148931503295898e-01,7.897588610649108887e-01,2.726041793823242188e+00,2.704885959625244141e+00,2.684056043624877930e+00,2.663544416427612305e+00,2.643343925476074219e+00,2.623447656631469727e+00,2.603848457336425781e+00,2.584540367126464844e+00,2.565515995025634766e+00,2.546769857406616211e+00,2.528295516967773438e+00,2.510087728500366211e+00,2.492140054702758789e+00,2.474447011947631836e+00,2.457003593444824219e+00,2.439804315567016602e+00,2.422844409942626953e+00,8.294535875320434570e-01,7.886776924133300781e-01,7.773984670639038086e-01,7.664372920989990234e-01,7.557808756828308105e-01,7.511702775955200195e-01,7.497812509536743164e-01,7.483974695205688477e-01,7.494651675224304199e-01,7.633784413337707520e-01,7.775008678436279297e-01,2.236299276351928711e+00,2.222042083740234375e+00,2.207965612411499023e+00,2.194066524505615234e+00,2.180341243743896484e+00,2.166786670684814453e+00,2.153399467468261719e+00,2.140176773071289062e+00,2.127115249633789062e+00,2.114212512969970703e+00,2.101465225219726562e+00,2.088870763778686523e+00,2.076426029205322266e+00,2.064128875732421875e+00,2.051976680755615234e+00,2.039966583251953125e+00
3.794431686401367188e+00,3.753567457199096680e+00,3.713574647903442383e+00,3.674424886703491211e+00,3.636091947555541992e+00,3.598551034927368164e+00,3.561776399612426758e+00,3.525746822357177734e+00,3.490437984466552734e+00,3.455829858779907227e+00,3.421901226043701172e+00,3.388632059097290039e+00,3.356003999710083008e+00,3.323997974395751953e+00,3.292596817016601562e+00,3.261783361434936523e+00,3.231541156768798828e+00,3.201854705810546875e+00,3.172708511352539062e+00,3.144088506698608398e+00,3.115980148315429688e+00,3.088369607925415039e+00,3.061244487762451172e+00,9.006132483482360840e-01,8.904856443405151367e-01,8.365797400474548340e-01,8.247719407081604004e-01,8.203965425491333008e-01,8.160927295684814453e-01,8.119128346443176270e-01,8.077754974365234375e-01,8.036801218986511230e-01,8.053467273712158203e-01,8.052306175231933594e-01,8.036000728607177734e-01,2.747532129287719727e+00,2.726042747497558594e+00,2.704887151718139648e+00,2.684056997299194336e+00,2.663545370101928711e+00,2.643344879150390625e+00,2.623448610305786133e+00,2.603849649429321289e+00,2.584541082382202148e+00,2.565516948699951172e+00,2.546770572662353516e+00,2.528296470642089844e+00,2.510088682174682617e+00,2.492140769958496094e+00,2.474447965621948242e+00,2.457004308700561523e+00,2.439805269241333008e+00,2.422845363616943359e+00,8.252106904983520508e-01,7.884871959686279297e-01,7.772133946418762207e-01,7.662573456764221191e-01,7.556193470954895020e-01,7.510396242141723633e-01,7.496041655540466309e-01,7.482210397720336914e-01,7.498100996017456055e-01,7.637363076210021973e-01,7.781895995140075684e-01,2.236299991607666016e+00,2.222042798995971680e+00,2.207966327667236328e+00,2.194067001342773438e+00,2.180341958999633789e+00,2.166787385940551758e+00,2.153399944305419922e+00,2.140177488327026367e+00,2.127115964889526367e+00,2.114212989807128906e+00,2.101465702056884766e+00,2.088871240615844727e+00,2.076426506042480469e+00,2.064129352569580078e+00,2.051977157592773438e+00,2.039967298507690430e+00
3.794433355331420898e+00,3.753569602966308594e+00,3.713576316833496094e+00,3.674426794052124023e+00,3.636094093322753906e+00,3.598552465438842773e+00,3.561778306961059570e+00,3.525748252868652344e+00,3.490439653396606445e+00,3.455831289291381836e+00,3.421902656555175781e+00,3.388633966445922852e+00,3.356005430221557617e+00,3.323999404907226562e+00,3.292598009109497070e+00,3.261784791946411133e+00,3.231542587280273438e+00,3.201855897903442383e+00,3.172709941864013672e+00,3.144089698791503906e+00,3.115981340408325195e+00,3.088371038436889648e+00,8.940598964691162109e-01,8.857747316360473633e-01,8.761555552482604980e-01,8.365036249160766602e-01,8.321125507354736328e-01,8.277673721313476562e-01,8.234673142433166504e-01,8.192117214202880859e-01,8.149998784065246582e-01,8.172680735588073730e-01,8.200742602348327637e-01,8.183830380439758301e-01,2.769363880157470703e+00,2.747533082962036133e+00,2.726043939590454102e+00,2.704887866973876953e+00,2.684057950973510742e+00,2.663546323776245117e+00,2.643345832824707031e+00,2.623449325561523438e+00,2.603850364685058594e+00,2.584542036056518555e+00,2.565517663955688477e+00,2.546771764755249023e+00,2.528297424316406250e+00,2.510089397430419922e+00,2.492141723632812500e+00,2.474448680877685547e+00,2.457005262374877930e+00,2.439805984497070312e+00,2.422846078872680664e+00,8.218704462051391602e-01,7.884150147438049316e-01,7.771817445755004883e-01,7.662640810012817383e-01,7.556487917900085449e-01,7.517204284667968750e-01,7.502311468124389648e-01,7.487477064132690430e-01,7.505901455879211426e-01,7.642905116081237793e-01,7.785615921020507812e-01,2.236300468444824219e+00,2.222043514251708984e+00,2.207967042922973633e+00,2.194067716598510742e+00,2.180342674255371094e+00,2.166787862777709961e+00,2.153400659561157227e+00,2.140177965164184570e+00,2.127116680145263672e+00,2.114213705062866211e+00,2.101466417312622070e+00,2.088871717453002930e+00,2.076426982879638672e+00,2.064130067825317383e+00,2.051977872848510742e+00,2.039967775344848633e+00
3.794435501098632812e+00,3.753571271896362305e+00,3.713578462600708008e+00,3.674428462982177734e+00,3.636095523834228516e+00,3.598554372787475586e+00,3.561779975891113281e+00,3.525750160217285156e+00,3.490441083908081055e+00,3.455832958221435547e+00,3.421904563903808594e+00,3.388635158538818359e+00,3.356007099151611328e+00,3.324000835418701172e+00,3.292599678039550781e+00,3.261786222457885742e+00,3.231543779373168945e+00,3.201857566833496094e+00,3.172711133956909180e+00,3.144091129302978516e+00,3.115982770919799805e+00,3.088372230529785156e+00,8.868128061294555664e-01,8.772954344749450684e-01,8.667569756507873535e-01,8.545959591865539551e-01,8.397808670997619629e-01,8.353555202484130859e-01,8.309764266014099121e-01,8.266429901123046875e-01,8.295475840568542480e-01,8.354753255844116211e-01,2.814084291458129883e+00,2.791545391082763672e+00,2.769365072250366211e+00,2.747534036636352539e+00,2.726044654846191406e+00,2.704889059066772461e+00,2.684058904647827148e+00,2.663547277450561523e+00,2.643346786499023438e+00,2.623450517654418945e+00,2.603851318359375000e+00,2.584542751312255859e+00,2.565518617630004883e+00,2.546772480010986328e+00,2.528298377990722656e+00,2.510090351104736328e+00,2.492142438888549805e+00,2.474449634552001953e+00,2.457005977630615234e+00,2.439806938171386719e+00,2.422846794128417969e+00,8.196511864662170410e-01,7.887755036354064941e-01,7.772127985954284668e-01,7.662943005561828613e-01,7.556781768798828125e-01,7.524022459983825684e-01,7.509102821350097656e-01,7.494242191314697266e-01,7.515991330146789551e-01,7.653366923332214355e-01,7.795857787132263184e-01,2.236301183700561523e+00,2.222043991088867188e+00,2.207967758178710938e+00,2.194068431854248047e+00,2.180343151092529297e+00,2.166788578033447266e+00,2.153401374816894531e+00,2.140178680419921875e+00,2.127117156982421875e+00,2.114214181900024414e+00,2.101466894149780273e+00,2.088872432708740234e+00,2.076427698135375977e+00,2.064130544662475586e+00,2.051978349685668945e+00,2.039968490600585938e+00
3.794437170028686523e+00,3.753573417663574219e+00,3.713580131530761719e+00,3.674430370330810547e+00,3.636097192764282227e+00,3.598556041717529297e+00,3.561781883239746094e+00,3.525751590728759766e+00,3.490442991256713867e+00,3.455834388732910156e+00,3.421905755996704102e+00,3.388637065887451172e+00,3.356008291244506836e+00,3.324002504348754883e+00,3.292600870132446289e+00,3.261787414550781250e+00,3.231545448303222656e+00,3.201858758926391602e+00,3.172712802886962891e+00,3.144092321395874023e+00,3.115983963012695312e+00,3.088373661041259766e+00,8.822461962699890137e-01,8.732289075851440430e-01,8.633700609207153320e-01,8.577263355255126953e-01,8.568624854087829590e-01,8.577374815940856934e-01,8.386237025260925293e-01,8.422017693519592285e-01,8.514660000801086426e-01,2.836991071701049805e+00,2.814085245132446289e+00,2.791546583175659180e+00,2.769366025924682617e+00,2.747535228729248047e+00,2.726045608520507812e+00,2.704890012741088867e+00,2.684059858322143555e+00,2.663548231124877930e+00,2.643347740173339844e+00,2.623451232910156250e+00,2.603852272033691406e+00,2.584543943405151367e+00,2.565519571304321289e+00,2.546773433685302734e+00,2.528299093246459961e+00,2.510091066360473633e+00,2.492143392562866211e+00,2.474450349807739258e+00,2.457006931304931641e+00,2.439807653427124023e+00,2.422847509384155273e+00,8.174439072608947754e-01,7.892282009124755859e-01,7.772439122200012207e-01,7.663245201110839844e-01,7.557076215744018555e-01,7.530854344367980957e-01,7.515907883644104004e-01,7.500501275062561035e-01,7.526108026504516602e-01,7.663857340812683105e-01,2.250743150711059570e+00,2.236301898956298828e+00,2.222044944763183594e+00,2.207968235015869141e+00,2.194069147109985352e+00,2.180343866348266602e+00,2.166789054870605469e+00,2.153401851654052734e+00,2.140179157257080078e+00,2.127117872238159180e+00,2.114214897155761719e+00,2.101467609405517578e+00,2.088872909545898438e+00,2.076428174972534180e+00,2.064131259918212891e+00,2.051978826522827148e+00,2.039968967437744141e+00
3.777792453765869141e+00,3.753575086593627930e+00,3.713582038879394531e+00,3.674432039260864258e+00,3.636099100112915039e+00,3.598557949066162109e+00,3.561783313751220703e+00,3.525753498077392578e+00,3.490444421768188477e+00,3.455836296081542969e+00,3.421907663345336914e+00,3.388638257980346680e+00,3.356009960174560547e+00,3.324003696441650391e+00,3.292602539062500000e+00,3.261789083480834961e+00,3.231546640396118164e+00,3.201860189437866211e+00,3.172713994979858398e+00,3.144093751907348633e+00,3.115985155105590820e+00,3.088374614715576172e+00,8.788054585456848145e-01,8.710484504699707031e-01,8.660451769828796387e-01,8.616313338279724121e-01,8.644328117370605469e-01,8.659196496009826660e-01,8.755840063095092773e-01,8.668505549430847168e-01,2.860273599624633789e+00,2.836992025375366211e+00,2.814086437225341797e+00,2.791547536849975586e+00,2.769366979598999023e+00,2.747535943984985352e+00,2.726046800613403320e+00,2.704890966415405273e+00,2.684060811996459961e+00,2.663549184799194336e+00,2.643348693847656250e+00,2.623452186584472656e+00,2.603853225708007812e+00,2.584544658660888672e+00,2.565520524978637695e+00,2.546774148941040039e+00,2.528300046920776367e+00,2.510092020034790039e+00,2.492144107818603516e+00,2.474451303482055664e+00,2.457007646560668945e+00,2.439808368682861328e+00,2.422848224639892578e+00,8.152484893798828125e-01,7.896813750267028809e-01,7.772749662399291992e-01,7.663546800613403320e-01,7.557370066642761230e-01,7.537697553634643555e-01,7.522723674774169922e-01,7.506511211395263672e-01,7.536252737045288086e-01,7.674376964569091797e-01,2.250743865966796875e+00,2.236302614212036133e+00,2.222045421600341797e+00,2.207968950271606445e+00,2.194069623947143555e+00,2.180344581604003906e+00,2.166789770126342773e+00,2.153402566909790039e+00,2.140179872512817383e+00,2.127118349075317383e+00,2.114215373992919922e+00,2.101468086242675781e+00,2.088873624801635742e+00,2.076428890228271484e+00,2.064131736755371094e+00,2.051979541778564453e+00,2.039969444274902344e+00
3.083958625793457031e+00,3.083473443984985352e+00,3.082988500595092773e+00,3.082503557205200195e+00,3.082018852233886719e+00,3.081534385681152344e+00,3.081049919128417969e+00,3.080565929412841797e+00,3.080081701278686523e+00,3.079597711563110352e+00,3.079113960266113281e+00,3.078630447387695312e+00,3.078146934509277344e+00,3.077663421630859375e+00,3.077180385589599609e+00,3.076697349548339844e+00,3.076214313507080078e+00,3.075731515884399414e+00,3.075248956680297852e+00,3.074766635894775391e+00,3.074284315109252930e+00,3.073801994323730469e+00,8.754500150680541992e-01,8.701546192169189453e-01,8.671175241470336914e-01,8.676484823226928711e-01,8.712176680564880371e-01,8.779121637344360352e-01,2.908003568649291992e+00,2.883941650390625000e+00,2.860274791717529297e+00,2.836993217468261719e+00,2.814087390899658203e+00,2.791548728942871094e+00,2.769367933273315430e+00,2.747537136077880859e+00,2.726047515869140625e+00,2.704891920089721680e+00,2.684062004089355469e+00,2.663550138473510742e+00,2.643349647521972656e+00,2.623453140258789062e+00,2.603853940963745117e+00,2.584545612335205078e+00,2.565521240234375000e+00,2.546775102615356445e+00,2.528300762176513672e+00,2.510092735290527344e+00,2.492145061492919922e+00,2.474452018737792969e+00,2.457008600234985352e+00,2.439809083938598633e+00,2.422849178314208984e+00,8.130648136138916016e-01,7.901350855827331543e-01,7.773060798645019531e-01,7.663849592208862305e-01,7.559614777565002441e-01,7.544553279876708984e-01,7.529507279396057129e-01,7.512530684471130371e-01,7.546424269676208496e-01,7.684924602508544922e-01,2.250744581222534180e+00,2.236303329467773438e+00,2.222046136856079102e+00,2.207969665527343750e+00,2.194070339202880859e+00,2.180345058441162109e+00,2.166790485382080078e+00,2.153403282165527344e+00,2.140180349349975586e+00,2.127119064331054688e+00,2.114216089248657227e+00,2.101468801498413086e+00,2.088874101638793945e+00,2.076429367065429688e+00,2.064132452011108398e+00,2.051980018615722656e+00,2.039969921112060547e+00
2.605440378189086914e+00,2.605093955993652344e+00,2.604747772216796875e+00,2.604401826858520508e+00,2.604055643081665039e+00,2.603709697723388672e+00,2.603363990783691406e+00,2.603018283843994141e+00,2.602672815322875977e+00,2.602327108383178711e+00,2.601981639862060547e+00,2.601636171340942383e+00,2.601290941238403320e+00,2.600945711135864258e+00,2.600600719451904297e+00,2.600255727767944336e+00,2.599910736083984375e+00,2.599565982818603516e+00,2.599221229553222656e+00,2.598876476287841797e+00,2.598531961441040039e+00,2.598187446594238281e+00,8.724971413612365723e-01,8.680774569511413574e-01,8.690054416656494141e-01,8.702931404113769531e-01,8.743822574615478516e-01,8.867264986038208008e-01,2.595778703689575195e+00,2.595435142517089844e+00,2.595091581344604492e+00,2.594748020172119141e+00,2.594404458999633789e+00,2.594061136245727539e+00,2.593717813491821289e+00,2.593374490737915039e+00,2.593031406402587891e+00,2.592688560485839844e+00,2.592345476150512695e+00,2.592002630233764648e+00,2.591660022735595703e+00,2.591317415237426758e+00,2.590974807739257812e+00,2.584546327590942383e+00,2.565522193908691406e+00,2.546775817871093750e+00,2.528301715850830078e+00,2.510093688964843750e+00,2.492145776748657227e+00,2.474452733993530273e+00,2.457009315490722656e+00,2.439810037612915039e+00,2.422849893569946289e+00,8.108928203582763672e-01,7.905892729759216309e-01,7.776213884353637695e-01,7.664151787757873535e-01,7.566511034965515137e-01,7.551422715187072754e-01,7.535562515258789062e-01,7.518559694290161133e-01,7.558968663215637207e-01,7.695501446723937988e-01,2.250745058059692383e+00,2.236304044723510742e+00,2.222046852111816406e+00,2.207970380783081055e+00,2.194071054458618164e+00,2.180345773696899414e+00,2.166791200637817383e+00,2.153403759002685547e+00,2.140181064605712891e+00,2.127119541168212891e+00,2.114216566085815430e+00,2.101469278335571289e+00,2.088874578475952148e+00,2.076430082321166992e+00,2.064132928848266602e+00,2.051980733871459961e+00,2.039970636367797852e+00
2.255472898483276367e+00,2.255213499069213867e+00,2.254953861236572266e+00,2.254694461822509766e+00,2.254435300827026367e+00,2.254175901412963867e+00,2.253916740417480469e+00,2.253657817840576172e+00,2.253398656845092773e+00,2.253139495849609375e+00,2.252880573272705078e+00,2.252621650695800781e+00,2.252362728118896484e+00,2.252104043960571289e+00,2.251845121383666992e+00,2.251586437225341797e+00,2.251327991485595703e+00,2.251069307327270508e+00,2.250810861587524414e+00,2.250552415847778320e+00,2.250293970108032227e+00,2.250035762786865234e+00,8.703880906105041504e-01,8.678720593452453613e-01,8.699294924736022949e-01,8.727294802665710449e-01,8.787348866462707520e-01,9.016165733337402344e-01,2.248229026794433594e+00,2.247971296310424805e+00,2.247713565826416016e+00,2.247455835342407227e+00,2.247198104858398438e+00,2.246940374374389648e+00,2.246682882308959961e+00,2.246425390243530273e+00,2.246167898178100586e+00,2.245910406112670898e+00,2.245653152465820312e+00,2.245395898818969727e+00,2.245138645172119141e+00,2.244881629943847656e+00,2.244624376296997070e+00,2.244367361068725586e+00,2.244110345840454102e+00,2.243853569030761719e+00,2.243596553802490234e+00,2.243339776992797852e+00,2.243083000183105469e+00,2.242826461791992188e+00,2.242569923400878906e+00,2.242313385009765625e+00,2.242056846618652344e+00,8.087323307991027832e-01,7.910440564155578613e-01,7.780613899230957031e-01,7.664454579353332520e-01,7.573419809341430664e-01,7.558303475379943848e-01,7.541628479957580566e-01,7.524598240852355957e-01,7.571805715560913086e-01,7.706107497215270996e-01,2.239239215850830078e+00,2.236304521560668945e+00,2.222047567367553711e+00,2.207970857620239258e+00,2.194071769714355469e+00,2.180346250534057617e+00,2.166791677474975586e+00,2.153404474258422852e+00,2.140181541442871094e+00,2.127120256423950195e+00,2.114217281341552734e+00,2.101469993591308594e+00,2.088875293731689453e+00,2.076430559158325195e+00,2.064133405685424805e+00,2.051981210708618164e+00,2.039971113204956055e+00
1.988389015197753906e+00,1.988187313079833984e+00,1.987985730171203613e+00,1.987784028053283691e+00,1.987582564353942871e+00,1.987380981445312500e+00,1.987179517745971680e+00,1.986978054046630859e+00,1.986776590347290039e+00,1.986575245857238770e+00,1.986373901367187500e+00,1.986172676086425781e+00,1.985971331596374512e+00,1.985770106315612793e+00,1.985569000244140625e+00,1.985367894172668457e+00,1.985166788101196289e+00,1.984965801239013672e+00,1.984764695167541504e+00,1.984563827514648438e+00,1.984362840652465820e+00,1.984161972999572754e+00,8.677463531494140625e-01,8.677043914794921875e-01,8.711835145950317383e-01,8.760549426078796387e-01,8.846434950828552246e-01,1.982957482337951660e+00,1.982756853103637695e+00,1.982556581497192383e+00,1.982356071472167969e+00,1.982155561447143555e+00,1.981955051422119141e+00,1.981754660606384277e+00,1.981554388999938965e+00,1.981353998184204102e+00,1.981153726577758789e+00,1.980953454971313477e+00,1.980753302574157715e+00,1.980553150177001953e+00,1.980352997779846191e+00,1.980152964591979980e+00,1.979952931404113770e+00,1.979752898216247559e+00,1.979552984237670898e+00,1.979353070259094238e+00,1.979153156280517578e+00,1.978953361511230469e+00,1.978753566741943359e+00,1.978553771972656250e+00,1.978354096412658691e+00,1.978154420852661133e+00,1.977954745292663574e+00,8.065833449363708496e-01,7.914992570877075195e-01,7.785017490386962891e-01,7.664756178855895996e-01,7.580340504646301270e-01,7.564840316772460938e-01,7.547704577445983887e-01,7.530645728111267090e-01,7.584685087203979492e-01,1.975960612297058105e+00,1.975761413574218750e+00,1.975562334060668945e+00,1.975363135337829590e+00,1.975164055824279785e+00,1.974965095520019531e+00,1.974766135215759277e+00,1.974567174911499023e+00,1.974368214607238770e+00,1.974169611930847168e+00,1.973970770835876465e+00,1.973771929740905762e+00,1.973573207855224609e+00,1.973374485969543457e+00,1.973175883293151855e+00,1.972977161407470703e+00,1.972778677940368652e+00,1.972580075263977051e+00
1.777861833572387695e+00,1.777700543403625488e+00,1.777539372444152832e+00,1.777378082275390625e+00,1.777216911315917969e+00,1.777055859565734863e+00,1.776894688606262207e+00,1.776733875274658203e+00,1.776572823524475098e+00,1.776411771774291992e+00,1.776250720024108887e+00,1.776089787483215332e+00,1.775928854942321777e+00,1.775768041610717773e+00,1.775607109069824219e+00,1.775446295738220215e+00,1.775285482406616211e+00,1.775124669075012207e+00,1.774963855743408203e+00,1.774803161621093750e+00,1.774642467498779297e+00,1.774481773376464844e+00,8.627895712852478027e-01,8.660623431205749512e-01,8.725663423538208008e-01,8.799636363983154297e-01,8.901743292808532715e-01,1.773518443107604980e+00,1.773357868194580078e+00,1.773197531700134277e+00,1.773037075996398926e+00,1.772876739501953125e+00,1.772716283798217773e+00,1.772556066513061523e+00,1.772395730018615723e+00,1.772235512733459473e+00,1.772075176239013672e+00,1.771914958953857422e+00,1.771754860877990723e+00,1.771594643592834473e+00,1.771434545516967773e+00,1.771274447441101074e+00,1.771114349365234375e+00,1.770954370498657227e+00,1.770794391632080078e+00,1.770634412765502930e+00,1.770474433898925781e+00,1.770314574241638184e+00,1.770154595375061035e+00,1.769994974136352539e+00,1.769835114479064941e+00,1.769675374031066895e+00,1.769515514373779297e+00,8.054096698760986328e-01,7.919551134109497070e-01,7.789427638053894043e-01,7.665058970451354980e-01,7.587274909019470215e-01,7.570953369140625000e-01,7.553790211677551270e-01,7.536703944206237793e-01,7.597609162330627441e-01,1.767919421195983887e+00,1.767759919166564941e+00,1.767600536346435547e+00,1.767441153526306152e+00,1.767281770706176758e+00,1.767122387886047363e+00,1.766963124275207520e+00,1.766803860664367676e+00,1.766644597053527832e+00,1.766485333442687988e+00,1.766326189041137695e+00,1.766166925430297852e+00,1.766007781028747559e+00,1.765848755836486816e+00,1.765689611434936523e+00,1.765530586242675781e+00,1.765371561050415039e+00,1.765212655067443848e+00
1.607647061347961426e+00,1.607515215873718262e+00,1.607383370399475098e+00,1.607251524925231934e+00,1.607119679450988770e+00,1.606987953186035156e+00,1.606856226921081543e+00,1.606724500656127930e+00,1.606592774391174316e+00,1.606461048126220703e+00,1.606329441070556641e+00,1.606197834014892578e+00,1.606066226959228516e+00,1.605934619903564453e+00,1.605803012847900391e+00,1.605671405792236328e+00,1.605539917945861816e+00,1.605408430099487305e+00,1.605276942253112793e+00,1.605145454406738281e+00,1.605013966560363770e+00,1.604882597923278809e+00,8.621928691864013672e-01,8.642482161521911621e-01,8.735905289649963379e-01,8.826618194580078125e-01,8.947626352310180664e-01,9.173954725265502930e-01,1.603963255882263184e+00,1.603832125663757324e+00,1.603700876235961914e+00,1.603569626808166504e+00,1.603438496589660645e+00,1.603307366371154785e+00,1.603176116943359375e+00,1.603045105934143066e+00,1.602913975715637207e+00,1.602782845497131348e+00,1.602651834487915039e+00,1.602520823478698730e+00,1.602389812469482422e+00,1.602258801460266113e+00,1.602127790451049805e+00,1.601996898651123047e+00,1.601865887641906738e+00,1.601734995841979980e+00,1.601604104042053223e+00,1.601473212242126465e+00,1.601342439651489258e+00,1.601211547851562500e+00,1.601080775260925293e+00,1.600950002670288086e+00,1.600819230079650879e+00,8.058816194534301758e-01,7.924114465713500977e-01,7.793841958045959473e-01,7.667782902717590332e-01,7.594221234321594238e-01,7.577076554298400879e-01,7.559885382652282715e-01,7.542772293090820312e-01,7.610577344894409180e-01,1.599512815475463867e+00,1.599382281303405762e+00,1.599251747131347656e+00,1.599121332168579102e+00,1.598990797996520996e+00,1.598860383033752441e+00,1.598729968070983887e+00,1.598599553108215332e+00,1.598469257354736328e+00,1.598338484764099121e+00,1.598207712173461914e+00,1.598076939582824707e+00,1.597946405410766602e+00,1.597815632820129395e+00,1.597684979438781738e+00,1.597554445266723633e+00,1.597423791885375977e+00,1.597293138504028320e+00
1.467177391052246094e+00,1.467067599296569824e+00,1.466957807540893555e+00,1.466848015785217285e+00,1.466738224029541016e+00,1.466628432273864746e+00,1.466518759727478027e+00,1.466409087181091309e+00,1.466299414634704590e+00,1.466189742088317871e+00,1.466080069541931152e+00,1.465970396995544434e+00,1.465860724449157715e+00,1.465751171112060547e+00,1.465641498565673828e+00,1.465531945228576660e+00,1.465422391891479492e+00,1.465312838554382324e+00,1.465203285217285156e+00,1.465093731880187988e+00,1.464984178543090820e+00,1.464874744415283203e+00,8.632725477218627930e-01,8.618892431259155273e-01,8.736660480499267578e-01,8.851403594017028809e-01,9.000754952430725098e-01,9.154666066169738770e-01,1.464108705520629883e+00,1.463999390602111816e+00,1.463889956474304199e+00,1.463780641555786133e+00,1.463671326637268066e+00,1.463562011718750000e+00,1.463452816009521484e+00,1.463343501091003418e+00,1.463234305381774902e+00,1.463124990463256836e+00,1.463015794754028320e+00,1.462906599044799805e+00,1.462797403335571289e+00,1.462688326835632324e+00,1.462579131126403809e+00,1.462470054626464844e+00,1.462360858917236328e+00,1.462251782417297363e+00,1.462142705917358398e+00,1.462033629417419434e+00,1.461924552917480469e+00,1.461815714836120605e+00,1.461706638336181641e+00,1.461597681045532227e+00,1.461488723754882812e+00,1.461379647254943848e+00,8.066831827163696289e-01,7.917823791503906250e-01,7.672060728073120117e-01,7.600507140159606934e-01,7.583209872245788574e-01,7.565990686416625977e-01,7.548849582672119141e-01,7.623589634895324707e-01,1.460398674011230469e+00,1.460289478302001953e+00,1.460180401802062988e+00,1.460071325302124023e+00,1.459962129592895508e+00,1.459853172302246094e+00,1.459744095802307129e+00,1.459634900093078613e+00,1.459525942802429199e+00,1.459416985511779785e+00,1.459307909011840820e+00,1.459198951721191406e+00,1.459089994430541992e+00,1.458981037139892578e+00,1.458872079849243164e+00,1.458763122558593750e+00,1.458654284477233887e+00,1.458545327186584473e+00
1.349282741546630859e+00,1.349189758300781250e+00,1.349096894264221191e+00,1.349004149436950684e+00,1.348911285400390625e+00,1.348818421363830566e+00,1.348725557327270508e+00,1.348632812500000000e+00,1.348539948463439941e+00,1.348447203636169434e+00,1.348354458808898926e+00,1.348261713981628418e+00,1.348168969154357910e+00,1.348076224327087402e+00,1.347983479499816895e+00,1.347890853881835938e+00,1.347798109054565430e+00,1.347705483436584473e+00,1.347612738609313965e+00,1.347520112991333008e+00,1.347427487373352051e+00,1.347334861755371094e+00,1.347242355346679688e+00,8.606966733932495117e-01,8.731179237365722656e-01,8.839567303657531738e-01,8.992748856544494629e-01,9.161564111709594727e-01,1.346686840057373047e+00,1.346594452857971191e+00,1.346501946449279785e+00,1.346409440040588379e+00,1.346316933631896973e+00,1.346224546432495117e+00,1.346132040023803711e+00,1.346039652824401855e+00,1.345947146415710449e+00,1.345854759216308594e+00,1.345762372016906738e+00,1.345669984817504883e+00,1.345577597618103027e+00,1.345485210418701172e+00,1.345392823219299316e+00,1.345300436019897461e+00,1.345208168029785156e+00,1.345115780830383301e+00,1.345023512840270996e+00,1.344931244850158691e+00,1.344838857650756836e+00,1.344746470451354980e+00,1.344653844833374023e+00,1.344561338424682617e+00,1.344468832015991211e+00,1.344376325607299805e+00,8.045861124992370605e-01,7.883193492889404297e-01,7.769820094108581543e-01,7.685838937759399414e-01,7.665913701057434082e-01,7.693968415260314941e-01,7.712767720222473145e-01,1.343636751174926758e+00,1.343544244766235352e+00,1.343451976776123047e+00,1.343359589576721191e+00,1.343267202377319336e+00,1.343174934387207031e+00,1.343082547187805176e+00,1.342990159988403320e+00,1.342897891998291016e+00,1.342805624008178711e+00,1.342713356018066406e+00,1.342621088027954102e+00,1.342528820037841797e+00,1.342436552047729492e+00,1.342344284057617188e+00,1.342252135276794434e+00,1.342159867286682129e+00,1.342067718505859375e+00,1.341975569725036621e+00
1.248925447463989258e+00,1.248845934867858887e+00,1.248766422271728516e+00,1.248686790466308594e+00,1.248607277870178223e+00,1.248527765274047852e+00,1.248448133468627930e+00,1.248368740081787109e+00,1.248289227485656738e+00,1.248209714889526367e+00,1.248130321502685547e+00,1.248050808906555176e+00,1.247971296310424805e+00,1.247891902923583984e+00,1.247812390327453613e+00,1.247732996940612793e+00,1.247653603553771973e+00,1.247574090957641602e+00,1.247494697570800781e+00,1.247415304183959961e+00,1.247335910797119141e+00,1.247256517410278320e+00,1.247177243232727051e+00,8.630723357200622559e-01,8.715136647224426270e-01,8.819420337677001953e-01,8.955723047256469727e-01,9.169618487358093262e-01,1.246701240539550781e+00,1.246621966361999512e+00,1.246542572975158691e+00,1.246463298797607422e+00,1.246384143829345703e+00,1.246304869651794434e+00,1.246225595474243164e+00,1.246146321296691895e+00,1.246067166328430176e+00,1.245987892150878906e+00,1.245908617973327637e+00,1.245829105377197266e+00,1.245749711990356445e+00,1.245670318603515625e+00,1.245590925216674805e+00,1.245511412620544434e+00,1.245432138442993164e+00,1.245352745056152344e+00,1.245273351669311523e+00,1.245193958282470703e+00,1.245114564895629883e+00,1.245035290718078613e+00,1.244956016540527344e+00,1.244876623153686523e+00,1.244797229766845703e+00,1.244718074798583984e+00,7.997546195983886719e-01,7.828435301780700684e-01,7.736941576004028320e-01,7.665534019470214844e-01,7.644804716110229492e-01,7.651347517967224121e-01,7.674228549003601074e-01,1.244084000587463379e+00,1.244004845619201660e+00,1.243925571441650391e+00,1.243846297264099121e+00,1.243767261505126953e+00,1.243687987327575684e+00,1.243608832359313965e+00,1.243529796600341797e+00,1.243450641632080078e+00,1.243371486663818359e+00,1.243292331695556641e+00,1.243213295936584473e+00,1.243134140968322754e+00,1.243054986000061035e+00,1.242975950241088867e+00,1.242896914482116699e+00,1.242817759513854980e+00,1.242738842964172363e+00,1.242659687995910645e+00
1.162463665008544922e+00,1.162394762039184570e+00,1.162325859069824219e+00,1.162256836891174316e+00,1.162187933921813965e+00,1.162119030952453613e+00,1.162050127983093262e+00,1.161981225013732910e+00,1.161912322044372559e+00,1.161843538284301758e+00,1.161774635314941406e+00,1.161705732345581055e+00,1.161636948585510254e+00,1.161568045616149902e+00,1.161499261856079102e+00,1.161430358886718750e+00,1.161361575126647949e+00,1.161292791366577148e+00,1.161224007606506348e+00,1.161155223846435547e+00,1.161086320877075195e+00,1.161017656326293945e+00,1.160948872566223145e+00,1.160880088806152344e+00,8.812139034271240234e-01,8.862034082412719727e-01,9.056621789932250977e-01,9.280291199684143066e-01,1.160536170005798340e+00,1.160467147827148438e+00,1.160398244857788086e+00,1.160329341888427734e+00,1.160260438919067383e+00,1.160191535949707031e+00,1.160122632980346680e+00,1.160053730010986328e+00,1.159984946250915527e+00,1.159916043281555176e+00,1.159847140312194824e+00,1.159778356552124023e+00,1.159709453582763672e+00,1.159640669822692871e+00,1.159571766853332520e+00,1.159503102302551270e+00,1.159434199333190918e+00,1.159365415573120117e+00,1.159296631813049316e+00,1.159227848052978516e+00,1.159159064292907715e+00,1.159090280532836914e+00,1.159021496772766113e+00,1.158952713012695312e+00,1.158884048461914062e+00,8.132673501968383789e-01,7.953860759735107422e-01,7.837711572647094727e-01,7.736805677413940430e-01,7.635170817375183105e-01,7.616071105003356934e-01,7.607877254486083984e-01,7.604821920394897461e-01,1.158265829086303711e+00,1.158197164535522461e+00,1.158128380775451660e+00,1.158059835433959961e+00,1.157991170883178711e+00,1.157922506332397461e+00,1.157853960990905762e+00,1.157785296440124512e+00,1.157716751098632812e+00,1.157648205757141113e+00,1.157579541206359863e+00,1.157510995864868164e+00,1.157442331314086914e+00,1.157373905181884766e+00,1.157305240631103516e+00,1.157236695289611816e+00,1.157168269157409668e+00,1.157099604606628418e+00,1.157031059265136719e+00
1.087198019027709961e+00,1.087137699127197266e+00,1.087077379226684570e+00,1.087017059326171875e+00,1.086956739425659180e+00,1.086896538734436035e+00,1.086836218833923340e+00,1.086776018142700195e+00,1.086715817451477051e+00,1.086655497550964355e+00,1.086595296859741211e+00,1.086535096168518066e+00,1.086474776268005371e+00,1.086414575576782227e+00,1.086354374885559082e+00,1.086294174194335938e+00,1.086233854293823242e+00,1.086173534393310547e+00,1.086113214492797852e+00,1.086052775382995605e+00,1.085992455482482910e+00,1.085932016372680664e+00,1.085871696472167969e+00,1.085811376571655273e+00,1.085751056671142578e+00,9.048050642013549805e-01,9.157273769378662109e-01,1.085570096969604492e+00,1.085509777069091797e+00,1.085449457168579102e+00,1.085389137268066406e+00,1.085328817367553711e+00,1.085268616676330566e+00,1.085208296775817871e+00,1.085147976875305176e+00,1.085087776184082031e+00,1.085027575492858887e+00,1.084967255592346191e+00,1.084906935691833496e+00,1.084846854209899902e+00,1.084786534309387207e+00,1.084726333618164062e+00,1.084666132926940918e+00,1.084605932235717773e+00,1.084545612335205078e+00,1.084485530853271484e+00,1.084425330162048340e+00,1.084365129470825195e+00,1.084304928779602051e+00,1.084244728088378906e+00,1.084184527397155762e+00,1.084124445915222168e+00,1.084064245223999023e+00,8.052497506141662598e-01,7.934018969535827637e-01,7.833433747291564941e-01,7.729077339172363281e-01,7.628982663154602051e-01,7.574633955955505371e-01,7.565515041351318359e-01,7.524550557136535645e-01,7.545518279075622559e-01,1.083463191986083984e+00,1.083403110504150391e+00,1.083343029022216797e+00,1.083282947540283203e+00,1.083222866058349609e+00,1.083162784576416016e+00,1.083102822303771973e+00,1.083042740821838379e+00,1.082982778549194336e+00,1.082922697067260742e+00,1.082862615585327148e+00,1.082802653312683105e+00,1.082742691040039062e+00,1.082682609558105469e+00,1.082622647285461426e+00,1.082562685012817383e+00,1.082502722740173340e+00,1.082442760467529297e+00
1.021086096763610840e+00,1.021032929420471191e+00,1.020979642868041992e+00,1.020926475524902344e+00,1.020873308181762695e+00,1.020820140838623047e+00,1.020766854286193848e+00,1.020713567733764648e+00,1.020660161972045898e+00,1.020606875419616699e+00,1.020553588867187500e+00,1.020500302314758301e+00,1.020446896553039551e+00,1.020393729209899902e+00,1.020340323448181152e+00,1.020287036895751953e+00,1.020233869552612305e+00,1.020180583000183105e+00,1.020127296447753906e+00,1.020074009895324707e+00,1.020020723342895508e+00,1.019967555999755859e+00,1.019914269447326660e+00,1.019861102104187012e+00,1.019807815551757812e+00,1.019754648208618164e+00,1.019701361656188965e+00,1.019648194313049316e+00,1.019595026969909668e+00,1.019541740417480469e+00,1.019488573074340820e+00,1.019435405731201172e+00,1.019382238388061523e+00,1.019328951835632324e+00,1.019275903701782227e+00,1.019222617149353027e+00,1.019169449806213379e+00,1.019116282463073730e+00,1.019063234329223633e+00,1.019010066986083984e+00,1.018956899642944336e+00,1.018903732299804688e+00,1.018850564956665039e+00,1.018797516822814941e+00,1.018744349479675293e+00,1.018691301345825195e+00,1.018638134002685547e+00,1.018585085868835449e+00,1.018531918525695801e+00,1.018478870391845703e+00,1.018425822257995605e+00,1.018372654914855957e+00,1.018319606781005859e+00,7.994201779365539551e-01,7.897830009460449219e-01,7.807186245918273926e-01,7.708370685577392578e-01,7.627874612808227539e-01,7.538969516754150391e-01,7.511056661605834961e-01,7.460541129112243652e-01,7.423804998397827148e-01,7.428153753280639648e-01,1.017736077308654785e+00,1.017683148384094238e+00,1.017630100250244141e+00,1.017577171325683594e+00,1.017524123191833496e+00,1.017471075057983398e+00,1.017418146133422852e+00,1.017365217208862305e+00,1.017312169075012207e+00,1.017259240150451660e+00,1.017206311225891113e+00,1.017153263092041016e+00,1.017100334167480469e+00,1.017047405242919922e+00,1.016994476318359375e+00,1.016941547393798828e+00,1.016888618469238281e+00
9.625529050827026367e-01,9.625054001808166504e-01,9.624580740928649902e-01,9.624106884002685547e-01,9.623631834983825684e-01,9.623157978057861328e-01,9.622684717178344727e-01,9.622210264205932617e-01,9.621736407279968262e-01,9.621263146400451660e-01,9.620788693428039551e-01,9.620315432548522949e-01,9.619842171669006348e-01,9.619367718696594238e-01,9.618894457817077637e-01,9.618421196937561035e-01,9.617947340011596680e-01,9.617474079132080078e-01,9.617001414299011230e-01,9.616526961326599121e-01,9.616054296493530273e-01,9.615581631660461426e-01,9.615107178688049316e-01,9.614634513854980469e-01,9.614161849021911621e-01,9.613687992095947266e-01,9.613215327262878418e-01,9.612742662429809570e-01,9.612269401550292969e-01,9.611796736717224121e-01,9.611324071884155273e-01,9.610850811004638672e-01,9.610378742218017578e-01,9.609906077384948730e-01,9.609432816505432129e-01,9.608960747718811035e-01,9.608487486839294434e-01,9.608015418052673340e-01,9.607543349266052246e-01,9.607070088386535645e-01,9.606598019599914551e-01,9.606125950813293457e-01,9.605653285980224609e-01,9.605181217193603516e-01,9.604709744453430176e-01,9.604236483573913574e-01,9.603765010833740234e-01,9.603292942047119141e-01,9.602820277214050293e-01,9.602348804473876953e-01,9.601877331733703613e-01,9.601404666900634766e-01,9.600933194160461426e-01,7.971415519714355469e-01,7.876526117324829102e-01,7.788223028182983398e-01,7.712794542312622070e-01,7.635509371757507324e-01,7.549079656600952148e-01,7.466505169868469238e-01,7.424647808074951172e-01,7.357451319694519043e-01,7.324526309967041016e-01,7.311623692512512207e-01,9.595275521278381348e-01,9.594804644584655762e-01,9.594332575798034668e-01,9.593862295150756836e-01,9.593391418457031250e-01,9.592919349670410156e-01,9.592449069023132324e-01,9.591978192329406738e-01,9.591506719589233398e-01,9.591036438941955566e-01,9.590566158294677734e-01,9.590094685554504395e-01,9.589624404907226562e-01,9.589154124259948730e-01,9.588682651519775391e-01,9.588212370872497559e-01
9.103658795356750488e-01,9.103234410285949707e-01,9.102810621261596680e-01,9.102386236190795898e-01,9.101962447166442871e-01,9.101538658142089844e-01,9.101114273071289062e-01,9.100690484046936035e-01,9.100267291069030762e-01,9.099842309951782227e-01,9.099419116973876953e-01,9.098995923995971680e-01,9.098571538925170898e-01,9.098147749900817871e-01,9.097724556922912598e-01,9.097300171852111816e-01,9.096876978874206543e-01,9.096453785896301270e-01,9.096029996871948242e-01,9.095606803894042969e-01,9.095183610916137695e-01,9.094759821891784668e-01,9.094336628913879395e-01,9.093914031982421875e-01,9.093489646911621094e-01,9.093067049980163574e-01,9.092643857002258301e-01,9.092220067977905273e-01,9.091797471046447754e-01,9.091374874114990234e-01,9.090951085090637207e-01,9.090528488159179688e-01,9.090104699134826660e-01,9.089682698249816895e-01,9.089260101318359375e-01,9.088836312294006348e-01,9.088414311408996582e-01,9.087991714477539062e-01,9.087568521499633789e-01,9.087145924568176270e-01,9.086723923683166504e-01,9.086300730705261230e-01,9.085878133773803711e-01,9.085456132888793945e-01,9.085032939910888672e-01,9.084610939025878906e-01,9.084188938140869141e-01,9.083765745162963867e-01,9.083343744277954102e-01,9.082921743392944336e-01,9.082499146461486816e-01,9.082077145576477051e-01,9.081655740737915039e-01,7.988224029541015625e-01,7.870928049087524414e-01,7.782598137855529785e-01,7.713035941123962402e-01,7.655075788497924805e-01,7.579293847084045410e-01,7.498362064361572266e-01,7.417688965797424316e-01,7.328439354896545410e-01,7.263118624687194824e-01,7.223758101463317871e-01,7.195096611976623535e-01,7.217673063278198242e-01,9.075749516487121582e-01,9.075328111648559570e-01,9.074906110763549805e-01,9.074484705924987793e-01,9.074063897132873535e-01,9.073641896247863770e-01,9.073220491409301758e-01,9.072799682617187500e-01,9.072377681732177734e-01,9.071956872940063477e-01,9.071536064147949219e-01,9.071114063262939453e-01,9.070693254470825195e-01,9.070272445678710938e-01
8.635467290878295898e-01,8.635086417198181152e-01,8.634703755378723145e-01,8.634322881698608398e-01,8.633941411972045898e-01,8.633559346199035645e-01,8.633177876472473145e-01,8.632797002792358398e-01,8.632414937019348145e-01,8.632034063339233398e-01,8.631653189659118652e-01,8.631271123886108398e-01,8.630890250205993652e-01,8.630508780479431152e-01,8.630127310752868652e-01,8.629746437072753906e-01,8.629365563392639160e-01,8.628984093666076660e-01,8.628603219985961914e-01,8.628222346305847168e-01,8.627840876579284668e-01,8.627460002899169922e-01,8.627079129219055176e-01,8.626698255538940430e-01,8.626317381858825684e-01,8.625937104225158691e-01,8.625555634498596191e-01,8.625174760818481445e-01,8.624794483184814453e-01,8.624413013458251953e-01,8.624032735824584961e-01,8.623651862144470215e-01,8.623271584510803223e-01,8.622891306877136230e-01,8.622509837150573730e-01,8.622129559516906738e-01,8.621749281883239746e-01,8.621368408203125000e-01,8.620988726615905762e-01,8.620608448982238770e-01,8.620227575302124023e-01,8.619847297668457031e-01,8.619467616081237793e-01,8.619086742401123047e-01,8.618706464767456055e-01,8.618326783180236816e-01,8.617945909500122070e-01,8.617566227912902832e-01,8.617186546325683594e-01,8.616806268692016602e-01,8.616425991058349609e-01,8.616046309471130371e-01,8.615666031837463379e-01,8.615286350250244141e-01,8.614906668663024902e-01,7.858414053916931152e-01,7.783645987510681152e-01,7.727127671241760254e-01,7.617550492286682129e-01,7.522819638252258301e-01,7.446776628494262695e-01,7.363529801368713379e-01,7.239009737968444824e-01,7.151352167129516602e-01,7.115470170974731445e-01,7.078263163566589355e-01,7.076703310012817383e-01,8.609971404075622559e-01,8.609592318534851074e-01,8.609213232994079590e-01,8.608832955360412598e-01,8.608453869819641113e-01,8.608075380325317383e-01,8.607695102691650391e-01,8.607316613197326660e-01,8.606937527656555176e-01,8.606557846069335938e-01,8.606178760528564453e-01,8.605800271034240723e-01,8.605420589447021484e-01
8.213077783584594727e-01,8.212732076644897461e-01,8.212387561798095703e-01,8.212042450904846191e-01,8.211696743965148926e-01,8.211352229118347168e-01,8.211007118225097656e-01,8.210661411285400391e-01,8.210316896438598633e-01,8.209972381591796875e-01,8.209626674652099609e-01,8.209282159805297852e-01,8.208937644958496094e-01,8.208591938018798828e-01,8.208247423171997070e-01,8.207902908325195312e-01,8.207557797431945801e-01,8.207213282585144043e-01,8.206868767738342285e-01,8.206523656845092773e-01,8.206179141998291016e-01,8.205834627151489258e-01,8.205489516258239746e-01,8.205145001411437988e-01,8.204801082611083984e-01,8.204455971717834473e-01,8.204111456871032715e-01,8.203767538070678711e-01,8.203422427177429199e-01,8.203078508377075195e-01,8.202733397483825684e-01,8.202389478683471680e-01,8.202045559883117676e-01,8.201700448989868164e-01,8.201356530189514160e-01,8.201012611389160156e-01,8.200667500495910645e-01,8.200323581695556641e-01,8.199979662895202637e-01,8.199635148048400879e-01,8.199291229248046875e-01,8.198947906494140625e-01,8.198602795600891113e-01,8.198259472846984863e-01,8.197915554046630859e-01,8.197571039199829102e-01,8.197227716445922852e-01,8.196883797645568848e-01,8.196539282798767090e-01,8.196195960044860840e-01,8.195852637290954590e-01,8.195508122444152832e-01,8.195164799690246582e-01,8.194820880889892578e-01,8.194476962089538574e-01,8.194133639335632324e-01,8.193790316581726074e-01,8.193445801734924316e-01,8.193102478981018066e-01,8.192759156227111816e-01,8.192415237426757812e-01,8.192071914672851562e-01,7.275627255439758301e-01,7.131431698799133301e-01,7.052421569824218750e-01,7.007972002029418945e-01,6.976177692413330078e-01,6.951369643211364746e-01,6.930241584777832031e-01,7.075917720794677734e-01,8.188982009887695312e-01,8.188639283180236816e-01,8.188295364379882812e-01,8.187952637672424316e-01,8.187609910964965820e-01,8.187265992164611816e-01,8.186923265457153320e-01,8.186580538749694824e-01,8.186237215995788574e-01,8.185894489288330078e-01
7.830082178115844727e-01,7.829768657684326172e-01,7.829455137252807617e-01,7.829141020774841309e-01,7.828827500343322754e-01,7.828513979911804199e-01,7.828199863433837891e-01,7.827886343002319336e-01,7.827572822570800781e-01,7.827259302139282227e-01,7.826945781707763672e-01,7.826632261276245117e-01,7.826318144798278809e-01,7.826005220413208008e-01,7.825692296028137207e-01,7.825378179550170898e-01,7.825064659118652344e-01,7.824751734733581543e-01,7.824438214302062988e-01,7.824124693870544434e-01,7.823811769485473633e-01,7.823498249053955078e-01,7.823184728622436523e-01,7.822871804237365723e-01,7.822558283805847168e-01,7.822245359420776367e-01,7.821931838989257812e-01,7.821618914604187012e-01,7.821305990219116211e-01,7.820992469787597656e-01,7.820679545402526855e-01,7.820366621017456055e-01,7.820053100585937500e-01,7.819740772247314453e-01,7.819427847862243652e-01,7.819114327430725098e-01,7.818801999092102051e-01,7.818489074707031250e-01,7.818176150321960449e-01,7.817863225936889648e-01,7.817550897598266602e-01,7.817237377166748047e-01,7.816925048828125000e-01,7.816612720489501953e-01,7.816299200057983398e-01,7.815986871719360352e-01,7.815674543380737305e-01,7.815361618995666504e-01,7.815049290657043457e-01,7.814736366271972656e-01,7.814423441886901855e-01,7.814111113548278809e-01,7.813799381256103516e-01,7.813485860824584961e-01,7.813174128532409668e-01,7.812861800193786621e-01,7.812548875808715820e-01,7.812236547470092773e-01,7.811924815177917480e-01,7.811611890792846680e-01,7.811299562454223633e-01,7.810987830162048340e-01,7.810674905776977539e-01,7.197745442390441895e-01,7.036401033401489258e-01,6.971805691719055176e-01,6.925318241119384766e-01,6.889444589614868164e-01,6.844667196273803711e-01,6.807497143745422363e-01,6.819381713867187500e-01,7.807865738868713379e-01,7.807554006576538086e-01,7.807242274284362793e-01,7.806929945945739746e-01,7.806618213653564453e-01,7.806306481361389160e-01,7.805994153022766113e-01,7.805682420730590820e-01,7.805371284484863281e-01
7.481215000152587891e-01,7.480928897857666016e-01,7.480642199516296387e-01,7.480356097221374512e-01,7.480069994926452637e-01,7.479783296585083008e-01,7.479497194290161133e-01,7.479211091995239258e-01,7.478924393653869629e-01,7.478638291358947754e-01,7.478352189064025879e-01,7.478065490722656250e-01,7.477779388427734375e-01,7.477493286132812500e-01,7.477206587791442871e-01,7.476921081542968750e-01,7.476634979248046875e-01,7.476348280906677246e-01,7.476062774658203125e-01,7.475776672363281250e-01,7.475490570068359375e-01,7.475204467773437500e-01,7.474918961524963379e-01,7.474632263183593750e-01,7.474346756935119629e-01,7.474060654640197754e-01,7.473774552345275879e-01,7.473489046096801758e-01,7.473202943801879883e-01,7.472917437553405762e-01,7.472631335258483887e-01,7.472345232963562012e-01,7.472059726715087891e-01,7.471774220466613770e-01,7.471488118171691895e-01,7.471202611923217773e-01,7.470917105674743652e-01,7.470631003379821777e-01,7.470345497131347656e-01,7.470060586929321289e-01,7.469774484634399414e-01,7.469488978385925293e-01,7.469203472137451172e-01,7.468917369842529297e-01,7.468632459640502930e-01,7.468346953392028809e-01,7.468061447143554688e-01,7.467775940895080566e-01,7.467491030693054199e-01,7.467204928398132324e-01,7.466920018196105957e-01,7.466634511947631836e-01,7.466349005699157715e-01,7.466064095497131348e-01,7.465778589248657227e-01,7.465493083000183105e-01,7.465208172798156738e-01,7.464923262596130371e-01,7.464637160301208496e-01,7.464352250099182129e-01,7.464067339897155762e-01,7.463781833648681641e-01,7.463496923446655273e-01,7.463212013244628906e-01,7.462926506996154785e-01,6.962302327156066895e-01,6.926406025886535645e-01,6.877762675285339355e-01,6.813158988952636719e-01,6.753925681114196777e-01,6.712746620178222656e-01,6.694931387901306152e-01,6.693314313888549805e-01,7.460362315177917480e-01,7.460077404975891113e-01,7.459793090820312500e-01,7.459507584571838379e-01,7.459223270416259766e-01,7.458938360214233398e-01,7.458653450012207031e-01
7.162109613418579102e-01,7.161846756935119629e-01,7.161584496498107910e-01,7.161322236061096191e-01,7.161059379577636719e-01,7.160797119140625000e-01,7.160534858703613281e-01,7.160272002220153809e-01,7.160009741783142090e-01,7.159747481346130371e-01,7.159484624862670898e-01,7.159222960472106934e-01,7.158960700035095215e-01,7.158697843551635742e-01,7.158435583114624023e-01,7.158173918724060059e-01,7.157911062240600586e-01,7.157649397850036621e-01,7.157387137413024902e-01,7.157124280929565430e-01,7.156862616539001465e-01,7.156600952148437500e-01,7.156338095664978027e-01,7.156076431274414062e-01,7.155813574790954590e-01,7.155551910400390625e-01,7.155290246009826660e-01,7.155027389526367188e-01,7.154765725135803223e-01,7.154504060745239258e-01,7.154241800308227539e-01,7.153980135917663574e-01,7.153718471527099609e-01,7.153455615043640137e-01,7.153193950653076172e-01,7.152932286262512207e-01,7.152670025825500488e-01,7.152408957481384277e-01,7.152147293090820312e-01,7.151885032653808594e-01,7.151623368263244629e-01,7.151361703872680664e-01,7.151099443435668945e-01,7.150838375091552734e-01,7.150576710700988770e-01,7.150314450263977051e-01,7.150052785873413086e-01,7.149791717529296875e-01,7.149529457092285156e-01,7.149268388748168945e-01,7.149006724357604980e-01,7.148745059967041016e-01,7.148483395576477051e-01,7.148222327232360840e-01,7.147960066795349121e-01,7.147698998451232910e-01,7.147437930107116699e-01,7.147175669670104980e-01,7.146914601325988770e-01,7.146653532981872559e-01,7.146391868591308594e-01,7.146130204200744629e-01,7.145869135856628418e-01,7.145607471466064453e-01,7.145346403121948242e-01,7.145085334777832031e-01,7.144823670387268066e-01,7.144562602043151855e-01,7.144301533699035645e-01,6.769890785217285156e-01,6.705023050308227539e-01,6.664932370185852051e-01,6.674806475639343262e-01,7.142995595932006836e-01,7.142734527587890625e-01,7.142472863197326660e-01,7.142212390899658203e-01,7.141951322555541992e-01,7.141689658164978027e-01,7.141429185867309570e-01
