5.000000000000000000e+00,5.000000000000000000e+00,5.000000000000000000e+00,5.000000000000000000e+00,5.000000000000000000e+00,5.000000000000000000e+00,5.000000000000000000e+00,5.000000000000000000e+00,5.000000000000000000e+00,5.000000000000000000e+00,5.000000000000000000e+00,5.000000000000000000e+00,5.000000000000000000e+00,5.000000000000000000e+00,5.000000000000000000e+00,5.000000000000000000e+00,5.000000000000000000e+00,5.000000000000000000e+00,5.000000000000000000e+00,5.000000000000000000e+00,5.000000000000000000e+00,5.000000000000000000e+00,5.000000000000000000e+00,5.000000000000000000e+00,5.000000000000000000e+00,5.000000000000000000e+00,5.000000000000000000e+00,5.000000000000000000e+00,5.000000000000000000e+00,5.000000000000000000e+00,5.000000000000000000e+00,5.000000000000000000e+00,5.000000000000000000e+00,5.000000000000000000e+00,5.000000000000000000e+00,5.000000000000000000e+00,5.000000000000000000e+00,5.000000000000000000e+00,5.000000000000000000e+00,5.000000000000000000e+00,5.000000000000000000e+00,5.000000000000000000e+00,5.000000000000000000e+00,5.000000000000000000e+00,5.000000000000000000e+00,5.000000000000000000e+00,5.000000000000000000e+00,5.000000000000000000e+00,5.000000000000000000e+00,5.000000000000000000e+00,5.000000000000000000e+00,5.000000000000000000e+00,4.839718341827392578e+00,4.686280727386474609e+00,4.542273521423339844e+00,4.406852722167968750e+00,4.279273509979248047e+00,4.158872604370117188e+00,4.045061588287353516e+00,3.937314033508300781e+00,3.835157394409179688e+00,3.738168001174926758e+00,3.645962953567504883e+00,3.558197498321533203e+00,3.474557638168334961e+00,3.394759654998779297e+00,3.318545103073120117e+00,3.245676994323730469e+00,3.175940275192260742e+00,3.109146118164062500e+00,3.045104265213012695e+00,2.983647108078002930e+00,2.924621582031250000e+00,2.867886066436767578e+00,2.813309907913208008e+00,2.760772228240966797e+00,2.710160732269287109e+00,2.661371469497680664e+00,2.614308118820190430e+00,2.568876028060913086e+00
5.000000000000000000e+00,5.000000000000000000e+00,5.000000000000000000e+00,5.000000000000000000e+00,5.000000000000000000e+00,5.000000000000000000e+00,5.000000000000000000e+00,5.000000000000000000e+00,5.000000000000000000e+00,5.000000000000000000e+00,5.000000000000000000e+00,5.000000000000000000e+00,5.000000000000000000e+00,5.000000000000000000e+00,5.000000000000000000e+00,5.000000000000000000e+00,5.000000000000000000e+00,5.000000000000000000e+00,5.000000000000000000e+00,5.000000000000000000e+00,5.000000000000000000e+00,5.000000000000000000e+00,5.000000000000000000e+00,5.000000000000000000e+00,5.000000000000000000e+00,5.000000000000000000e+00,5.000000000000000000e+00,5.000000000000000000e+00,5.000000000000000000e+00,5.000000000000000000e+00,5.000000000000000000e+00,5.000000000000000000e+00,5.000000000000000000e+00,5.000000000000000000e+00,5.000000000000000000e+00,5.000000000000000000e+00,5.000000000000000000e+00,5.000000000000000000e+00,5.000000000000000000e+00,5.000000000000000000e+00,5.000000000000000000e+00,5.000000000000000000e+00,5.000000000000000000e+00,5.000000000000000000e+00,5.000000000000000000e+00,5.000000000000000000e+00,5.000000000000000000e+00,5.000000000000000000e+00,5.000000000000000000e+00,5.000000000000000000e+00,5.000000000000000000e+00,5.000000000000000000e+00,4.839835643768310547e+00,4.686390876770019531e+00,4.542376995086669922e+00,4.406949996948242188e+00,4.279365062713623047e+00,4.158959388732910156e+00,4.045144081115722656e+00,3.937391757965087891e+00,3.835231542587280273e+00,3.738238096237182617e+00,3.646029710769653320e+00,3.558260917663574219e+00,3.474618196487426758e+00,3.394819259643554688e+00,3.318612337112426758e+00,3.245751380920410156e+00,3.176020860671997070e+00,3.109223604202270508e+00,3.045178413391113281e+00,2.983718395233154297e+00,2.924690008163452148e+00,2.867951869964599609e+00,2.813373327255249023e+00,2.760833263397216797e+00,2.710213899612426758e+00,2.661416053771972656e+00,2.614344596862792969e+00,2.568909168243408203e+00
5.000000000000000000e+00,5.000000000000000000e+00,5.000000000000000000e+00,5.000000000000000000e+00,5.000000000000000000e+00,5.000000000000000000e+00,5.000000000000000000e+00,5.000000000000000000e+00,5.000000000000000000e+00,5.000000000000000000e+00,5.000000000000000000e+00,5.000000000000000000e+00,5.000000000000000000e+00,5.000000000000000000e+00,5.000000000000000000e+00,5.000000000000000000e+00,5.000000000000000000e+00,5.000000000000000000e+00,5.000000000000000000e+00,5.000000000000000000e+00,5.000000000000000000e+00,5.000000000000000000e+00,5.000000000000000000e+00,5.000000000000000000e+00,5.000000000000000000e+00,5.000000000000000000e+00,5.000000000000000000e+00,5.000000000000000000e+00,5.000000000000000000e+00,5.000000000000000000e+00,5.000000000000000000e+00,5.000000000000000000e+00,5.000000000000000000e+00,5.000000000000000000e+00,5.000000000000000000e+00,5.000000000000000000e+00,5.000000000000000000e+00,5.000000000000000000e+00,5.000000000000000000e+00,5.000000000000000000e+00,5.000000000000000000e+00,5.000000000000000000e+00,5.000000000000000000e+00,5.000000000000000000e+00,5.000000000000000000e+00,5.000000000000000000e+00,5.000000000000000000e+00,5.000000000000000000e+00,5.000000000000000000e+00,5.000000000000000000e+00,5.000000000000000000e+00,5.000000000000000000e+00,4.839953422546386719e+00,4.686501026153564453e+00,4.542480468750000000e+00,4.407047748565673828e+00,4.279457092285156250e+00,4.159046173095703125e+00,4.045225620269775391e+00,3.937469720840454102e+00,3.835304975509643555e+00,3.738307952880859375e+00,3.646101236343383789e+00,3.558340787887573242e+00,3.474705457687377930e+00,3.394911766052246094e+00,3.318700551986694336e+00,3.245835542678833008e+00,3.176101684570312500e+00,3.109301328659057617e+00,3.045252799987792969e+00,2.983789443969726562e+00,2.924758434295654297e+00,2.868010044097900391e+00,2.813421726226806641e+00,2.760872602462768555e+00,2.710250616073608398e+00,2.661451816558837891e+00,2.614378929138183594e+00,2.568942308425903320e+00
5.000000000000000000e+00,5.000000000000000000e+00,5.000000000000000000e+00,5.000000000000000000e+00,5.000000000000000000e+00,5.000000000000000000e+00,5.000000000000000000e+00,5.000000000000000000e+00,5.000000000000000000e+00,5.000000000000000000e+00,5.000000000000000000e+00,5.000000000000000000e+00,5.000000000000000000e+00,5.000000000000000000e+00,5.000000000000000000e+00,5.000000000000000000e+00,5.000000000000000000e+00,5.000000000000000000e+00,5.000000000000000000e+00,5.000000000000000000e+00,5.000000000000000000e+00,5.000000000000000000e+00,5.000000000000000000e+00,5.000000000000000000e+00,5.000000000000000000e+00,5.000000000000000000e+00,5.000000000000000000e+00,5.000000000000000000e+00,5.000000000000000000e+00,5.000000000000000000e+00,5.000000000000000000e+00,5.000000000000000000e+00,5.000000000000000000e+00,5.000000000000000000e+00,5.000000000000000000e+00,5.000000000000000000e+00,5.000000000000000000e+00,5.000000000000000000e+00,5.000000000000000000e+00,5.000000000000000000e+00,5.000000000000000000e+00,5.000000000000000000e+00,5.000000000000000000e+00,5.000000000000000000e+00,5.000000000000000000e+00,5.000000000000000000e+00,5.000000000000000000e+00,5.000000000000000000e+00,5.000000000000000000e+00,5.000000000000000000e+00,5.000000000000000000e+00,5.000000000000000000e+00,4.840070724487304688e+00,4.686611175537109375e+00,4.542583942413330078e+00,4.407145023345947266e+00,4.279548645019531250e+00,4.159132957458496094e+00,4.045308113098144531e+00,3.937556266784667969e+00,3.835400581359863281e+00,3.738412141799926758e+00,3.646207809448242188e+00,3.558441877365112305e+00,3.474802255630493164e+00,3.395004034042358398e+00,3.318788766860961914e+00,3.245919942855834961e+00,3.176182746887207031e+00,3.109376907348632812e+00,3.045316696166992188e+00,2.983842611312866211e+00,2.924801349639892578e+00,2.868051290512084961e+00,2.813461303710937500e+00,2.760910987854003906e+00,2.710287570953369141e+00,2.661487340927124023e+00,2.614413261413574219e+00,2.568975210189819336e+00
5.000000000000000000e+00,5.000000000000000000e+00,5.000000000000000000e+00,5.000000000000000000e+00,5.000000000000000000e+00,5.000000000000000000e+00,5.000000000000000000e+00,5.000000000000000000e+00,5.000000000000000000e+00,5.000000000000000000e+00,5.000000000000000000e+00,5.000000000000000000e+00,5.000000000000000000e+00,5.000000000000000000e+00,5.000000000000000000e+00,5.000000000000000000e+00,5.000000000000000000e+00,5.000000000000000000e+00,5.000000000000000000e+00,5.000000000000000000e+00,5.000000000000000000e+00,5.000000000000000000e+00,5.000000000000000000e+00,5.000000000000000000e+00,5.000000000000000000e+00,5.000000000000000000e+00,5.000000000000000000e+00,5.000000000000000000e+00,5.000000000000000000e+00,5.000000000000000000e+00,5.000000000000000000e+00,5.000000000000000000e+00,5.000000000000000000e+00,5.000000000000000000e+00,5.000000000000000000e+00,5.000000000000000000e+00,5.000000000000000000e+00,5.000000000000000000e+00,5.000000000000000000e+00,5.000000000000000000e+00,5.000000000000000000e+00,5.000000000000000000e+00,5.000000000000000000e+00,5.000000000000000000e+00,5.000000000000000000e+00,5.000000000000000000e+00,5.000000000000000000e+00,5.000000000000000000e+00,5.000000000000000000e+00,5.000000000000000000e+00,5.000000000000000000e+00,5.000000000000000000e+00,4.840188026428222656e+00,4.686721324920654297e+00,4.542687416076660156e+00,4.407242298126220703e+00,4.279654502868652344e+00,4.159248828887939453e+00,4.045433044433593750e+00,3.937680006027221680e+00,3.835518598556518555e+00,3.738524198532104492e+00,3.646314144134521484e+00,3.558543443679809570e+00,3.474899053573608398e+00,3.395096540451049805e+00,3.318873167037963867e+00,3.245990991592407227e+00,3.176240921020507812e+00,3.109425306320190430e+00,3.045363187789916992e+00,2.983887195587158203e+00,2.924844026565551758e+00,2.868092536926269531e+00,2.813501119613647461e+00,2.760949373245239258e+00,2.710324525833129883e+00,2.661522626876831055e+00,2.614447355270385742e+00,2.569008350372314453e+00
5.000000000000000000e+00,5.000000000000000000e+00,5.000000000000000000e+00,5.000000000000000000e+00,5.000000000000000000e+00,5.000000000000000000e+00,5.000000000000000000e+00,5.000000000000000000e+00,5.000000000000000000e+00,5.000000000000000000e+00,5.000000000000000000e+00,5.000000000000000000e+00,5.000000000000000000e+00,5.000000000000000000e+00,5.000000000000000000e+00,5.000000000000000000e+00,5.000000000000000000e+00,5.000000000000000000e+00,5.000000000000000000e+00,5.000000000000000000e+00,5.000000000000000000e+00,5.000000000000000000e+00,5.000000000000000000e+00,5.000000000000000000e+00,5.000000000000000000e+00,5.000000000000000000e+00,5.000000000000000000e+00,5.000000000000000000e+00,5.000000000000000000e+00,5.000000000000000000e+00,5.000000000000000000e+00,5.000000000000000000e+00,5.000000000000000000e+00,5.000000000000000000e+00,5.000000000000000000e+00,5.000000000000000000e+00,5.000000000000000000e+00,5.000000000000000000e+00,5.000000000000000000e+00,5.000000000000000000e+00,5.000000000000000000e+00,5.000000000000000000e+00,5.000000000000000000e+00,5.000000000000000000e+00,5.000000000000000000e+00,5.000000000000000000e+00,5.000000000000000000e+00,5.000000000000000000e+00,5.000000000000000000e+00,5.000000000000000000e+00,5.000000000000000000e+00,5.000000000000000000e+00,4.840305328369140625e+00,4.686851978302001953e+00,4.542829513549804688e+00,4.407394409179687500e+00,4.279800891876220703e+00,4.159387588500976562e+00,4.045563697814941406e+00,3.937804222106933594e+00,3.835636615753173828e+00,3.738635778427124023e+00,3.646420717239379883e+00,3.558638572692871094e+00,3.474978208541870117e+00,3.395161151885986328e+00,3.318928480148315430e+00,3.246043682098388672e+00,3.176291465759277344e+00,3.109473943710327148e+00,3.045409679412841797e+00,2.983932018280029297e+00,2.924887180328369141e+00,2.868133783340454102e+00,2.813540935516357422e+00,2.760987520217895508e+00,2.710361242294311523e+00,2.661558151245117188e+00,2.614481687545776367e+00,2.569041490554809570e+00
5.000000000000000000e+00,5.000000000000000000e+00,5.000000000000000000e+00,5.000000000000000000e+00,5.000000000000000000e+00,5.000000000000000000e+00,5.000000000000000000e+00,5.000000000000000000e+00,5.000000000000000000e+00,5.000000000000000000e+00,5.000000000000000000e+00,5.000000000000000000e+00,5.000000000000000000e+00,5.000000000000000000e+00,5.000000000000000000e+00,5.000000000000000000e+00,5.000000000000000000e+00,5.000000000000000000e+00,5.000000000000000000e+00,5.000000000000000000e+00,5.000000000000000000e+00,5.000000000000000000e+00,5.000000000000000000e+00,5.000000000000000000e+00,5.000000000000000000e+00,5.000000000000000000e+00,5.000000000000000000e+00,5.000000000000000000e+00,5.000000000000000000e+00,5.000000000000000000e+00,5.000000000000000000e+00,5.000000000000000000e+00,5.000000000000000000e+00,5.000000000000000000e+00,5.000000000000000000e+00,5.000000000000000000e+00,5.000000000000000000e+00,5.000000000000000000e+00,5.000000000000000000e+00,5.000000000000000000e+00,5.000000000000000000e+00,5.000000000000000000e+00,5.000000000000000000e+00,5.000000000000000000e+00,5.000000000000000000e+00,5.000000000000000000e+00,5.000000000000000000e+00,5.000000000000000000e+00,5.000000000000000000e+00,5.000000000000000000e+00,5.000000000000000000e+00,5.000000000000000000e+00,4.840493202209472656e+00,4.687027931213378906e+00,4.542994976043701172e+00,4.407549858093261719e+00,4.279947757720947266e+00,4.159525871276855469e+00,4.045694828033447266e+00,3.937928676605224609e+00,3.835743904113769531e+00,3.738725423812866211e+00,3.646493196487426758e+00,3.558701992034912109e+00,3.475038766860961914e+00,3.395218849182128906e+00,3.318983554840087891e+00,3.246096611022949219e+00,3.176342010498046875e+00,3.109522581100463867e+00,3.045456171035766602e+00,2.983976602554321289e+00,2.924930095672607422e+00,2.868175029754638672e+00,2.813580513000488281e+00,2.761025667190551758e+00,2.710397958755493164e+00,2.661593914031982422e+00,2.614516019821166992e+00,2.569074630737304688e+00
5.000000000000000000e+00,5.000000000000000000e+00,5.000000000000000000e+00,5.000000000000000000e+00,5.000000000000000000e+00,5.000000000000000000e+00,5.000000000000000000e+00,5.000000000000000000e+00,5.000000000000000000e+00,5.000000000000000000e+00,5.000000000000000000e+00,5.000000000000000000e+00,5.000000000000000000e+00,5.000000000000000000e+00,5.000000000000000000e+00,5.000000000000000000e+00,5.000000000000000000e+00,5.000000000000000000e+00,5.000000000000000000e+00,5.000000000000000000e+00,5.000000000000000000e+00,5.000000000000000000e+00,5.000000000000000000e+00,5.000000000000000000e+00,5.000000000000000000e+00,5.000000000000000000e+00,5.000000000000000000e+00,5.000000000000000000e+00,5.000000000000000000e+00,5.000000000000000000e+00,5.000000000000000000e+00,5.000000000000000000e+00,5.000000000000000000e+00,5.000000000000000000e+00,5.000000000000000000e+00,5.000000000000000000e+00,5.000000000000000000e+00,5.000000000000000000e+00,5.000000000000000000e+00,5.000000000000000000e+00,5.000000000000000000e+00,5.000000000000000000e+00,5.000000000000000000e+00,5.000000000000000000e+00,5.000000000000000000e+00,5.000000000000000000e+00,5.000000000000000000e+00,5.000000000000000000e+00,5.000000000000000000e+00,5.000000000000000000e+00,5.000000000000000000e+00,5.000000000000000000e+00,4.840681076049804688e+00,4.687203884124755859e+00,4.543159961700439453e+00,4.407705783843994141e+00,4.280094146728515625e+00,4.159649372100830078e+00,4.045796394348144531e+00,3.938010454177856445e+00,3.835818052291870117e+00,3.738795280456542969e+00,3.646559715270996094e+00,3.558765411376953125e+00,3.475099325180053711e+00,3.395276546478271484e+00,3.319038629531860352e+00,3.246149539947509766e+00,3.176392793655395508e+00,3.109570980072021484e+00,3.045502662658691406e+00,2.984021186828613281e+00,2.924972772598266602e+00,2.868216276168823242e+00,2.813620090484619141e+00,2.761064052581787109e+00,2.710434913635253906e+00,2.661629438400268555e+00,2.614550352096557617e+00,2.569107770919799805e+00
5.000000000000000000e+00,5.000000000000000000e+00,5.000000000000000000e+00,5.000000000000000000e+00,5.000000000000000000e+00,5.000000000000000000e+00,5.000000000000000000e+00,5.000000000000000000e+00,5.000000000000000000e+00,5.000000000000000000e+00,5.000000000000000000e+00,5.000000000000000000e+00,5.000000000000000000e+00,5.000000000000000000e+00,5.000000000000000000e+00,5.000000000000000000e+00,5.000000000000000000e+00,5.000000000000000000e+00,5.000000000000000000e+00,5.000000000000000000e+00,5.000000000000000000e+00,5.000000000000000000e+00,5.000000000000000000e+00,5.000000000000000000e+00,5.000000000000000000e+00,5.000000000000000000e+00,5.000000000000000000e+00,5.000000000000000000e+00,5.000000000000000000e+00,5.000000000000000000e+00,5.000000000000000000e+00,5.000000000000000000e+00,5.000000000000000000e+00,5.000000000000000000e+00,5.000000000000000000e+00,5.000000000000000000e+00,5.000000000000000000e+00,5.000000000000000000e+00,5.000000000000000000e+00,5.000000000000000000e+00,5.000000000000000000e+00,5.000000000000000000e+00,5.000000000000000000e+00,5.000000000000000000e+00,5.000000000000000000e+00,5.000000000000000000e+00,5.000000000000000000e+00,5.000000000000000000e+00,5.000000000000000000e+00,5.000000000000000000e+00,5.000000000000000000e+00,5.000000000000000000e+00,4.840868473052978516e+00,4.687377929687500000e+00,4.543304443359375000e+00,4.407822608947753906e+00,4.280187606811523438e+00,4.159736633300781250e+00,4.045878887176513672e+00,3.938088178634643555e+00,3.835891723632812500e+00,3.738865375518798828e+00,3.646626472473144531e+00,3.558828830718994141e+00,3.475159645080566406e+00,3.395334482192993164e+00,3.319094181060791016e+00,3.246202230453491211e+00,3.176443338394165039e+00,3.109619379043579102e+00,3.045549154281616211e+00,2.984065771102905273e+00,2.925015687942504883e+00,2.868257522583007812e+00,2.813659906387329102e+00,2.761102199554443359e+00,2.710471868515014648e+00,2.661664724349975586e+00,2.614584445953369141e+00,2.569140672683715820e+00
5.000000000000000000e+00,5.000000000000000000e+00,5.000000000000000000e+00,5.000000000000000000e+00,5.000000000000000000e+00,5.000000000000000000e+00,5.000000000000000000e+00,5.000000000000000000e+00,5.000000000000000000e+00,5.000000000000000000e+00,5.000000000000000000e+00,5.000000000000000000e+00,5.000000000000000000e+00,5.000000000000000000e+00,5.000000000000000000e+00,5.000000000000000000e+00,5.000000000000000000e+00,5.000000000000000000e+00,5.000000000000000000e+00,5.000000000000000000e+00,5.000000000000000000e+00,5.000000000000000000e+00,5.000000000000000000e+00,5.000000000000000000e+00,5.000000000000000000e+00,5.000000000000000000e+00,5.000000000000000000e+00,5.000000000000000000e+00,5.000000000000000000e+00,5.000000000000000000e+00,5.000000000000000000e+00,5.000000000000000000e+00,5.000000000000000000e+00,5.000000000000000000e+00,5.000000000000000000e+00,5.000000000000000000e+00,5.000000000000000000e+00,5.000000000000000000e+00,5.000000000000000000e+00,5.000000000000000000e+00,5.000000000000000000e+00,5.000000000000000000e+00,5.000000000000000000e+00,5.000000000000000000e+00,5.000000000000000000e+00,5.000000000000000000e+00,5.000000000000000000e+00,5.000000000000000000e+00,5.000000000000000000e+00,5.000000000000000000e+00,5.000000000000000000e+00,5.000000000000000000e+00,4.841006278991699219e+00,4.687488079071044922e+00,4.543407440185546875e+00,4.407920360565185547e+00,4.280279636383056641e+00,4.159822940826416016e+00,4.045960903167724609e+00,3.938165664672851562e+00,3.835965394973754883e+00,3.738935232162475586e+00,3.646692991256713867e+00,3.558892488479614258e+00,3.475220441818237305e+00,3.395392417907714844e+00,3.319149255752563477e+00,3.246255159378051758e+00,3.176493883132934570e+00,3.109667778015136719e+00,3.045595645904541016e+00,2.984110593795776367e+00,2.925058841705322266e+00,2.868298768997192383e+00,2.813699722290039062e+00,2.761140346527099609e+00,2.710508584976196289e+00,2.661700248718261719e+00,2.614618778228759766e+00,2.569174051284790039e+00
5.000000000000000000e+00,5.000000000000000000e+00,5.000000000000000000e+00,5.000000000000000000e+00,5.000000000000000000e+00,5.000000000000000000e+00,5.000000000000000000e+00,5.000000000000000000e+00,5.000000000000000000e+00,5.000000000000000000e+00,5.000000000000000000e+00,5.000000000000000000e+00,5.000000000000000000e+00,5.000000000000000000e+00,5.000000000000000000e+00,5.000000000000000000e+00,5.000000000000000000e+00,5.000000000000000000e+00,5.000000000000000000e+00,5.000000000000000000e+00,5.000000000000000000e+00,5.000000000000000000e+00,5.000000000000000000e+00,5.000000000000000000e+00,5.000000000000000000e+00,5.000000000000000000e+00,5.000000000000000000e+00,5.000000000000000000e+00,5.000000000000000000e+00,5.000000000000000000e+00,5.000000000000000000e+00,5.000000000000000000e+00,5.000000000000000000e+00,5.000000000000000000e+00,5.000000000000000000e+00,5.000000000000000000e+00,5.000000000000000000e+00,5.000000000000000000e+00,5.000000000000000000e+00,5.000000000000000000e+00,5.000000000000000000e+00,5.000000000000000000e+00,5.000000000000000000e+00,5.000000000000000000e+00,5.000000000000000000e+00,5.000000000000000000e+00,5.000000000000000000e+00,5.000000000000000000e+00,5.000000000000000000e+00,5.000000000000000000e+00,5.000000000000000000e+00,5.000000000000000000e+00,4.841123580932617188e+00,4.687598705291748047e+00,4.543511390686035156e+00,4.408017635345458984e+00,4.280371189117431641e+00,4.159910202026367188e+00,4.046042919158935547e+00,3.938243389129638672e+00,3.836039066314697266e+00,3.739005804061889648e+00,3.646759986877441406e+00,3.558955907821655273e+00,3.475281000137329102e+00,3.395450115203857422e+00,3.319204568862915039e+00,3.246307849884033203e+00,3.176544427871704102e+00,3.109716415405273438e+00,3.045642375946044922e+00,2.984155178070068359e+00,2.925101757049560547e+00,2.868340015411376953e+00,2.813739299774169922e+00,2.761178493499755859e+00,2.710545301437377930e+00,2.661736011505126953e+00,2.614653110504150391e+00,2.569206953048706055e+00
5.000000000000000000e+00,5.000000000000000000e+00,5.000000000000000000e+00,5.000000000000000000e+00,5.000000000000000000e+00,5.000000000000000000e+00,5.000000000000000000e+00,5.000000000000000000e+00,5.000000000000000000e+00,5.000000000000000000e+00,5.000000000000000000e+00,5.000000000000000000e+00,5.000000000000000000e+00,5.000000000000000000e+00,5.000000000000000000e+00,5.000000000000000000e+00,5.000000000000000000e+00,5.000000000000000000e+00,5.000000000000000000e+00,5.000000000000000000e+00,5.000000000000000000e+00,5.000000000000000000e+00,5.000000000000000000e+00,5.000000000000000000e+00,5.000000000000000000e+00,5.000000000000000000e+00,5.000000000000000000e+00,5.000000000000000000e+00,5.000000000000000000e+00,5.000000000000000000e+00,5.000000000000000000e+00,5.000000000000000000e+00,5.000000000000000000e+00,5.000000000000000000e+00,5.000000000000000000e+00,5.000000000000000000e+00,5.000000000000000000e+00,5.000000000000000000e+00,5.000000000000000000e+00,5.000000000000000000e+00,5.000000000000000000e+00,5.000000000000000000e+00,5.000000000000000000e+00,5.000000000000000000e+00,5.000000000000000000e+00,5.000000000000000000e+00,5.000000000000000000e+00,5.000000000000000000e+00,5.000000000000000000e+00,5.000000000000000000e+00,5.000000000000000000e+00,5.000000000000000000e+00,4.841241359710693359e+00,4.687708377838134766e+00,4.543614864349365234e+00,4.408115386962890625e+00,4.280463218688964844e+00,4.159996509552001953e+00,4.046124935150146484e+00,3.938321590423583984e+00,3.836113214492797852e+00,3.739075660705566406e+00,3.646826505661010742e+00,3.559019327163696289e+00,3.475341558456420898e+00,3.395507812500000000e+00,3.319259643554687500e+00,3.246361017227172852e+00,3.176595211029052734e+00,3.109764814376831055e+00,3.045688867568969727e+00,2.984199762344360352e+00,2.925144433975219727e+00,2.868381261825561523e+00,2.813778877258300781e+00,2.761216878890991211e+00,2.710582256317138672e+00,2.661771535873413086e+00,2.614687442779541016e+00,2.569240093231201172e+00
5.000000000000000000e+00,5.000000000000000000e+00,5.000000000000000000e+00,5.000000000000000000e+00,5.000000000000000000e+00,5.000000000000000000e+00,5.000000000000000000e+00,5.000000000000000000e+00,5.000000000000000000e+00,5.000000000000000000e+00,5.000000000000000000e+00,5.000000000000000000e+00,5.000000000000000000e+00,5.000000000000000000e+00,5.000000000000000000e+00,5.000000000000000000e+00,5.000000000000000000e+00,5.000000000000000000e+00,5.000000000000000000e+00,5.000000000000000000e+00,5.000000000000000000e+00,5.000000000000000000e+00,5.000000000000000000e+00,5.000000000000000000e+00,5.000000000000000000e+00,5.000000000000000000e+00,5.000000000000000000e+00,5.000000000000000000e+00,5.000000000000000000e+00,5.000000000000000000e+00,5.000000000000000000e+00,5.000000000000000000e+00,5.000000000000000000e+00,5.000000000000000000e+00,5.000000000000000000e+00,5.000000000000000000e+00,5.000000000000000000e+00,5.000000000000000000e+00,5.000000000000000000e+00,5.000000000000000000e+00,5.000000000000000000e+00,5.000000000000000000e+00,5.000000000000000000e+00,5.000000000000000000e+00,5.000000000000000000e+00,5.000000000000000000e+00,5.000000000000000000e+00,5.000000000000000000e+00,5.000000000000000000e+00,5.000000000000000000e+00,5.000000000000000000e+00,5.000000000000000000e+00,4.841358661651611328e+00,4.687819004058837891e+00,4.543718338012695312e+00,4.408212661743164062e+00,4.280555248260498047e+00,4.160083293914794922e+00,4.046206951141357422e+00,3.938399076461791992e+00,3.836186885833740234e+00,3.739145755767822266e+00,3.646893024444580078e+00,3.559082746505737305e+00,3.475401878356933594e+00,3.395565748214721680e+00,3.319315195083618164e+00,3.246413707733154297e+00,3.176645755767822266e+00,3.109813213348388672e+00,3.045735120773315430e+00,2.984244346618652344e+00,2.925187349319458008e+00,2.868422746658325195e+00,2.813818693161010742e+00,2.761255025863647461e+00,2.710619211196899414e+00,2.661806821823120117e+00,2.614721536636352539e+00,2.569273233413696289e+00
5.000000000000000000e+00,5.000000000000000000e+00,5.000000000000000000e+00,5.000000000000000000e+00,5.000000000000000000e+00,5.000000000000000000e+00,5.000000000000000000e+00,5.000000000000000000e+00,5.000000000000000000e+00,5.000000000000000000e+00,5.000000000000000000e+00,5.000000000000000000e+00,5.000000000000000000e+00,5.000000000000000000e+00,5.000000000000000000e+00,5.000000000000000000e+00,5.000000000000000000e+00,5.000000000000000000e+00,5.000000000000000000e+00,5.000000000000000000e+00,5.000000000000000000e+00,5.000000000000000000e+00,5.000000000000000000e+00,5.000000000000000000e+00,5.000000000000000000e+00,5.000000000000000000e+00,5.000000000000000000e+00,5.000000000000000000e+00,5.000000000000000000e+00,5.000000000000000000e+00,5.000000000000000000e+00,5.000000000000000000e+00,5.000000000000000000e+00,5.000000000000000000e+00,5.000000000000000000e+00,5.000000000000000000e+00,5.000000000000000000e+00,5.000000000000000000e+00,5.000000000000000000e+00,5.000000000000000000e+00,5.000000000000000000e+00,5.000000000000000000e+00,5.000000000000000000e+00,5.000000000000000000e+00,5.000000000000000000e+00,5.000000000000000000e+00,5.000000000000000000e+00,5.000000000000000000e+00,5.000000000000000000e+00,5.000000000000000000e+00,5.000000000000000000e+00,5.000000000000000000e+00,4.841476440429687500e+00,4.687928676605224609e+00,4.543821811676025391e+00,4.408309936523437500e+00,4.280647277832031250e+00,4.160170078277587891e+00,4.046288967132568359e+00,3.938476800918579102e+00,3.836260557174682617e+00,3.739215850830078125e+00,3.646959781646728516e+00,3.559146642684936523e+00,3.475462675094604492e+00,3.395623445510864258e+00,3.319370269775390625e+00,3.246466398239135742e+00,3.176696300506591797e+00,3.109861850738525391e+00,3.045781612396240234e+00,2.984289169311523438e+00,2.925230503082275391e+00,2.868463754653930664e+00,2.813858509063720703e+00,2.761293172836303711e+00,2.710655927658081055e+00,2.661842346191406250e+00,2.614755868911743164e+00,2.569306373596191406e+00
5.000000000000000000e+00,5.000000000000000000e+00,5.000000000000000000e+00,5.000000000000000000e+00,5.000000000000000000e+00,5.000000000000000000e+00,5.000000000000000000e+00,5.000000000000000000e+00,5.000000000000000000e+00,5.000000000000000000e+00,5.000000000000000000e+00,5.000000000000000000e+00,5.000000000000000000e+00,5.000000000000000000e+00,5.000000000000000000e+00,5.000000000000000000e+00,5.000000000000000000e+00,5.000000000000000000e+00,5.000000000000000000e+00,5.000000000000000000e+00,5.000000000000000000e+00,5.000000000000000000e+00,5.000000000000000000e+00,5.000000000000000000e+00,5.000000000000000000e+00,5.000000000000000000e+00,5.000000000000000000e+00,5.000000000000000000e+00,5.000000000000000000e+00,5.000000000000000000e+00,5.000000000000000000e+00,5.000000000000000000e+00,5.000000000000000000e+00,5.000000000000000000e+00,5.000000000000000000e+00,5.000000000000000000e+00,5.000000000000000000e+00,5.000000000000000000e+00,5.000000000000000000e+00,5.000000000000000000e+00,5.000000000000000000e+00,5.000000000000000000e+00,5.000000000000000000e+00,5.000000000000000000e+00,5.000000000000000000e+00,5.000000000000000000e+00,5.000000000000000000e+00,5.000000000000000000e+00,5.000000000000000000e+00,5.000000000000000000e+00,5.000000000000000000e+00,5.000000000000000000e+00,4.841598033905029297e+00,4.688041687011718750e+00,4.543926715850830078e+00,4.408408164978027344e+00,4.280738830566406250e+00,4.160256862640380859e+00,4.046371459960937500e+00,3.938554525375366211e+00,3.836334228515625000e+00,3.739286184310913086e+00,3.647026777267456055e+00,3.559210062026977539e+00,3.475523233413696289e+00,3.395681381225585938e+00,3.319425582885742188e+00,3.246519327163696289e+00,3.176746845245361328e+00,3.109910488128662109e+00,3.045828342437744141e+00,2.984333753585815430e+00,2.925273180007934570e+00,2.868505001068115234e+00,2.813898086547851562e+00,2.761331558227539062e+00,2.710692644119262695e+00,2.661878108978271484e+00,2.614790201187133789e+00,2.569339513778686523e+00
5.000000000000000000e+00,5.000000000000000000e+00,5.000000000000000000e+00,5.000000000000000000e+00,5.000000000000000000e+00,5.000000000000000000e+00,5.000000000000000000e+00,5.000000000000000000e+00,5.000000000000000000e+00,5.000000000000000000e+00,5.000000000000000000e+00,5.000000000000000000e+00,5.000000000000000000e+00,5.000000000000000000e+00,5.000000000000000000e+00,5.000000000000000000e+00,5.000000000000000000e+00,5.000000000000000000e+00,5.000000000000000000e+00,5.000000000000000000e+00,5.000000000000000000e+00,5.000000000000000000e+00,5.000000000000000000e+00,5.000000000000000000e+00,5.000000000000000000e+00,5.000000000000000000e+00,5.000000000000000000e+00,5.000000000000000000e+00,5.000000000000000000e+00,5.000000000000000000e+00,5.000000000000000000e+00,5.000000000000000000e+00,5.000000000000000000e+00,5.000000000000000000e+00,5.000000000000000000e+00,5.000000000000000000e+00,5.000000000000000000e+00,5.000000000000000000e+00,5.000000000000000000e+00,5.000000000000000000e+00,5.000000000000000000e+00,5.000000000000000000e+00,5.000000000000000000e+00,5.000000000000000000e+00,5.000000000000000000e+00,5.000000000000000000e+00,5.000000000000000000e+00,5.000000000000000000e+00,5.000000000000000000e+00,5.000000000000000000e+00,5.000000000000000000e+00,5.000000000000000000e+00,4.841725349426269531e+00,4.688161373138427734e+00,4.544039249420166016e+00,4.408513545989990234e+00,4.280838012695312500e+00,4.160349845886230469e+00,4.046458244323730469e+00,3.938636302947998047e+00,3.836410999298095703e+00,3.739357948303222656e+00,3.647094488143920898e+00,3.559273958206176758e+00,3.475583791732788086e+00,3.395739078521728516e+00,3.319480657577514648e+00,3.246572256088256836e+00,3.176797628402709961e+00,3.109958887100219727e+00,3.045874834060668945e+00,2.984378337860107422e+00,2.925316095352172852e+00,2.868546247482299805e+00,2.813937664031982422e+00,2.761369943618774414e+00,2.710729837417602539e+00,2.661913633346557617e+00,2.614824533462524414e+00,2.569372415542602539e+00
5.000000000000000000e+00,5.000000000000000000e+00,5.000000000000000000e+00,5.000000000000000000e+00,5.000000000000000000e+00,5.000000000000000000e+00,5.000000000000000000e+00,5.000000000000000000e+00,5.000000000000000000e+00,5.000000000000000000e+00,5.000000000000000000e+00,5.000000000000000000e+00,5.000000000000000000e+00,5.000000000000000000e+00,5.000000000000000000e+00,5.000000000000000000e+00,5.000000000000000000e+00,5.000000000000000000e+00,5.000000000000000000e+00,5.000000000000000000e+00,5.000000000000000000e+00,5.000000000000000000e+00,5.000000000000000000e+00,5.000000000000000000e+00,5.000000000000000000e+00,5.000000000000000000e+00,5.000000000000000000e+00,5.000000000000000000e+00,5.000000000000000000e+00,5.000000000000000000e+00,5.000000000000000000e+00,5.000000000000000000e+00,5.000000000000000000e+00,5.000000000000000000e+00,5.000000000000000000e+00,5.000000000000000000e+00,5.000000000000000000e+00,5.000000000000000000e+00,5.000000000000000000e+00,5.000000000000000000e+00,5.000000000000000000e+00,5.000000000000000000e+00,5.000000000000000000e+00,5.000000000000000000e+00,5.000000000000000000e+00,5.000000000000000000e+00,5.000000000000000000e+00,5.000000000000000000e+00,5.000000000000000000e+00,5.000000000000000000e+00,5.000000000000000000e+00,5.000000000000000000e+00,4.841853141784667969e+00,4.688281059265136719e+00,4.544151306152343750e+00,4.408618927001953125e+00,4.280937671661376953e+00,4.160443782806396484e+00,4.046547412872314453e+00,3.938720464706420898e+00,3.836490869522094727e+00,3.739434003829956055e+00,3.647166728973388672e+00,3.559342861175537109e+00,3.475649356842041016e+00,3.395801305770874023e+00,3.319539546966552734e+00,3.246627569198608398e+00,3.176850318908691406e+00,3.110008716583251953e+00,3.045922279357910156e+00,2.984423637390136719e+00,2.925359010696411133e+00,2.868587732315063477e+00,2.813977479934692383e+00,2.761408090591430664e+00,2.710766553878784180e+00,2.661948919296264648e+00,2.614858865737915039e+00,2.569405555725097656e+00
5.000000000000000000e+00,5.000000000000000000e+00,5.000000000000000000e+00,5.000000000000000000e+00,5.000000000000000000e+00,5.000000000000000000e+00,5.000000000000000000e+00,5.000000000000000000e+00,5.000000000000000000e+00,5.000000000000000000e+00,5.000000000000000000e+00,5.000000000000000000e+00,5.000000000000000000e+00,5.000000000000000000e+00,5.000000000000000000e+00,5.000000000000000000e+00,5.000000000000000000e+00,5.000000000000000000e+00,5.000000000000000000e+00,5.000000000000000000e+00,5.000000000000000000e+00,5.000000000000000000e+00,5.000000000000000000e+00,5.000000000000000000e+00,5.000000000000000000e+00,5.000000000000000000e+00,5.000000000000000000e+00,5.000000000000000000e+00,5.000000000000000000e+00,5.000000000000000000e+00,5.000000000000000000e+00,5.000000000000000000e+00,5.000000000000000000e+00,5.000000000000000000e+00,5.000000000000000000e+00,5.000000000000000000e+00,5.000000000000000000e+00,5.000000000000000000e+00,5.000000000000000000e+00,5.000000000000000000e+00,5.000000000000000000e+00,5.000000000000000000e+00,5.000000000000000000e+00,5.000000000000000000e+00,5.000000000000000000e+00,5.000000000000000000e+00,5.000000000000000000e+00,5.000000000000000000e+00,5.000000000000000000e+00,5.000000000000000000e+00,5.000000000000000000e+00,5.000000000000000000e+00,4.841980457305908203e+00,4.688400745391845703e+00,4.544263362884521484e+00,4.408724784851074219e+00,4.281037330627441406e+00,4.160538196563720703e+00,4.046636104583740234e+00,3.938804626464843750e+00,3.836571216583251953e+00,3.739510059356689453e+00,3.647239208221435547e+00,3.559411764144897461e+00,3.475714683532714844e+00,3.395863771438598633e+00,3.319599151611328125e+00,3.246685028076171875e+00,3.176904916763305664e+00,3.110061407089233398e+00,3.045972585678100586e+00,2.984471797943115234e+00,2.925405740737915039e+00,2.868631839752197266e+00,2.814019918441772461e+00,2.761448144912719727e+00,2.710804939270019531e+00,2.661985635757446289e+00,2.614893913269042969e+00,2.569439172744750977e+00
5.000000000000000000e+00,5.000000000000000000e+00,5.000000000000000000e+00,5.000000000000000000e+00,5.000000000000000000e+00,5.000000000000000000e+00,5.000000000000000000e+00,5.000000000000000000e+00,5.000000000000000000e+00,5.000000000000000000e+00,5.000000000000000000e+00,5.000000000000000000e+00,5.000000000000000000e+00,5.000000000000000000e+00,5.000000000000000000e+00,5.000000000000000000e+00,5.000000000000000000e+00,5.000000000000000000e+00,5.000000000000000000e+00,5.000000000000000000e+00,5.000000000000000000e+00,5.000000000000000000e+00,5.000000000000000000e+00,5.000000000000000000e+00,5.000000000000000000e+00,5.000000000000000000e+00,5.000000000000000000e+00,5.000000000000000000e+00,5.000000000000000000e+00,5.000000000000000000e+00,5.000000000000000000e+00,5.000000000000000000e+00,5.000000000000000000e+00,5.000000000000000000e+00,5.000000000000000000e+00,5.000000000000000000e+00,5.000000000000000000e+00,5.000000000000000000e+00,5.000000000000000000e+00,5.000000000000000000e+00,5.000000000000000000e+00,5.000000000000000000e+00,5.000000000000000000e+00,5.000000000000000000e+00,5.000000000000000000e+00,5.000000000000000000e+00,5.000000000000000000e+00,5.000000000000000000e+00,5.000000000000000000e+00,5.000000000000000000e+00,5.000000000000000000e+00,5.000000000000000000e+00,4.842107772827148438e+00,4.688519954681396484e+00,4.544375896453857422e+00,4.408830642700195312e+00,4.281136989593505859e+00,4.160632133483886719e+00,4.046725273132324219e+00,3.938889265060424805e+00,3.836651086807250977e+00,3.739586114883422852e+00,3.647311210632324219e+00,3.559480428695678711e+00,3.475780725479125977e+00,3.395926237106323242e+00,3.319659233093261719e+00,3.246742248535156250e+00,3.176959991455078125e+00,3.110113859176635742e+00,3.046023130416870117e+00,2.984520435333251953e+00,2.925451993942260742e+00,2.868676662445068359e+00,2.814062833786010742e+00,2.761489629745483398e+00,2.710844993591308594e+00,2.662024259567260742e+00,2.614931106567382812e+00,2.569474935531616211e+00
5.000000000000000000e+00,5.000000000000000000e+00,5.000000000000000000e+00,5.000000000000000000e+00,5.000000000000000000e+00,5.000000000000000000e+00,5.000000000000000000e+00,5.000000000000000000e+00,5.000000000000000000e+00,5.000000000000000000e+00,5.000000000000000000e+00,5.000000000000000000e+00,5.000000000000000000e+00,5.000000000000000000e+00,5.000000000000000000e+00,5.000000000000000000e+00,5.000000000000000000e+00,5.000000000000000000e+00,5.000000000000000000e+00,5.000000000000000000e+00,5.000000000000000000e+00,5.000000000000000000e+00,5.000000000000000000e+00,5.000000000000000000e+00,5.000000000000000000e+00,5.000000000000000000e+00,5.000000000000000000e+00,5.000000000000000000e+00,5.000000000000000000e+00,5.000000000000000000e+00,5.000000000000000000e+00,5.000000000000000000e+00,5.000000000000000000e+00,5.000000000000000000e+00,5.000000000000000000e+00,5.000000000000000000e+00,5.000000000000000000e+00,5.000000000000000000e+00,5.000000000000000000e+00,5.000000000000000000e+00,5.000000000000000000e+00,5.000000000000000000e+00,5.000000000000000000e+00,5.000000000000000000e+00,5.000000000000000000e+00,5.000000000000000000e+00,5.000000000000000000e+00,5.000000000000000000e+00,5.000000000000000000e+00,5.000000000000000000e+00,5.000000000000000000e+00,5.000000000000000000e+00,4.842235088348388672e+00,4.688639163970947266e+00,4.544487953186035156e+00,4.408936500549316406e+00,4.281236648559570312e+00,4.160726070404052734e+00,4.046813964843750000e+00,3.938973426818847656e+00,3.836731195449829102e+00,3.739662170410156250e+00,3.647383451461791992e+00,3.559549570083618164e+00,3.475846290588378906e+00,3.395989179611206055e+00,3.319719076156616211e+00,3.246799468994140625e+00,3.177014827728271484e+00,3.110166311264038086e+00,3.046073675155639648e+00,2.984568834304809570e+00,2.925498723983764648e+00,2.868721246719360352e+00,2.814105749130249023e+00,2.761531114578247070e+00,2.710884809494018555e+00,2.662062883377075195e+00,2.614968299865722656e+00,2.569510698318481445e+00
5.000000000000000000e+00,5.000000000000000000e+00,5.000000000000000000e+00,5.000000000000000000e+00,5.000000000000000000e+00,5.000000000000000000e+00,5.000000000000000000e+00,5.000000000000000000e+00,5.000000000000000000e+00,5.000000000000000000e+00,5.000000000000000000e+00,5.000000000000000000e+00,5.000000000000000000e+00,5.000000000000000000e+00,5.000000000000000000e+00,5.000000000000000000e+00,5.000000000000000000e+00,5.000000000000000000e+00,5.000000000000000000e+00,5.000000000000000000e+00,5.000000000000000000e+00,5.000000000000000000e+00,5.000000000000000000e+00,5.000000000000000000e+00,5.000000000000000000e+00,5.000000000000000000e+00,5.000000000000000000e+00,5.000000000000000000e+00,5.000000000000000000e+00,5.000000000000000000e+00,5.000000000000000000e+00,5.000000000000000000e+00,5.000000000000000000e+00,5.000000000000000000e+00,5.000000000000000000e+00,5.000000000000000000e+00,5.000000000000000000e+00,5.000000000000000000e+00,5.000000000000000000e+00,5.000000000000000000e+00,5.000000000000000000e+00,5.000000000000000000e+00,5.000000000000000000e+00,5.000000000000000000e+00,5.000000000000000000e+00,5.000000000000000000e+00,5.000000000000000000e+00,5.000000000000000000e+00,5.000000000000000000e+00,5.000000000000000000e+00,5.000000000000000000e+00,5.000000000000000000e+00,4.842362880706787109e+00,4.688758850097656250e+00,4.544600486755371094e+00,4.409041881561279297e+00,4.281336307525634766e+00,4.160820007324218750e+00,4.046903133392333984e+00,3.939057826995849609e+00,3.836811065673828125e+00,3.739737987518310547e+00,3.647455930709838867e+00,3.559618234634399414e+00,3.475912094116210938e+00,3.396051883697509766e+00,3.319778919219970703e+00,3.246856927871704102e+00,3.177069425582885742e+00,3.110219240188598633e+00,3.046123981475830078e+00,2.984617233276367188e+00,2.925545215606689453e+00,2.868766069412231445e+00,2.814148902893066406e+00,2.761572599411010742e+00,2.710924863815307617e+00,2.662101268768310547e+00,2.615005254745483398e+00,2.569546937942504883e+00
5.000000000000000000e+00,5.000000000000000000e+00,5.000000000000000000e+00,5.000000000000000000e+00,5.000000000000000000e+00,5.000000000000000000e+00,5.000000000000000000e+00,5.000000000000000000e+00,5.000000000000000000e+00,5.000000000000000000e+00,5.000000000000000000e+00,5.000000000000000000e+00,5.000000000000000000e+00,5.000000000000000000e+00,5.000000000000000000e+00,5.000000000000000000e+00,5.000000000000000000e+00,5.000000000000000000e+00,5.000000000000000000e+00,5.000000000000000000e+00,5.000000000000000000e+00,5.000000000000000000e+00,5.000000000000000000e+00,5.000000000000000000e+00,5.000000000000000000e+00,5.000000000000000000e+00,5.000000000000000000e+00,5.000000000000000000e+00,5.000000000000000000e+00,5.000000000000000000e+00,5.000000000000000000e+00,5.000000000000000000e+00,5.000000000000000000e+00,5.000000000000000000e+00,5.000000000000000000e+00,5.000000000000000000e+00,5.000000000000000000e+00,5.000000000000000000e+00,5.000000000000000000e+00,5.000000000000000000e+00,5.000000000000000000e+00,5.000000000000000000e+00,5.000000000000000000e+00,5.000000000000000000e+00,5.000000000000000000e+00,5.000000000000000000e+00,5.000000000000000000e+00,5.000000000000000000e+00,5.000000000000000000e+00,5.000000000000000000e+00,5.000000000000000000e+00,5.000000000000000000e+00,4.842490196228027344e+00,4.688878536224365234e+00,4.544712543487548828e+00,4.409147262573242188e+00,4.281435966491699219e+00,4.160914421081542969e+00,4.046992301940917969e+00,3.939142227172851562e+00,3.836890935897827148e+00,3.739814281463623047e+00,3.647528171539306641e+00,3.559687376022338867e+00,3.475977659225463867e+00,3.396114349365234375e+00,3.319839000701904297e+00,3.246914148330688477e+00,3.177124500274658203e+00,3.110271692276000977e+00,3.046174287796020508e+00,2.984665632247924805e+00,2.925591468811035156e+00,2.868810892105102539e+00,2.814191818237304688e+00,2.761614084243774414e+00,2.710964679718017578e+00,2.662139654159545898e+00,2.615042686462402344e+00,2.569582700729370117e+00
5.000000000000000000e+00,5.000000000000000000e+00,5.000000000000000000e+00,5.000000000000000000e+00,5.000000000000000000e+00,5.000000000000000000e+00,5.000000000000000000e+00,5.000000000000000000e+00,5.000000000000000000e+00,5.000000000000000000e+00,5.000000000000000000e+00,5.000000000000000000e+00,5.000000000000000000e+00,5.000000000000000000e+00,5.000000000000000000e+00,5.000000000000000000e+00,5.000000000000000000e+00,5.000000000000000000e+00,5.000000000000000000e+00,5.000000000000000000e+00,5.000000000000000000e+00,5.000000000000000000e+00,5.000000000000000000e+00,5.000000000000000000e+00,5.000000000000000000e+00,5.000000000000000000e+00,5.000000000000000000e+00,5.000000000000000000e+00,5.000000000000000000e+00,5.000000000000000000e+00,5.000000000000000000e+00,5.000000000000000000e+00,5.000000000000000000e+00,5.000000000000000000e+00,5.000000000000000000e+00,5.000000000000000000e+00,5.000000000000000000e+00,5.000000000000000000e+00,5.000000000000000000e+00,5.000000000000000000e+00,5.000000000000000000e+00,5.000000000000000000e+00,5.000000000000000000e+00,5.000000000000000000e+00,5.000000000000000000e+00,5.000000000000000000e+00,5.000000000000000000e+00,5.000000000000000000e+00,5.000000000000000000e+00,5.000000000000000000e+00,5.000000000000000000e+00,5.000000000000000000e+00,4.842617988586425781e+00,4.688997745513916016e+00,4.544825077056884766e+00,4.409253120422363281e+00,4.281535625457763672e+00,4.161008358001708984e+00,4.047081470489501953e+00,3.939226388931274414e+00,3.836971282958984375e+00,3.739890098571777344e+00,3.647600650787353516e+00,3.559756040573120117e+00,3.476043224334716797e+00,3.396177291870117188e+00,3.319898843765258789e+00,3.246971607208251953e+00,3.177179336547851562e+00,3.110324144363403320e+00,3.046224832534790039e+00,2.984714031219482422e+00,2.925638198852539062e+00,2.868855476379394531e+00,2.814234972000122070e+00,2.761655569076538086e+00,2.711004495620727539e+00,2.662178277969360352e+00,2.615079641342163086e+00,2.569618701934814453e+00
5.000000000000000000e+00,5.000000000000000000e+00,5.000000000000000000e+00,5.000000000000000000e+00,5.000000000000000000e+00,5.000000000000000000e+00,5.000000000000000000e+00,5.000000000000000000e+00,5.000000000000000000e+00,5.000000000000000000e+00,5.000000000000000000e+00,5.000000000000000000e+00,5.000000000000000000e+00,5.000000000000000000e+00,5.000000000000000000e+00,5.000000000000000000e+00,5.000000000000000000e+00,5.000000000000000000e+00,5.000000000000000000e+00,5.000000000000000000e+00,5.000000000000000000e+00,5.000000000000000000e+00,5.000000000000000000e+00,5.000000000000000000e+00,5.000000000000000000e+00,5.000000000000000000e+00,5.000000000000000000e+00,5.000000000000000000e+00,5.000000000000000000e+00,5.000000000000000000e+00,5.000000000000000000e+00,5.000000000000000000e+00,5.000000000000000000e+00,5.000000000000000000e+00,5.000000000000000000e+00,5.000000000000000000e+00,5.000000000000000000e+00,5.000000000000000000e+00,5.000000000000000000e+00,5.000000000000000000e+00,5.000000000000000000e+00,5.000000000000000000e+00,5.000000000000000000e+00,5.000000000000000000e+00,5.000000000000000000e+00,5.000000000000000000e+00,5.000000000000000000e+00,5.000000000000000000e+00,5.000000000000000000e+00,5.000000000000000000e+00,5.000000000000000000e+00,5.000000000000000000e+00,4.842744827270507812e+00,4.689117431640625000e+00,4.544937133789062500e+00,4.409358978271484375e+00,4.281635284423828125e+00,4.161102294921875000e+00,4.047170162200927734e+00,3.939310789108276367e+00,3.837051153182983398e+00,3.739966392517089844e+00,3.647672891616821289e+00,3.559824705123901367e+00,3.476109027862548828e+00,3.396239757537841797e+00,3.319958925247192383e+00,3.247028827667236328e+00,3.177234172821044922e+00,3.110376834869384766e+00,3.046275138854980469e+00,2.984762430191040039e+00,2.925684690475463867e+00,2.868900060653686523e+00,2.814278125762939453e+00,2.761696815490722656e+00,2.711044788360595703e+00,2.662216901779174805e+00,2.615117073059082031e+00,2.569654464721679688e+00
5.000000000000000000e+00,5.000000000000000000e+00,5.000000000000000000e+00,5.000000000000000000e+00,5.000000000000000000e+00,5.000000000000000000e+00,5.000000000000000000e+00,5.000000000000000000e+00,5.000000000000000000e+00,5.000000000000000000e+00,5.000000000000000000e+00,5.000000000000000000e+00,5.000000000000000000e+00,5.000000000000000000e+00,5.000000000000000000e+00,5.000000000000000000e+00,5.000000000000000000e+00,5.000000000000000000e+00,5.000000000000000000e+00,5.000000000000000000e+00,5.000000000000000000e+00,5.000000000000000000e+00,5.000000000000000000e+00,5.000000000000000000e+00,5.000000000000000000e+00,5.000000000000000000e+00,5.000000000000000000e+00,5.000000000000000000e+00,5.000000000000000000e+00,5.000000000000000000e+00,5.000000000000000000e+00,5.000000000000000000e+00,5.000000000000000000e+00,5.000000000000000000e+00,5.000000000000000000e+00,5.000000000000000000e+00,5.000000000000000000e+00,5.000000000000000000e+00,5.000000000000000000e+00,5.000000000000000000e+00,5.000000000000000000e+00,5.000000000000000000e+00,5.000000000000000000e+00,5.000000000000000000e+00,5.000000000000000000e+00,5.000000000000000000e+00,5.000000000000000000e+00,5.000000000000000000e+00,5.000000000000000000e+00,5.000000000000000000e+00,5.000000000000000000e+00,5.000000000000000000e+00,4.842872619628906250e+00,4.689236640930175781e+00,4.545049667358398438e+00,4.409464836120605469e+00,4.281734943389892578e+00,4.161196708679199219e+00,4.047259330749511719e+00,3.939394950866699219e+00,3.837131500244140625e+00,3.740042209625244141e+00,3.647745132446289062e+00,3.559893846511840820e+00,3.476174592971801758e+00,3.396302700042724609e+00,3.320018529891967773e+00,3.247086048126220703e+00,3.177289247512817383e+00,3.110429286956787109e+00,3.046325922012329102e+00,2.984810829162597656e+00,2.925731182098388672e+00,2.868945121765136719e+00,2.814321041107177734e+00,2.761738538742065430e+00,2.711084604263305664e+00,2.662255525588989258e+00,2.615154027938842773e+00,2.569690227508544922e+00
5.000000000000000000e+00,5.000000000000000000e+00,5.000000000000000000e+00,5.000000000000000000e+00,5.000000000000000000e+00,5.000000000000000000e+00,5.000000000000000000e+00,5.000000000000000000e+00,5.000000000000000000e+00,5.000000000000000000e+00,5.000000000000000000e+00,5.000000000000000000e+00,5.000000000000000000e+00,5.000000000000000000e+00,5.000000000000000000e+00,5.000000000000000000e+00,5.000000000000000000e+00,5.000000000000000000e+00,5.000000000000000000e+00,5.000000000000000000e+00,5.000000000000000000e+00,5.000000000000000000e+00,5.000000000000000000e+00,5.000000000000000000e+00,5.000000000000000000e+00,5.000000000000000000e+00,5.000000000000000000e+00,5.000000000000000000e+00,5.000000000000000000e+00,5.000000000000000000e+00,5.000000000000000000e+00,5.000000000000000000e+00,5.000000000000000000e+00,5.000000000000000000e+00,5.000000000000000000e+00,5.000000000000000000e+00,5.000000000000000000e+00,5.000000000000000000e+00,5.000000000000000000e+00,5.000000000000000000e+00,5.000000000000000000e+00,5.000000000000000000e+00,5.000000000000000000e+00,5.000000000000000000e+00,5.000000000000000000e+00,5.000000000000000000e+00,5.000000000000000000e+00,5.000000000000000000e+00,5.000000000000000000e+00,5.000000000000000000e+00,5.000000000000000000e+00,5.000000000000000000e+00,4.842999935150146484e+00,4.689356327056884766e+00,4.545161724090576172e+00,4.409570217132568359e+00,4.281834602355957031e+00,4.161290645599365234e+00,4.047348499298095703e+00,3.939479589462280273e+00,3.837211370468139648e+00,3.740118026733398438e+00,3.647817611694335938e+00,3.559962749481201172e+00,3.476240396499633789e+00,3.396365165710449219e+00,3.320078372955322266e+00,3.247143507003784180e+00,3.177343845367431641e+00,3.110482215881347656e+00,3.046376228332519531e+00,2.984859228134155273e+00,2.925777673721313477e+00,2.868989706039428711e+00,2.814364194869995117e+00,2.761779785156250000e+00,2.711124658584594727e+00,2.662293910980224609e+00,2.615191221237182617e+00,2.569726228713989258e+00
5.000000000000000000e+00,5.000000000000000000e+00,5.000000000000000000e+00,5.000000000000000000e+00,5.000000000000000000e+00,5.000000000000000000e+00,5.000000000000000000e+00,5.000000000000000000e+00,5.000000000000000000e+00,5.000000000000000000e+00,5.000000000000000000e+00,5.000000000000000000e+00,5.000000000000000000e+00,5.000000000000000000e+00,5.000000000000000000e+00,5.000000000000000000e+00,5.000000000000000000e+00,5.000000000000000000e+00,5.000000000000000000e+00,5.000000000000000000e+00,5.000000000000000000e+00,5.000000000000000000e+00,5.000000000000000000e+00,5.000000000000000000e+00,5.000000000000000000e+00,5.000000000000000000e+00,5.000000000000000000e+00,5.000000000000000000e+00,5.000000000000000000e+00,5.000000000000000000e+00,5.000000000000000000e+00,5.000000000000000000e+00,5.000000000000000000e+00,5.000000000000000000e+00,5.000000000000000000e+00,5.000000000000000000e+00,5.000000000000000000e+00,5.000000000000000000e+00,5.000000000000000000e+00,5.000000000000000000e+00,5.000000000000000000e+00,5.000000000000000000e+00,5.000000000000000000e+00,5.000000000000000000e+00,5.000000000000000000e+00,5.000000000000000000e+00,5.000000000000000000e+00,5.000000000000000000e+00,5.000000000000000000e+00,5.000000000000000000e+00,5.000000000000000000e+00,5.000000000000000000e+00,4.843127727508544922e+00,4.689476013183593750e+00,4.545273780822753906e+00,4.409676074981689453e+00,4.281934261322021484e+00,4.161385059356689453e+00,4.047437191009521484e+00,3.939563989639282227e+00,3.837291240692138672e+00,3.740194320678710938e+00,3.647889852523803711e+00,3.560031890869140625e+00,3.476305961608886719e+00,3.396427869796752930e+00,3.320138454437255859e+00,3.247200727462768555e+00,3.177398920059204102e+00,3.110534667968750000e+00,3.046426534652709961e+00,2.984907865524291992e+00,2.925824165344238281e+00,2.869034528732299805e+00,2.814407110214233398e+00,2.761821269989013672e+00,2.711164474487304688e+00,2.662332296371459961e+00,2.615228414535522461e+00,2.569762229919433594e+00
5.000000000000000000e+00,5.000000000000000000e+00,5.000000000000000000e+00,5.000000000000000000e+00,5.000000000000000000e+00,5.000000000000000000e+00,5.000000000000000000e+00,5.000000000000000000e+00,5.000000000000000000e+00,5.000000000000000000e+00,5.000000000000000000e+00,5.000000000000000000e+00,5.000000000000000000e+00,5.000000000000000000e+00,5.000000000000000000e+00,5.000000000000000000e+00,5.000000000000000000e+00,5.000000000000000000e+00,5.000000000000000000e+00,5.000000000000000000e+00,5.000000000000000000e+00,5.000000000000000000e+00,5.000000000000000000e+00,5.000000000000000000e+00,5.000000000000000000e+00,5.000000000000000000e+00,5.000000000000000000e+00,5.000000000000000000e+00,5.000000000000000000e+00,5.000000000000000000e+00,5.000000000000000000e+00,5.000000000000000000e+00,5.000000000000000000e+00,5.000000000000000000e+00,5.000000000000000000e+00,5.000000000000000000e+00,5.000000000000000000e+00,5.000000000000000000e+00,5.000000000000000000e+00,5.000000000000000000e+00,5.000000000000000000e+00,5.000000000000000000e+00,5.000000000000000000e+00,5.000000000000000000e+00,5.000000000000000000e+00,5.000000000000000000e+00,5.000000000000000000e+00,5.000000000000000000e+00,5.000000000000000000e+00,5.000000000000000000e+00,5.000000000000000000e+00,5.000000000000000000e+00,4.843255043029785156e+00,4.689595222473144531e+00,4.545386314392089844e+00,4.409781455993652344e+00,4.282033920288085938e+00,4.161478996276855469e+00,4.047526359558105469e+00,3.939648151397705078e+00,3.837371349334716797e+00,3.740270137786865234e+00,3.647962331771850586e+00,3.560100555419921875e+00,3.476371526718139648e+00,3.396490812301635742e+00,3.320198297500610352e+00,3.247258186340332031e+00,3.177453756332397461e+00,3.110587120056152344e+00,3.046477079391479492e+00,2.984956026077270508e+00,2.925870895385742188e+00,2.869079113006591797e+00,2.814450025558471680e+00,2.761862754821777344e+00,2.711204290390014648e+00,2.662370920181274414e+00,2.615265607833862305e+00,2.569798231124877930e+00
4.874251842498779297e+00,4.873039722442626953e+00,4.871828079223632812e+00,4.870617389678955078e+00,4.869407653808593750e+00,4.868197917938232422e+00,4.866989135742187500e+00,4.865780830383300781e+00,4.864573001861572266e+00,4.863366127014160156e+00,4.862159252166748047e+00,4.860953330993652344e+00,4.859747886657714844e+00,4.858543395996093750e+00,4.857339382171630859e+00,4.856135845184326172e+00,4.854932785034179688e+00,4.853730678558349609e+00,4.852528572082519531e+00,4.851327419281005859e+00,4.850127220153808594e+00,4.848927021026611328e+00,4.847727775573730469e+00,4.846529006958007812e+00,4.845331192016601562e+00,4.844133377075195312e+00,4.842936515808105469e+00,4.841739654541015625e+00,4.840543746948242188e+00,4.839348793029785156e+00,4.838154315948486328e+00,4.836960315704345703e+00,4.835766792297363281e+00,4.834573745727539062e+00,4.833381652832031250e+00,4.832190036773681641e+00,4.830998420715332031e+00,4.829808235168457031e+00,4.828618049621582031e+00,4.827428817749023438e+00,4.826240062713623047e+00,4.825052261352539062e+00,4.823864459991455078e+00,4.822677612304687500e+00,4.821490764617919922e+00,4.820304870605468750e+00,4.819119930267333984e+00,4.817934989929199219e+00,4.816751003265380859e+00,4.815567493438720703e+00,4.814384937286376953e+00,4.813202381134033203e+00,4.812020301818847656e+00,4.689714908599853516e+00,4.545498847961425781e+00,4.409887313842773438e+00,4.282133579254150391e+00,4.161572933197021484e+00,4.047615528106689453e+00,3.939732789993286133e+00,3.837451219558715820e+00,3.740346670150756836e+00,3.648034572601318359e+00,3.560169219970703125e+00,3.476437568664550781e+00,3.396553277969360352e+00,3.320258378982543945e+00,3.247315406799316406e+00,3.177508354187011719e+00,3.110639810562133789e+00,3.046527385711669922e+00,2.985004663467407227e+00,2.925917387008666992e+00,2.869123935699462891e+00,2.814493417739868164e+00,2.761904239654541016e+00,2.711244344711303711e+00,2.662409543991088867e+00,2.615302562713623047e+00,2.569833993911743164e+00
3.777684450149536133e+00,3.776956319808959961e+00,3.776228666305541992e+00,3.775501251220703125e+00,3.774774074554443359e+00,3.774047374725341797e+00,3.773320674896240234e+00,3.772594451904296875e+00,3.771868228912353516e+00,3.771142721176147461e+00,3.770417213439941406e+00,3.769691944122314453e+00,3.768967151641845703e+00,3.768242359161376953e+00,3.767518043518066406e+00,3.766793966293334961e+00,3.766069889068603516e+00,3.765346288681030273e+00,3.764622926712036133e+00,3.763900041580200195e+00,3.763177394866943359e+00,3.762454986572265625e+00,3.761732816696166992e+00,3.761011123657226562e+00,3.760289430618286133e+00,3.759568214416503906e+00,3.758847236633300781e+00,3.758126497268676758e+00,3.757405996322631836e+00,3.756685733795166016e+00,3.755965948104858398e+00,3.755246162414550781e+00,3.754526853561401367e+00,3.753807783126831055e+00,3.753088474273681641e+00,3.752369880676269531e+00,3.751651763916015625e+00,3.750933647155761719e+00,3.750216007232666016e+00,3.749498605728149414e+00,3.748781442642211914e+00,3.748064517974853516e+00,3.747347831726074219e+00,3.746631622314453125e+00,3.745915412902832031e+00,3.745199680328369141e+00,3.744484186172485352e+00,3.743768930435180664e+00,3.743053913116455078e+00,3.742339372634887695e+00,3.741624355316162109e+00,3.740910291671752930e+00,3.740196466445922852e+00,3.739482879638671875e+00,3.738769531250000000e+00,3.738056421279907227e+00,3.737343788146972656e+00,3.736631155014038086e+00,3.735918998718261719e+00,3.735206842422485352e+00,3.734495162963867188e+00,3.733783721923828125e+00,3.648106813430786133e+00,3.560238361358642578e+00,3.476503133773803711e+00,3.396616220474243164e+00,3.320318222045898438e+00,3.247372627258300781e+00,3.177563428878784180e+00,3.110692262649536133e+00,3.046578168869018555e+00,2.985053062438964844e+00,2.925963878631591797e+00,2.869168758392333984e+00,2.814536333084106445e+00,2.761945724487304688e+00,2.711284399032592773e+00,2.662447929382324219e+00,2.615339994430541992e+00,2.569869756698608398e+00
3.083896398544311523e+00,3.083411216735839844e+00,3.082926034927368164e+00,3.082441329956054688e+00,3.081956624984741211e+00,3.081472158432006836e+00,3.080987453460693359e+00,3.080503225326538086e+00,3.080018997192382812e+00,3.079535007476806641e+00,3.079051256179809570e+00,3.078567743301391602e+00,3.078084230422973633e+00,3.077600717544555664e+00,3.077117681503295898e+00,3.076634645462036133e+00,3.076151847839355469e+00,3.075669050216674805e+00,3.075186491012573242e+00,3.074703931808471680e+00,3.074221611022949219e+00,3.073739528656005859e+00,3.073257446289062500e+00,3.072775602340698242e+00,3.072293758392333984e+00,3.071812391281127930e+00,3.071331024169921875e+00,3.070849657058715820e+00,3.070368766784667969e+00,3.069887638092041016e+00,3.069406986236572266e+00,3.068926334381103516e+00,3.068445920944213867e+00,3.067965507507324219e+00,3.067485332489013672e+00,3.067005395889282227e+00,3.066525459289550781e+00,3.066045761108398438e+00,3.065566301345825195e+00,3.065087080001831055e+00,3.064607381820678711e+00,3.064128398895263672e+00,3.063649415969848633e+00,3.063170671463012695e+00,3.062691926956176758e+00,3.062213420867919922e+00,3.061734914779663086e+00,3.061256885528564453e+00,3.060778856277465820e+00,3.060300827026367188e+00,3.059823036193847656e+00,3.059345483779907227e+00,3.058867931365966797e+00,3.058390617370605469e+00,3.057913541793823242e+00,3.057436466217041016e+00,3.056959629058837891e+00,3.056482553482055664e+00,3.056005954742431641e+00,3.055529594421386719e+00,3.055053234100341797e+00,3.054577112197875977e+00,3.054101228713989258e+00,3.053625345230102539e+00,3.053149700164794922e+00,3.052674055099487305e+00,3.052198648452758789e+00,3.051723480224609375e+00,3.051248311996459961e+00,3.050773382186889648e+00,3.046628475189208984e+00,2.985101461410522461e+00,2.926010370254516602e+00,2.869213342666625977e+00,2.814579486846923828e+00,2.761987209320068359e+00,2.711324214935302734e+00,2.662486553192138672e+00,2.615377187728881836e+00,2.569905757904052734e+00
2.605402469635009766e+00,2.605056285858154297e+00,2.604710102081298828e+00,2.604363918304443359e+00,2.604017972946166992e+00,2.603672027587890625e+00,2.603326082229614258e+00,2.602980375289916992e+00,2.602634668350219727e+00,2.602289199829101562e+00,2.601943731307983398e+00,2.601598262786865234e+00,2.601252794265747070e+00,2.600907564163208008e+00,2.600562572479248047e+00,2.600217580795288086e+00,2.599872589111328125e+00,2.599527835845947266e+00,2.599183082580566406e+00,2.598838329315185547e+00,2.598493814468383789e+00,2.598149299621582031e+00,2.597805023193359375e+00,2.597460746765136719e+00,2.597116470336914062e+00,2.596772432327270508e+00,2.596428394317626953e+00,2.596084594726562500e+00,2.595740795135498047e+00,2.595396757125854492e+00,2.595053195953369141e+00,2.594709634780883789e+00,2.594366073608398438e+00,2.594022750854492188e+00,2.593679428100585938e+00,2.593336343765258789e+00,2.592993259429931641e+00,2.592650175094604492e+00,2.592307329177856445e+00,2.591964483261108398e+00,2.591621637344360352e+00,2.591279029846191406e+00,2.590936660766601562e+00,2.590594053268432617e+00,2.590251684188842773e+00,2.589909553527832031e+00,2.589566946029663086e+00,2.589225053787231445e+00,2.588882923126220703e+00,2.588541030883789062e+00,2.588199138641357422e+00,2.587857484817504883e+00,2.587515830993652344e+00,2.587174177169799805e+00,2.586832761764526367e+00,2.586491346359252930e+00,2.586150169372558594e+00,2.585808992385864258e+00,2.585467815399169922e+00,2.585126876831054688e+00,2.584785938262939453e+00,2.584444999694824219e+00,2.584104299545288086e+00,2.583763599395751953e+00,2.583422899246215820e+00,2.583082437515258789e+00,2.582741975784301758e+00,2.582401752471923828e+00,2.582061529159545898e+00,2.581721544265747070e+00,2.581381320953369141e+00,2.581041574478149414e+00,2.580701589584350586e+00,2.580361843109130859e+00,2.580022096633911133e+00,2.579682588577270508e+00,2.579343080520629883e+00,2.579003810882568359e+00,2.578664302825927734e+00,2.569941520690917969e+00
2.255449771881103516e+00,2.255190134048461914e+00,2.254930734634399414e+00,2.254671335220336914e+00,2.254411935806274414e+00,2.254152536392211914e+00,2.253893375396728516e+00,2.253634214401245117e+00,2.253375053405761719e+00,2.253116130828857422e+00,2.252857208251953125e+00,2.252598285675048828e+00,2.252339363098144531e+00,2.252080440521240234e+00,2.251821756362915039e+00,2.251563072204589844e+00,2.251304388046264648e+00,2.251045942306518555e+00,2.250787258148193359e+00,2.250528812408447266e+00,2.250270366668701172e+00,2.250012159347534180e+00,2.249753952026367188e+00,2.249495744705200195e+00,2.249237537384033203e+00,2.248979330062866211e+00,2.248721361160278320e+00,2.248463392257690430e+00,2.248205423355102539e+00,2.247947692871093750e+00,2.247689723968505859e+00,2.247431993484497070e+00,2.247174501419067383e+00,2.246916770935058594e+00,2.246659278869628906e+00,2.246401786804199219e+00,2.246144056320190430e+00,2.245886802673339844e+00,2.245629549026489258e+00,2.245372056961059570e+00,2.245115041732788086e+00,2.244857788085937500e+00,2.244600772857666016e+00,2.244343757629394531e+00,2.244086742401123047e+00,2.243829727172851562e+00,2.243572950363159180e+00,2.243316173553466797e+00,2.243059396743774414e+00,2.242802619934082031e+00,2.242546081542968750e+00,2.242289543151855469e+00,2.242033004760742188e+00,2.241776466369628906e+00,2.241520166397094727e+00,2.241263866424560547e+00,2.241007566452026367e+00,2.240751266479492188e+00,2.240495204925537109e+00,2.240239143371582031e+00,2.239983081817626953e+00,2.239727020263671875e+00,2.239471197128295898e+00,2.239215373992919922e+00,2.238959550857543945e+00,2.238703727722167969e+00,2.238448143005371094e+00,2.238192319869995117e+00,2.237936973571777344e+00,2.237681388854980469e+00,2.237425804138183594e+00,2.237170457839965820e+00,2.236915111541748047e+00,2.236659765243530273e+00,2.236404657363891602e+00,2.236149311065673828e+00,2.235894203186035156e+00,2.235639333724975586e+00,2.235384225845336914e+00,2.235129356384277344e+00
1.988374948501586914e+00,1.988173246383666992e+00,1.987971544265747070e+00,1.987769961357116699e+00,1.987568378448486328e+00,1.987366795539855957e+00,1.987165331840515137e+00,1.986963868141174316e+00,1.986762285232543945e+00,1.986560821533203125e+00,1.986359596252441406e+00,1.986158251762390137e+00,1.985957026481628418e+00,1.985755801200866699e+00,1.985554695129394531e+00,1.985353589057922363e+00,1.985152482986450195e+00,1.984951376914978027e+00,1.984750390052795410e+00,1.984549403190612793e+00,1.984348535537719727e+00,1.984147548675537109e+00,1.983946800231933594e+00,1.983745932579040527e+00,1.983545184135437012e+00,1.983344435691833496e+00,1.983143806457519531e+00,1.982943177223205566e+00,1.982742547988891602e+00,1.982542037963867188e+00,1.982341527938842773e+00,1.982141017913818359e+00,1.981940627098083496e+00,1.981740236282348633e+00,1.981539845466613770e+00,1.981339573860168457e+00,1.981139183044433594e+00,1.980939030647277832e+00,1.980738759040832520e+00,1.980538606643676758e+00,1.980338573455810547e+00,1.980138421058654785e+00,1.979938268661499023e+00,1.979738235473632812e+00,1.979538202285766602e+00,1.979338288307189941e+00,1.979138493537902832e+00,1.978938579559326172e+00,1.978738903999328613e+00,1.978539109230041504e+00,1.978339433670043945e+00,1.978139758110046387e+00,1.977940082550048828e+00,1.977740526199340820e+00,1.977540969848632812e+00,1.977341413497924805e+00,1.977141976356506348e+00,1.976942539215087891e+00,1.976743102073669434e+00,1.976543784141540527e+00,1.976344466209411621e+00,1.976145148277282715e+00,1.975945949554443359e+00,1.975746750831604004e+00,1.975547671318054199e+00,1.975348472595214844e+00,1.975149512290954590e+00,1.974950432777404785e+00,1.974751472473144531e+00,1.974552512168884277e+00,1.974353551864624023e+00,1.974154710769653320e+00,1.973955869674682617e+00,1.973757147789001465e+00,1.973558306694030762e+00,1.973359584808349609e+00,1.973160743713378906e+00,1.972962141036987305e+00,1.972763538360595703e+00,1.972564935684204102e+00
1.777850747108459473e+00,1.777689814567565918e+00,1.777528762817382812e+00,1.777367949485778809e+00,1.777207136154174805e+00,1.777046442031860352e+00,1.776885747909545898e+00,1.776724934577941895e+00,1.776564121246337891e+00,1.776403546333312988e+00,1.776242494583129883e+00,1.776081562042236328e+00,1.775920629501342773e+00,1.775759696960449219e+00,1.775598645210266113e+00,1.775437831878662109e+00,1.775277018547058105e+00,1.775116205215454102e+00,1.774955511093139648e+00,1.774794697761535645e+00,1.774634003639221191e+00,1.774473309516906738e+00,1.774312734603881836e+00,1.774152159690856934e+00,1.773991584777832031e+00,1.773831009864807129e+00,1.773670434951782227e+00,1.773509979248046875e+00,1.773349523544311523e+00,1.773189067840576172e+00,1.773028612136840820e+00,1.772868275642395020e+00,1.772707939147949219e+00,1.772547602653503418e+00,1.772387266159057617e+00,1.772227048873901367e+00,1.772066831588745117e+00,1.771906614303588867e+00,1.771746397018432617e+00,1.771586298942565918e+00,1.771426200866699219e+00,1.771266102790832520e+00,1.771106004714965820e+00,1.770945906639099121e+00,1.770785927772521973e+00,1.770625948905944824e+00,1.770466089248657227e+00,1.770306110382080078e+00,1.770146012306213379e+00,1.769986152648925781e+00,1.769826292991638184e+00,1.769666552543640137e+00,1.769506812095642090e+00,1.769347071647644043e+00,1.769187331199645996e+00,1.769027590751647949e+00,1.768867969512939453e+00,1.768708348274230957e+00,1.768548727035522461e+00,1.768389225006103516e+00,1.768229603767395020e+00,1.768070101737976074e+00,1.767910599708557129e+00,1.767751216888427734e+00,1.767591714859008789e+00,1.767432332038879395e+00,1.767272949218750000e+00,1.767113685607910156e+00,1.766954302787780762e+00,1.766795039176940918e+00,1.766635775566101074e+00,1.766476631164550781e+00,1.766317367553710938e+00,1.766158223152160645e+00,1.765999078750610352e+00,1.765839934349060059e+00,1.765680909156799316e+00,1.765521883964538574e+00,1.765362858772277832e+00,1.765203833580017090e+00
1.607637882232666016e+00,1.607506394386291504e+00,1.607374906539916992e+00,1.607243418693542480e+00,1.607111930847167969e+00,1.606980323791503906e+00,1.606848835945129395e+00,1.606717467308044434e+00,1.606585979461669922e+00,1.606454610824584961e+00,1.606323242187500000e+00,1.606191754341125488e+00,1.606060504913330078e+00,1.605929255485534668e+00,1.605797886848449707e+00,1.605666637420654297e+00,1.605535507202148438e+00,1.605404257774353027e+00,1.605272769927978516e+00,1.605141282081604004e+00,1.605009675025939941e+00,1.604878306388854980e+00,1.604746937751770020e+00,1.604615449905395508e+00,1.604484200477600098e+00,1.604352831840515137e+00,1.604221463203430176e+00,1.604090213775634766e+00,1.603958964347839355e+00,1.603827714920043945e+00,1.603696465492248535e+00,1.603565216064453125e+00,1.603434085845947266e+00,1.603302836418151855e+00,1.603171706199645996e+00,1.603040575981140137e+00,1.602909564971923828e+00,1.602778434753417969e+00,1.602647423744201660e+00,1.602516293525695801e+00,1.602385282516479492e+00,1.602254271507263184e+00,1.602123379707336426e+00,1.601992368698120117e+00,1.601861476898193359e+00,1.601730585098266602e+00,1.601599693298339844e+00,1.601468801498413086e+00,1.601338028907775879e+00,1.601207137107849121e+00,1.601076364517211914e+00,1.600945591926574707e+00,1.600814819335937500e+00,1.600684046745300293e+00,1.600553393363952637e+00,1.600422501564025879e+00,1.600291848182678223e+00,1.600161194801330566e+00,1.600030541419982910e+00,1.599899888038635254e+00,1.599769353866577148e+00,1.599638819694519043e+00,1.599508166313171387e+00,1.599377632141113281e+00,1.599247217178344727e+00,1.599116683006286621e+00,1.598986268043518066e+00,1.598855853080749512e+00,1.598725438117980957e+00,1.598595023155212402e+00,1.598464608192443848e+00,1.598334312438964844e+00,1.598203897476196289e+00,1.598073601722717285e+00,1.597943305969238281e+00,1.597813129425048828e+00,1.597682833671569824e+00,1.597552657127380371e+00,1.597422361373901367e+00,1.597292184829711914e+00
1.467170119285583496e+00,1.467060446739196777e+00,1.466950893402099609e+00,1.466841340065002441e+00,1.466731786727905273e+00,1.466622352600097656e+00,1.466512799263000488e+00,1.466403245925903320e+00,1.466293811798095703e+00,1.466184377670288086e+00,1.466074943542480469e+00,1.465965509414672852e+00,1.465856194496154785e+00,1.465746760368347168e+00,1.465637326240539551e+00,1.465528011322021484e+00,1.465418696403503418e+00,1.465309381484985352e+00,1.465200066566467285e+00,1.465090751647949219e+00,1.464981436729431152e+00,1.464872121810913086e+00,1.464762926101684570e+00,1.464653730392456055e+00,1.464544534683227539e+00,1.464435338973999023e+00,1.464326143264770508e+00,1.464216589927673340e+00,1.464107155799865723e+00,1.463997840881347656e+00,1.463888525962829590e+00,1.463779091835021973e+00,1.463669776916503906e+00,1.463560581207275391e+00,1.463451266288757324e+00,1.463341951370239258e+00,1.463232755661010742e+00,1.463123559951782227e+00,1.463014245033264160e+00,1.462905049324035645e+00,1.462795853614807129e+00,1.462686777114868164e+00,1.462577581405639648e+00,1.462468504905700684e+00,1.462359309196472168e+00,1.462250232696533203e+00,1.462141156196594238e+00,1.462032079696655273e+00,1.461923003196716309e+00,1.461814045906066895e+00,1.461704969406127930e+00,1.461596012115478516e+00,1.461487054824829102e+00,1.461378097534179688e+00,1.461269140243530273e+00,1.461160182952880859e+00,1.461051225662231445e+00,1.460942268371582031e+00,1.460833430290222168e+00,1.460724592208862305e+00,1.460615754127502441e+00,1.460506916046142578e+00,1.460397958755493164e+00,1.460289120674133301e+00,1.460180282592773438e+00,1.460071563720703125e+00,1.459962725639343262e+00,1.459854006767272949e+00,1.459745287895202637e+00,1.459636569023132324e+00,1.459527850151062012e+00,1.459419250488281250e+00,1.459310531616210938e+00,1.459201931953430176e+00,1.459093332290649414e+00,1.458984613418579102e+00,1.458876013755798340e+00,1.458767533302307129e+00,1.458658933639526367e+00,1.458550333976745605e+00
1.349276542663574219e+00,1.349183797836303711e+00,1.349091172218322754e+00,1.348998546600341797e+00,1.348905801773071289e+00,1.348813176155090332e+00,1.348720669746398926e+00,1.348628044128417969e+00,1.348535418510437012e+00,1.348442912101745605e+00,1.348350286483764648e+00,1.348257660865783691e+00,1.348165154457092285e+00,1.348072648048400879e+00,1.347980141639709473e+00,1.347887635231018066e+00,1.347795128822326660e+00,1.347702622413635254e+00,1.347610235214233398e+00,1.347517728805541992e+00,1.347425341606140137e+00,1.347332954406738281e+00,1.347240567207336426e+00,1.347148060798645020e+00,1.347055673599243164e+00,1.346963405609130859e+00,1.346871018409729004e+00,1.346778631210327148e+00,1.346686363220214844e+00,1.346593976020812988e+00,1.346501588821411133e+00,1.346409320831298828e+00,1.346317052841186523e+00,1.346224784851074219e+00,1.346132516860961914e+00,1.346040010452270508e+00,1.345947623252868652e+00,1.345855116844177246e+00,1.345762729644775391e+00,1.345670342445373535e+00,1.345577955245971680e+00,1.345485568046569824e+00,1.345393300056457520e+00,1.345300912857055664e+00,1.345208525657653809e+00,1.345116257667541504e+00,1.345023989677429199e+00,1.344931602478027344e+00,1.344839334487915039e+00,1.344747066497802734e+00,1.344654798507690430e+00,1.344562530517578125e+00,1.344470381736755371e+00,1.344378113746643066e+00,1.344285964965820312e+00,1.344193696975708008e+00,1.344101548194885254e+00,1.344009399414062500e+00,1.343917250633239746e+00,1.343825101852416992e+00,1.343732953071594238e+00,1.343640804290771484e+00,1.343548655509948730e+00,1.343456625938415527e+00,1.343364477157592773e+00,1.343272447586059570e+00,1.343180418014526367e+00,1.343088388442993164e+00,1.342996239662170410e+00,1.342904210090637207e+00,1.342812180519104004e+00,1.342720150947570801e+00,1.342628240585327148e+00,1.342536211013793945e+00,1.342444300651550293e+00,1.342352390289306641e+00,1.342260360717773438e+00,1.342168450355529785e+00,1.342076539993286133e+00,1.341984629631042480e+00
1.248920321464538574e+00,1.248840928077697754e+00,1.248761534690856934e+00,1.248682141304016113e+00,1.248602747917175293e+00,1.248523473739624023e+00,1.248443961143493652e+00,1.248364686965942383e+00,1.248285412788391113e+00,1.248206019401550293e+00,1.248126745223999023e+00,1.248047471046447754e+00,1.247968196868896484e+00,1.247888803482055664e+00,1.247809529304504395e+00,1.247730255126953125e+00,1.247651100158691406e+00,1.247571825981140137e+00,1.247492551803588867e+00,1.247413277626037598e+00,1.247334122657775879e+00,1.247254848480224609e+00,1.247175693511962891e+00,1.247096538543701172e+00,1.247017383575439453e+00,1.246938109397888184e+00,1.246858954429626465e+00,1.246779918670654297e+00,1.246700763702392578e+00,1.246621608734130859e+00,1.246542572975158691e+00,1.246463418006896973e+00,1.246384263038635254e+00,1.246305227279663086e+00,1.246226191520690918e+00,1.246147036552429199e+00,1.246068000793457031e+00,1.245988965034484863e+00,1.245909929275512695e+00,1.245830893516540527e+00,1.245751857757568359e+00,1.245672941207885742e+00,1.245593905448913574e+00,1.245514750480651855e+00,1.245435595512390137e+00,1.245356440544128418e+00,1.245277404785156250e+00,1.245198249816894531e+00,1.245119094848632812e+00,1.245040059089660645e+00,1.244960904121398926e+00,1.244881868362426758e+00,1.244802832603454590e+00,1.244723796844482422e+00,1.244644761085510254e+00,1.244565725326538086e+00,1.244486689567565918e+00,1.244407653808593750e+00,1.244328618049621582e+00,1.244249701499938965e+00,1.244170665740966797e+00,1.244091749191284180e+00,1.244012713432312012e+00,1.243933796882629395e+00,1.243854880332946777e+00,1.243775844573974609e+00,1.243696928024291992e+00,1.243618011474609375e+00,1.243539214134216309e+00,1.243460297584533691e+00,1.243381381034851074e+00,1.243302464485168457e+00,1.243223667144775391e+00,1.243144750595092773e+00,1.243065834045410156e+00,1.242987036705017090e+00,1.242908239364624023e+00,1.242829442024230957e+00,1.242750644683837891e+00,1.242671847343444824e+00
1.162459254264831543e+00,1.162390470504760742e+00,1.162321686744689941e+00,1.162252902984619141e+00,1.162184119224548340e+00,1.162115335464477539e+00,1.162046551704406738e+00,1.161977887153625488e+00,1.161909103393554688e+00,1.161840319633483887e+00,1.161771655082702637e+00,1.161702990531921387e+00,1.161634206771850586e+00,1.161565542221069336e+00,1.161496877670288086e+00,1.161428213119506836e+00,1.161359548568725586e+00,1.161290884017944336e+00,1.161222219467163086e+00,1.161153554916381836e+00,1.161084890365600586e+00,1.161016345024108887e+00,1.160947680473327637e+00,1.160879015922546387e+00,1.160810470581054688e+00,1.160741806030273438e+00,1.160673260688781738e+00,1.160604715347290039e+00,1.160536050796508789e+00,1.160467505455017090e+00,1.160398960113525391e+00,1.160330414772033691e+00,1.160261869430541992e+00,1.160193324089050293e+00,1.160124778747558594e+00,1.160056233406066895e+00,1.159987807273864746e+00,1.159919261932373047e+00,1.159850835800170898e+00,1.159782290458679199e+00,1.159713864326477051e+00,1.159645318984985352e+00,1.159576892852783203e+00,1.159508466720581055e+00,1.159439921379089355e+00,1.159371495246887207e+00,1.159303188323974609e+00,1.159234642982482910e+00,1.159166216850280762e+00,1.159097909927368164e+00,1.159029483795166016e+00,1.158961057662963867e+00,1.158892512321472168e+00,1.158823966979980469e+00,1.158755421638488770e+00,1.158686995506286621e+00,1.158618450164794922e+00,1.158549904823303223e+00,1.158481478691101074e+00,1.158413052558898926e+00,1.158344507217407227e+00,1.158276081085205078e+00,1.158207654953002930e+00,1.158139228820800781e+00,1.158070802688598633e+00,1.158002376556396484e+00,1.157933950424194336e+00,1.157865524291992188e+00,1.157797217369079590e+00,1.157728791236877441e+00,1.157660365104675293e+00,1.157592058181762695e+00,1.157523632049560547e+00,1.157455325126647949e+00,1.157386898994445801e+00,1.157318592071533203e+00,1.157250285148620605e+00,1.157181978225708008e+00,1.157113671302795410e+00,1.157045364379882812e+00
1.087194204330444336e+00,1.087134003639221191e+00,1.087073802947998047e+00,1.087013721466064453e+00,1.086953520774841309e+00,1.086893439292907715e+00,1.086833238601684570e+00,1.086773037910461426e+00,1.086712956428527832e+00,1.086652874946594238e+00,1.086592793464660645e+00,1.086532711982727051e+00,1.086472511291503906e+00,1.086412429809570312e+00,1.086352348327636719e+00,1.086292266845703125e+00,1.086232185363769531e+00,1.086172103881835938e+00,1.086112022399902344e+00,1.086051940917968750e+00,1.085991978645324707e+00,1.085931897163391113e+00,1.085871934890747070e+00,1.085811853408813477e+00,1.085751891136169434e+00,1.085691809654235840e+00,1.085631847381591797e+00,1.085571885108947754e+00,1.085511803627014160e+00,1.085451841354370117e+00,1.085391879081726074e+00,1.085331916809082031e+00,1.085271954536437988e+00,1.085211992263793945e+00,1.085152029991149902e+00,1.085092067718505859e+00,1.085032105445861816e+00,1.084972143173217773e+00,1.084912300109863281e+00,1.084852337837219238e+00,1.084792494773864746e+00,1.084732532501220703e+00,1.084672570228576660e+00,1.084612727165222168e+00,1.084552764892578125e+00,1.084492921829223633e+00,1.084433078765869141e+00,1.084373235702514648e+00,1.084313392639160156e+00,1.084253549575805664e+00,1.084193587303161621e+00,1.084133744239807129e+00,1.084073901176452637e+00,1.084014177322387695e+00,1.083954334259033203e+00,1.083894491195678711e+00,1.083834648132324219e+00,1.083774924278259277e+00,1.083715081214904785e+00,1.083655357360839844e+00,1.083595395088195801e+00,1.083535432815551758e+00,1.083475589752197266e+00,1.083415746688842773e+00,1.083355784416198730e+00,1.083295941352844238e+00,1.083236098289489746e+00,1.083176136016845703e+00,1.083116292953491211e+00,1.083056449890136719e+00,1.082996606826782227e+00,1.082936763763427734e+00,1.082876920700073242e+00,1.082817196846008301e+00,1.082757353782653809e+00,1.082697510719299316e+00,1.082637667655944824e+00,1.082577943801879883e+00,1.082518100738525391e+00,1.082458376884460449e+00
1.021082758903503418e+00,1.021029710769653320e+00,1.020976543426513672e+00,1.020923495292663574e+00,1.020870447158813477e+00,1.020817399024963379e+00,1.020764350891113281e+00,1.020711302757263184e+00,1.020658254623413086e+00,1.020605206489562988e+00,1.020552158355712891e+00,1.020499229431152344e+00,1.020446181297302246e+00,1.020393133163452148e+00,1.020340204238891602e+00,1.020287156105041504e+00,1.020234107971191406e+00,1.020181179046630859e+00,1.020128250122070312e+00,1.020075201988220215e+00,1.020022273063659668e+00,1.019969224929809570e+00,1.019916296005249023e+00,1.019863367080688477e+00,1.019810438156127930e+00,1.019757509231567383e+00,1.019704580307006836e+00,1.019651532173156738e+00,1.019598603248596191e+00,1.019545674324035645e+00,1.019492864608764648e+00,1.019439935684204102e+00,1.019387006759643555e+00,1.019334077835083008e+00,1.019281148910522461e+00,1.019228339195251465e+00,1.019175410270690918e+00,1.019122600555419922e+00,1.019069671630859375e+00,1.019016861915588379e+00,1.018963932991027832e+00,1.018911004066467285e+00,1.018858194351196289e+00,1.018805384635925293e+00,1.018752574920654297e+00,1.018699765205383301e+00,1.018646836280822754e+00,1.018594026565551758e+00,1.018541216850280762e+00,1.018488407135009766e+00,1.018435597419738770e+00,1.018382787704467773e+00,1.018329977989196777e+00,1.018277168273925781e+00,1.018224358558654785e+00,1.018171668052673340e+00,1.018118858337402344e+00,1.018066048622131348e+00,1.018013358116149902e+00,1.017960548400878906e+00,1.017907738685607910e+00,1.017855048179626465e+00,1.017802357673645020e+00,1.017749547958374023e+00,1.017696857452392578e+00,1.017644047737121582e+00,1.017591357231140137e+00,1.017538666725158691e+00,1.017485857009887695e+00,1.017433047294616699e+00,1.017380237579345703e+00,1.017327427864074707e+00,1.017274618148803711e+00,1.017221927642822266e+00,1.017169117927551270e+00,1.017116308212280273e+00,1.017063498497009277e+00,1.017010688781738281e+00,1.016957998275756836e+00,1.016905188560485840e+00
9.625508189201354980e-01,9.625036716461181641e-01,9.624565243721008301e-01,9.624093770980834961e-01,9.623621702194213867e-01,9.623150229454040527e-01,9.622679352760314941e-01,9.622207880020141602e-01,9.621736407279968262e-01,9.621265530586242676e-01,9.620794057846069336e-01,9.620321989059448242e-01,9.619851112365722656e-01,9.619379639625549316e-01,9.618908762931823730e-01,9.618437886238098145e-01,9.617967009544372559e-01,9.617496132850646973e-01,9.617025256156921387e-01,9.616554379463195801e-01,9.616084098815917969e-01,9.615613222122192383e-01,9.615142941474914551e-01,9.614672064781188965e-01,9.614200592041015625e-01,9.613729715347290039e-01,9.613259434700012207e-01,9.612789154052734375e-01,9.612318873405456543e-01,9.611848592758178711e-01,9.611378312110900879e-01,9.610908031463623047e-01,9.610437750816345215e-01,9.609968066215515137e-01,9.609497785568237305e-01,9.609027504920959473e-01,9.608556628227233887e-01,9.608086943626403809e-01,9.607616662979125977e-01,9.607146978378295898e-01,9.606677293777465820e-01,9.606207609176635742e-01,9.605737924575805664e-01,9.605268239974975586e-01,9.604798555374145508e-01,9.604328870773315430e-01,9.603859186172485352e-01,9.603390097618103027e-01,9.602920413017272949e-01,9.602450132369995117e-01,9.601980447769165039e-01,9.601511359214782715e-01,9.601042270660400391e-01,9.600573182106018066e-01,9.600104093551635742e-01,9.599635004997253418e-01,9.599165916442871094e-01,9.598696827888488770e-01,9.598227739334106445e-01,9.597758650779724121e-01,9.597290158271789551e-01,9.596821069717407227e-01,9.596351385116577148e-01,9.595882296562194824e-01,9.595413804054260254e-01,9.594945311546325684e-01,9.594476222991943359e-01,9.594007730484008789e-01,9.593539237976074219e-01,9.593070745468139648e-01,9.592602252960205078e-01,9.592134356498718262e-01,9.591665863990783691e-01,9.591197371482849121e-01,9.590728282928466797e-01,9.590259790420532227e-01,9.589791893959045410e-01,9.589322805404663086e-01,9.588853716850280762e-01,9.588384628295898438e-01
9.103655815124511719e-01,9.103233814239501953e-01,9.102811813354492188e-01,9.102390408515930176e-01,9.101968407630920410e-01,9.101547002792358398e-01,9.101125001907348633e-01,9.100703597068786621e-01,9.100281000137329102e-01,9.099859595298767090e-01,9.099438190460205078e-01,9.099016189575195312e-01,9.098594784736633301e-01,9.098173379898071289e-01,9.097752571105957031e-01,9.097331166267395020e-01,9.096909761428833008e-01,9.096488356590270996e-01,9.096067547798156738e-01,9.095646142959594727e-01,9.095224142074584961e-01,9.094803333282470703e-01,9.094381928443908691e-01,9.093961119651794434e-01,9.093540310859680176e-01,9.093119502067565918e-01,9.092698097229003906e-01,9.092277288436889648e-01,9.091856479644775391e-01,9.091436266899108887e-01,9.091015458106994629e-01,9.090594649314880371e-01,9.090173840522766113e-01,9.089752435684204102e-01,9.089331626892089844e-01,9.088911414146423340e-01,9.088490605354309082e-01,9.088070392608642578e-01,9.087650179862976074e-01,9.087229967117309570e-01,9.086809158325195312e-01,9.086388945579528809e-01,9.085968732833862305e-01,9.085548520088195801e-01,9.085128307342529297e-01,9.084708094596862793e-01,9.084287285804748535e-01,9.083867073059082031e-01,9.083447456359863281e-01,9.083027243614196777e-01,9.082607030868530273e-01,9.082187414169311523e-01,9.081767797470092773e-01,9.081347584724426270e-01,9.080927968025207520e-01,9.080508351325988770e-01,9.080088734626770020e-01,9.079669117927551270e-01,9.079248309135437012e-01,9.078828692436218262e-01,9.078409075736999512e-01,9.077989459037780762e-01,9.077570438385009766e-01,9.077150821685791016e-01,9.076731204986572266e-01,9.076312184333801270e-01,9.075892567634582520e-01,9.075473546981811523e-01,9.075054526329040527e-01,9.074634909629821777e-01,9.074215888977050781e-01,9.073795676231384277e-01,9.073376655578613281e-01,9.072957634925842285e-01,9.072538614273071289e-01,9.072119593620300293e-01,9.071700572967529297e-01,9.071282148361206055e-01,9.070863127708435059e-01,9.070444107055664062e-01
8.635478019714355469e-01,8.635098338127136230e-01,8.634719252586364746e-01,8.634339570999145508e-01,8.633959293365478516e-01,8.633579611778259277e-01,8.633200526237487793e-01,8.632820844650268555e-01,8.632441759109497070e-01,8.632062077522277832e-01,8.631682991981506348e-01,8.631303906440734863e-01,8.630924820899963379e-01,8.630545735359191895e-01,8.630166649818420410e-01,8.629786968231201172e-01,8.629407882690429688e-01,8.629028201103210449e-01,8.628649115562438965e-01,8.628270030021667480e-01,8.627891540527343750e-01,8.627512454986572266e-01,8.627133369445800781e-01,8.626754879951477051e-01,8.626375794410705566e-01,8.625997304916381836e-01,8.625618219375610352e-01,8.625239729881286621e-01,8.624861240386962891e-01,8.624481558799743652e-01,8.624103069305419922e-01,8.623724579811096191e-01,8.623345494270324707e-01,8.622967004776000977e-01,8.622589111328125000e-01,8.622210621833801270e-01,8.621832132339477539e-01,8.621453642845153809e-01,8.621075153350830078e-01,8.620696663856506348e-01,8.620318770408630371e-01,8.619940280914306641e-01,8.619561195373535156e-01,8.619183301925659180e-01,8.618804812431335449e-01,8.618426918983459473e-01,8.618049025535583496e-01,8.617670536041259766e-01,8.617292642593383789e-01,8.616914749145507812e-01,8.616536855697631836e-01,8.616158962249755859e-01,8.615781068801879883e-01,8.615403175354003906e-01,8.615025281906127930e-01,8.614646792411804199e-01,8.614268898963928223e-01,8.613891601562500000e-01,8.613513708114624023e-01,8.613135814666748047e-01,8.612758517265319824e-01,8.612380623817443848e-01,8.612003326416015625e-01,8.611626029014587402e-01,8.611248135566711426e-01,8.610870838165283203e-01,8.610493540763854980e-01,8.610115051269531250e-01,8.609737753868103027e-01,8.609360456466674805e-01,8.608983159065246582e-01,8.608605861663818359e-01,8.608228564262390137e-01,8.607851862907409668e-01,8.607474565505981445e-01,8.607097268104553223e-01,8.606720566749572754e-01,8.606343269348144531e-01,8.605965971946716309e-01,8.605589270591735840e-01
8.213099837303161621e-01,8.212755322456359863e-01,8.212411999702453613e-01,8.212068676948547363e-01,8.211725950241088867e-01,8.211382627487182617e-01,8.211039304733276367e-01,8.210695981979370117e-01,8.210353255271911621e-01,8.210009932518005371e-01,8.209666609764099121e-01,8.209323883056640625e-01,8.208980560302734375e-01,8.208636641502380371e-01,8.208293914794921875e-01,8.207951188087463379e-01,8.207607865333557129e-01,8.207265138626098633e-01,8.206922411918640137e-01,8.206579685211181641e-01,8.206236958503723145e-01,8.205894231796264648e-01,8.205551505088806152e-01,8.205208778381347656e-01,8.204866051673889160e-01,8.204523324966430664e-01,8.204180002212524414e-01,8.203837275505065918e-01,8.203494548797607422e-01,8.203151822090148926e-01,8.202809691429138184e-01,8.202466964721679688e-01,8.202124834060668945e-01,8.201782107353210449e-01,8.201439976692199707e-01,8.201097249984741211e-01,8.200755119323730469e-01,8.200412988662719727e-01,8.200069665908813477e-01,8.199727535247802734e-01,8.199385404586791992e-01,8.199043273925781250e-01,8.198700547218322754e-01,8.198358416557312012e-01,8.198016881942749023e-01,8.197674751281738281e-01,8.197332620620727539e-01,8.196990489959716797e-01,8.196648359298706055e-01,8.196306228637695312e-01,8.195964694023132324e-01,8.195621967315673828e-01,8.195279836654663086e-01,8.194938302040100098e-01,8.194596171379089355e-01,8.194254636764526367e-01,8.193912506103515625e-01,8.193570971488952637e-01,8.193229436874389648e-01,8.192887306213378906e-01,8.192545771598815918e-01,8.192204236984252930e-01,8.191862702369689941e-01,8.191521167755126953e-01,8.191178441047668457e-01,8.190836906433105469e-01,8.190495371818542480e-01,8.190154433250427246e-01,8.189812898635864258e-01,8.189471364021301270e-01,8.189129829406738281e-01,8.188788294792175293e-01,8.188447356224060059e-01,8.188105821609497070e-01,8.187764883041381836e-01,8.187423348426818848e-01,8.187081217765808105e-01,8.186740279197692871e-01,8.186399340629577637e-01,8.186057806015014648e-01
7.830112576484680176e-01,7.829800844192504883e-01,7.829488515853881836e-01,7.829176783561706543e-01,7.828864455223083496e-01,7.828552722930908203e-01,7.828240990638732910e-01,7.827928662300109863e-01,7.827616930007934570e-01,7.827305197715759277e-01,7.826992273330688477e-01,7.826680541038513184e-01,7.826368808746337891e-01,7.826057076454162598e-01,7.825745344161987305e-01,7.825433611869812012e-01,7.825121879577636719e-01,7.824810147285461426e-01,7.824498414993286133e-01,7.824186682701110840e-01,7.823875546455383301e-01,7.823563814163208008e-01,7.823251485824584961e-01,7.822939753532409668e-01,7.822628617286682129e-01,7.822316884994506836e-01,7.822005152702331543e-01,7.821694016456604004e-01,7.821382880210876465e-01,7.821071147918701172e-01,7.820760011672973633e-01,7.820448279380798340e-01,7.820137143135070801e-01,7.819826006889343262e-01,7.819514870643615723e-01,7.819202542304992676e-01,7.818891406059265137e-01,7.818580269813537598e-01,7.818269133567810059e-01,7.817957997322082520e-01,7.817646861076354980e-01,7.817335724830627441e-01,7.817024588584899902e-01,7.816714048385620117e-01,7.816402912139892578e-01,7.816091775894165039e-01,7.815780639648437500e-01,7.815468907356262207e-01,7.815158367156982422e-01,7.814847230911254883e-01,7.814536690711975098e-01,7.814225554466247559e-01,7.813915014266967773e-01,7.813603878021240234e-01,7.813293337821960449e-01,7.812982797622680664e-01,7.812671661376953125e-01,7.812361121177673340e-01,7.812050580978393555e-01,7.811740040779113770e-01,7.811428308486938477e-01,7.811117768287658691e-01,7.810807228088378906e-01,7.810496687889099121e-01,7.810186147689819336e-01,7.809875607490539551e-01,7.809565067291259766e-01,7.809255123138427734e-01,7.808944582939147949e-01,7.808634042739868164e-01,7.808323502540588379e-01,7.808013558387756348e-01,7.807703018188476562e-01,7.807391881942749023e-01,7.807081937789916992e-01,7.806771397590637207e-01,7.806461453437805176e-01,7.806150913238525391e-01,7.805840969085693359e-01,7.805531024932861328e-01
