1.789707303047180176e+00,1.809794187545776367e+00,1.830339550971984863e+00,1.851359128952026367e+00,1.872866749763488770e+00,1.894880414009094238e+00,1.917417407035827637e+00,1.940495371818542480e+00,1.964132189750671387e+00,1.988351821899414062e+00,2.013176202774047852e+00,2.038628339767456055e+00,2.064732313156127930e+00,2.091513395309448242e+00,2.118998289108276367e+00,2.147215366363525391e+00,2.176193952560424805e+00,2.205965280532836914e+00,2.236562728881835938e+00,2.268020868301391602e+00,2.300376415252685547e+00,2.333668708801269531e+00,2.367938756942749023e+00,2.403229951858520508e+00,2.439589500427246094e+00,2.477066040039062500e+00,2.515711784362792969e+00,2.555582761764526367e+00,2.596737384796142578e+00,2.639239788055419922e+00,2.683156251907348633e+00,2.728559494018554688e+00,2.775525331497192383e+00,2.824136257171630859e+00,2.874480485916137695e+00,2.926651954650878906e+00,2.980755090713500977e+00,3.036897420883178711e+00,3.095195293426513672e+00,3.155775070190429688e+00,3.218773365020751953e+00,3.284338474273681641e+00,3.352629899978637695e+00,3.423822164535522461e+00,3.498102903366088867e+00,3.575678586959838867e+00,3.656772613525390625e+00,3.741630792617797852e+00,3.830520391464233398e+00,3.923736810684204102e+00,4.021602630615234375e+00,4.124475955963134766e+00,4.232749938964843750e+00,4.346862316131591797e+00,4.467297554016113281e+00,5.000000000000000000e+00,5.000000000000000000e+00,5.000000000000000000e+00,5.000000000000000000e+00,5.000000000000000000e+00,5.000000000000000000e+00,5.000000000000000000e+00,5.000000000000000000e+00,5.000000000000000000e+00,5.000000000000000000e+00,5.000000000000000000e+00,5.000000000000000000e+00,5.000000000000000000e+00,5.000000000000000000e+00,5.000000000000000000e+00,5.000000000000000000e+00,5.000000000000000000e+00,5.000000000000000000e+00,5.000000000000000000e+00,5.000000000000000000e+00,5.000000000000000000e+00,5.000000000000000000e+00,5.000000000000000000e+00,5.000000000000000000e+00,5.000000000000000000e+00
1.789684057235717773e+00,1.809770464897155762e+00,1.830312967300415039e+00,1.851327061653137207e+00,1.872830271720886230e+00,1.894842743873596191e+00,1.917379021644592285e+00,1.940457582473754883e+00,1.964098811149597168e+00,1.988322854042053223e+00,2.013146400451660156e+00,2.038597822189331055e+00,2.064701080322265625e+00,2.091481447219848633e+00,2.118965387344360352e+00,2.147181510925292969e+00,2.176159143447875977e+00,2.205929756164550781e+00,2.236526250839233398e+00,2.267983198165893555e+00,2.300337791442871094e+00,2.333628892898559570e+00,2.367897510528564453e+00,2.403187990188598633e+00,2.439545869827270508e+00,2.477021217346191406e+00,2.515665531158447266e+00,2.555534839630126953e+00,2.596688270568847656e+00,2.639188766479492188e+00,2.683103799819946289e+00,2.728504896163940430e+00,2.775468826293945312e+00,2.824078083038330078e+00,2.874419927597045898e+00,2.926589488983154297e+00,2.980687618255615234e+00,3.036824941635131836e+00,3.095120191574096680e+00,3.155696630477905273e+00,3.218692302703857422e+00,3.284253597259521484e+00,3.352541923522949219e+00,3.423729896545410156e+00,3.498007059097290039e+00,3.575577974319458008e+00,3.656667709350585938e+00,3.741520643234252930e+00,3.830405473709106445e+00,3.923615694046020508e+00,4.021475791931152344e+00,4.124342441558837891e+00,4.232609272003173828e+00,4.346714019775390625e+00,4.467141151428222656e+00,4.594431400299072266e+00,4.729188442230224609e+00,5.000000000000000000e+00,5.000000000000000000e+00,5.000000000000000000e+00,5.000000000000000000e+00,5.000000000000000000e+00,5.000000000000000000e+00,5.000000000000000000e+00,5.000000000000000000e+00,5.000000000000000000e+00,5.000000000000000000e+00,5.000000000000000000e+00,5.000000000000000000e+00,5.000000000000000000e+00,5.000000000000000000e+00,5.000000000000000000e+00,5.000000000000000000e+00,5.000000000000000000e+00,5.000000000000000000e+00,5.000000000000000000e+00,5.000000000000000000e+00,5.000000000000000000e+00,5.000000000000000000e+00,5.000000000000000000e+00
1.789660811424255371e+00,1.809746623039245605e+00,1.830288648605346680e+00,1.851302146911621094e+00,1.872803688049316406e+00,1.894810676574707031e+00,1.917341113090515137e+00,1.940418124198913574e+00,1.964058399200439453e+00,1.988281369209289551e+00,2.013109683990478516e+00,2.038565874099731445e+00,2.064669847488403320e+00,2.091449260711669922e+00,2.118932485580444336e+00,2.147147893905639648e+00,2.176124572753906250e+00,2.205894231796264648e+00,2.236489534378051758e+00,2.267945528030395508e+00,2.300298929214477539e+00,2.333588838577270508e+00,2.367856740951538086e+00,2.403145551681518555e+00,2.439502477645874023e+00,2.476976156234741211e+00,2.515619039535522461e+00,2.555487155914306641e+00,2.596638917922973633e+00,2.639137983322143555e+00,2.683051109313964844e+00,2.728450298309326172e+00,2.775412559509277344e+00,2.824019670486450195e+00,2.874359607696533203e+00,2.926526784896850586e+00,2.980622529983520508e+00,3.036756038665771484e+00,3.095044612884521484e+00,3.155618667602539062e+00,3.218610763549804688e+00,3.284169197082519531e+00,3.352453470230102539e+00,3.423638105392456055e+00,3.497910737991333008e+00,3.575477838516235352e+00,3.656562566757202148e+00,3.741410970687866211e+00,3.830290079116821289e+00,3.923495054244995117e+00,4.021348953247070312e+00,4.124208927154541016e+00,4.232468605041503906e+00,4.346565723419189453e+00,4.466984272003173828e+00,4.594265460968017578e+00,4.729012966156005859e+00,4.871903419494628906e+00,5.000000000000000000e+00,5.000000000000000000e+00,5.000000000000000000e+00,5.000000000000000000e+00,5.000000000000000000e+00,5.000000000000000000e+00,5.000000000000000000e+00,5.000000000000000000e+00,5.000000000000000000e+00,5.000000000000000000e+00,5.000000000000000000e+00,5.000000000000000000e+00,5.000000000000000000e+00,5.000000000000000000e+00,5.000000000000000000e+00,5.000000000000000000e+00,5.000000000000000000e+00,5.000000000000000000e+00,5.000000000000000000e+00,5.000000000000000000e+00,5.000000000000000000e+00,5.000000000000000000e+00
1.789637446403503418e+00,1.809722781181335449e+00,1.830264091491699219e+00,1.851277232170104980e+00,1.872778177261352539e+00,1.894784569740295410e+00,1.917314410209655762e+00,1.940386295318603516e+00,1.964020252227783203e+00,1.988240122795104980e+00,2.013067245483398438e+00,2.038522243499755859e+00,2.064629316329956055e+00,2.091413497924804688e+00,2.118899822235107422e+00,2.147114038467407227e+00,2.176090002059936523e+00,2.205858469009399414e+00,2.236452817916870117e+00,2.267907857894897461e+00,2.300260305404663086e+00,2.333549022674560547e+00,2.367815494537353516e+00,2.403103113174438477e+00,2.439458847045898438e+00,2.476931333541870117e+00,2.515572786331176758e+00,2.555439233779907227e+00,2.596589326858520508e+00,2.639086961746215820e+00,2.682998180389404297e+00,2.728395938873291016e+00,2.775356054306030273e+00,2.823961257934570312e+00,2.874299049377441406e+00,2.926463842391967773e+00,2.980557680130004883e+00,3.036688327789306641e+00,3.094974279403686523e+00,3.155540943145751953e+00,3.218529462814331055e+00,3.284084320068359375e+00,3.352365255355834961e+00,3.423545837402343750e+00,3.497814893722534180e+00,3.575377225875854492e+00,3.656457901000976562e+00,3.741300821304321289e+00,3.830174922943115234e+00,3.923373937606811523e+00,4.021221637725830078e+00,4.124074935913085938e+00,4.232327938079833984e+00,4.346417427062988281e+00,4.466827869415283203e+00,4.594099998474121094e+00,4.728837490081787109e+00,4.871716976165771484e+00,5.000000000000000000e+00,5.000000000000000000e+00,5.000000000000000000e+00,5.000000000000000000e+00,5.000000000000000000e+00,5.000000000000000000e+00,5.000000000000000000e+00,5.000000000000000000e+00,5.000000000000000000e+00,5.000000000000000000e+00,5.000000000000000000e+00,5.000000000000000000e+00,5.000000000000000000e+00,5.000000000000000000e+00,5.000000000000000000e+00,5.000000000000000000e+00,5.000000000000000000e+00,5.000000000000000000e+00,5.000000000000000000e+00,5.000000000000000000e+00,5.000000000000000000e+00,5.000000000000000000e+00
1.789614200592041016e+00,1.809698939323425293e+00,1.830239653587341309e+00,1.851252317428588867e+00,1.872752666473388672e+00,1.894758462905883789e+00,1.917287707328796387e+00,1.940358877182006836e+00,1.963992118835449219e+00,1.988208293914794922e+00,2.013028860092163086e+00,2.038478612899780273e+00,2.064584493637084961e+00,2.091367721557617188e+00,2.118854999542236328e+00,2.147074460983276367e+00,2.176055192947387695e+00,2.205822944641113281e+00,2.236416339874267578e+00,2.267870187759399414e+00,2.300221681594848633e+00,2.333509206771850586e+00,2.367774486541748047e+00,2.403061151504516602e+00,2.439415216445922852e+00,2.476886510848999023e+00,2.515526533126831055e+00,2.555391311645507812e+00,2.596540212631225586e+00,2.639035940170288086e+00,2.682945728302001953e+00,2.728341341018676758e+00,2.775299549102783203e+00,2.823902845382690430e+00,2.874238491058349609e+00,2.926401376724243164e+00,2.980492353439331055e+00,3.036620855331420898e+00,3.094903945922851562e+00,3.155467987060546875e+00,3.218449831008911133e+00,3.283999681472778320e+00,3.352277040481567383e+00,3.423453807830810547e+00,3.497718572616577148e+00,3.575277090072631836e+00,3.656352519989013672e+00,3.741190910339355469e+00,3.830059528350830078e+00,3.923253297805786133e+00,4.021094799041748047e+00,4.123941421508789062e+00,4.232187271118164062e+00,4.346268653869628906e+00,4.466670989990234375e+00,4.593934059143066406e+00,4.728661537170410156e+00,4.871530532836914062e+00,5.000000000000000000e+00,5.000000000000000000e+00,5.000000000000000000e+00,5.000000000000000000e+00,5.000000000000000000e+00,5.000000000000000000e+00,5.000000000000000000e+00,5.000000000000000000e+00,5.000000000000000000e+00,5.000000000000000000e+00,5.000000000000000000e+00,5.000000000000000000e+00,5.000000000000000000e+00,5.000000000000000000e+00,5.000000000000000000e+00,5.000000000000000000e+00,5.000000000000000000e+00,5.000000000000000000e+00,5.000000000000000000e+00,5.000000000000000000e+00,5.000000000000000000e+00,5.000000000000000000e+00
1.789590835571289062e+00,1.809675216674804688e+00,1.830215334892272949e+00,1.851227402687072754e+00,1.872727155685424805e+00,1.894732356071472168e+00,1.917260885238647461e+00,1.940331459045410156e+00,1.963964104652404785e+00,1.988179564476013184e+00,2.012999296188354492e+00,2.038447141647338867e+00,2.064546108245849609e+00,2.091322422027587891e+00,2.118808031082153320e+00,2.147026062011718750e+00,2.176006078720092773e+00,2.205778837203979492e+00,2.236377954483032227e+00,2.267832517623901367e+00,2.300182819366455078e+00,2.333469390869140625e+00,2.367733478546142578e+00,2.403018712997436523e+00,2.439371824264526367e+00,2.476841449737548828e+00,2.515480041503906250e+00,2.555343627929687500e+00,2.596490859985351562e+00,2.638984918594360352e+00,2.682892799377441406e+00,2.728286743164062500e+00,2.775243520736694336e+00,2.823844432830810547e+00,2.874178171157836914e+00,2.926338672637939453e+00,2.980427265167236328e+00,3.036553382873535156e+00,3.094833850860595703e+00,3.155395269393920898e+00,3.218374013900756836e+00,3.283917903900146484e+00,3.352188825607299805e+00,3.423361778259277344e+00,3.497622728347778320e+00,3.575176477432250977e+00,3.656247854232788086e+00,3.741080999374389648e+00,3.829944610595703125e+00,3.923132181167602539e+00,4.020967960357666016e+00,4.123807907104492188e+00,4.232046604156494141e+00,4.346120357513427734e+00,4.466514110565185547e+00,4.593768596649169922e+00,4.728486061096191406e+00,4.871344089508056641e+00,5.000000000000000000e+00,5.000000000000000000e+00,5.000000000000000000e+00,5.000000000000000000e+00,5.000000000000000000e+00,5.000000000000000000e+00,5.000000000000000000e+00,5.000000000000000000e+00,5.000000000000000000e+00,5.000000000000000000e+00,5.000000000000000000e+00,5.000000000000000000e+00,5.000000000000000000e+00,5.000000000000000000e+00,5.000000000000000000e+00,5.000000000000000000e+00,5.000000000000000000e+00,5.000000000000000000e+00,5.000000000000000000e+00,5.000000000000000000e+00,5.000000000000000000e+00,5.000000000000000000e+00
1.789567589759826660e+00,1.809651374816894531e+00,1.830191016197204590e+00,1.851202368736267090e+00,1.872701644897460938e+00,1.894706249237060547e+00,1.917234182357788086e+00,1.940304160118103027e+00,1.963936090469360352e+00,1.988150596618652344e+00,2.012969970703125000e+00,2.038416862487792969e+00,2.064515113830566406e+00,2.091290473937988281e+00,2.118769407272338867e+00,2.146980285644531250e+00,2.175956249237060547e+00,2.205728054046630859e+00,2.236325502395629883e+00,2.267783880233764648e+00,2.300139904022216797e+00,2.333429574966430664e+00,2.367692470550537109e+00,2.402976274490356445e+00,2.439328193664550781e+00,2.476796388626098633e+00,2.515433788299560547e+00,2.555295705795288086e+00,2.596441507339477539e+00,2.638933897018432617e+00,2.682840108871459961e+00,2.728232383728027344e+00,2.775187015533447266e+00,2.823786258697509766e+00,2.874117612838745117e+00,2.926275730133056641e+00,2.980362415313720703e+00,3.036485910415649414e+00,3.094763755798339844e+00,3.155322313308715820e+00,3.218297958374023438e+00,3.283838987350463867e+00,3.352104902267456055e+00,3.423269510269165039e+00,3.497526407241821289e+00,3.575076341629028320e+00,3.656142711639404297e+00,3.740971326828002930e+00,3.829829216003417969e+00,3.923011541366577148e+00,4.020840644836425781e+00,4.123674392700195312e+00,4.231905937194824219e+00,4.345972061157226562e+00,4.466357707977294922e+00,4.593602657318115234e+00,4.728310585021972656e+00,4.871157646179199219e+00,5.000000000000000000e+00,5.000000000000000000e+00,5.000000000000000000e+00,5.000000000000000000e+00,5.000000000000000000e+00,5.000000000000000000e+00,5.000000000000000000e+00,5.000000000000000000e+00,5.000000000000000000e+00,5.000000000000000000e+00,5.000000000000000000e+00,5.000000000000000000e+00,5.000000000000000000e+00,5.000000000000000000e+00,5.000000000000000000e+00,5.000000000000000000e+00,5.000000000000000000e+00,5.000000000000000000e+00,5.000000000000000000e+00,5.000000000000000000e+00,5.000000000000000000e+00,5.000000000000000000e+00
1.789544343948364258e+00,1.809627532958984375e+00,1.830166578292846680e+00,1.851177453994750977e+00,1.872676134109497070e+00,1.894680142402648926e+00,1.917207241058349609e+00,1.940276741981506348e+00,1.963907957077026367e+00,1.988121867179870605e+00,2.012940406799316406e+00,2.038386583328247070e+00,2.064484119415283203e+00,2.091258764266967773e+00,2.118736743927001953e+00,2.146946668624877930e+00,2.175917863845825195e+00,2.205681562423706055e+00,2.236273050308227539e+00,2.267729997634887695e+00,2.300084352493286133e+00,2.333375453948974609e+00,2.367644548416137695e+00,2.402934312820434570e+00,2.439284563064575195e+00,2.476751565933227539e+00,2.515387535095214844e+00,2.555248022079467773e+00,2.596392154693603516e+00,2.638882875442504883e+00,2.682787656784057617e+00,2.728177785873413086e+00,2.775130510330200195e+00,2.823727607727050781e+00,2.874057054519653320e+00,2.926213264465332031e+00,2.980297327041625977e+00,3.036418437957763672e+00,3.094693660736083984e+00,3.155249118804931641e+00,3.218222379684448242e+00,3.283760070800781250e+00,3.352022647857666016e+00,3.423183679580688477e+00,3.497431278228759766e+00,3.574975728988647461e+00,3.656037807464599609e+00,3.740861177444458008e+00,3.829714298248291016e+00,3.922890424728393555e+00,4.020713806152343750e+00,4.123540878295898438e+00,4.231765747070312500e+00,4.345823764801025391e+00,4.466200828552246094e+00,4.593437194824218750e+00,4.728135108947753906e+00,4.870971679687500000e+00,5.000000000000000000e+00,5.000000000000000000e+00,5.000000000000000000e+00,5.000000000000000000e+00,5.000000000000000000e+00,5.000000000000000000e+00,5.000000000000000000e+00,5.000000000000000000e+00,5.000000000000000000e+00,5.000000000000000000e+00,5.000000000000000000e+00,5.000000000000000000e+00,5.000000000000000000e+00,5.000000000000000000e+00,5.000000000000000000e+00,5.000000000000000000e+00,5.000000000000000000e+00,5.000000000000000000e+00,5.000000000000000000e+00,5.000000000000000000e+00,5.000000000000000000e+00,5.000000000000000000e+00
1.789520978927612305e+00,1.809603691101074219e+00,1.830142259597778320e+00,1.851152539253234863e+00,1.872650623321533203e+00,1.894654035568237305e+00,1.917180538177490234e+00,1.940249323844909668e+00,1.963879942893981934e+00,1.988093137741088867e+00,2.012911081314086914e+00,2.038356304168701172e+00,2.064453125000000000e+00,2.091226816177368164e+00,2.118704080581665039e+00,2.146913051605224609e+00,2.175883293151855469e+00,2.205646276473999023e+00,2.236234664916992188e+00,2.267683267593383789e+00,2.300029039382934570e+00,2.333318471908569336e+00,2.367585897445678711e+00,2.402874469757080078e+00,2.439231157302856445e+00,2.476704835891723633e+00,2.515341043472290039e+00,2.555200338363647461e+00,2.596342563629150391e+00,2.638832092285156250e+00,2.682734727859497070e+00,2.728123188018798828e+00,2.775074243545532227e+00,2.823669195175170898e+00,2.873996734619140625e+00,2.926150560379028320e+00,2.980232238769531250e+00,3.036350965499877930e+00,3.094623327255249023e+00,3.155176639556884766e+00,3.218146562576293945e+00,3.283681392669677734e+00,3.351940393447875977e+00,3.423097610473632812e+00,3.497341871261596680e+00,3.574877738952636719e+00,3.655932664871215820e+00,3.740751504898071289e+00,3.829598903656005859e+00,3.922769784927368164e+00,4.020586967468261719e+00,4.123407363891601562e+00,4.231625080108642578e+00,4.345675468444824219e+00,4.466044425964355469e+00,4.593271255493164062e+00,4.727959632873535156e+00,4.870785236358642578e+00,5.000000000000000000e+00,5.000000000000000000e+00,5.000000000000000000e+00,5.000000000000000000e+00,5.000000000000000000e+00,5.000000000000000000e+00,5.000000000000000000e+00,5.000000000000000000e+00,5.000000000000000000e+00,5.000000000000000000e+00,5.000000000000000000e+00,5.000000000000000000e+00,5.000000000000000000e+00,5.000000000000000000e+00,5.000000000000000000e+00,5.000000000000000000e+00,5.000000000000000000e+00,5.000000000000000000e+00,5.000000000000000000e+00,5.000000000000000000e+00,5.000000000000000000e+00,5.000000000000000000e+00
1.789497733116149902e+00,1.809579968452453613e+00,1.830117940902709961e+00,1.851127505302429199e+00,1.872625112533569336e+00,1.894627928733825684e+00,1.917153835296630859e+00,1.940222024917602539e+00,1.963851928710937500e+00,1.988064408302307129e+00,2.012881517410278320e+00,2.038326025009155273e+00,2.064422130584716797e+00,2.091195106506347656e+00,2.118671417236328125e+00,2.146879673004150391e+00,2.175848960876464844e+00,2.205610752105712891e+00,2.236198186874389648e+00,2.267645835876464844e+00,2.299990653991699219e+00,2.333271265029907227e+00,2.367529392242431641e+00,2.402813911437988281e+00,2.439168691635131836e+00,2.476640462875366211e+00,2.515281438827514648e+00,2.555147647857666016e+00,2.596293449401855469e+00,2.638781070709228516e+00,2.682682037353515625e+00,2.728068828582763672e+00,2.775017738342285156e+00,2.823611021041870117e+00,2.873936176300048828e+00,2.926087856292724609e+00,2.980167388916015625e+00,3.036283254623413086e+00,3.094553470611572266e+00,3.155103445053100586e+00,3.218070507049560547e+00,3.283602237701416016e+00,3.351858139038085938e+00,3.423012018203735352e+00,3.497252225875854492e+00,3.574784040451049805e+00,3.655832052230834961e+00,3.740641355514526367e+00,3.829483985900878906e+00,3.922648906707763672e+00,4.020460128784179688e+00,4.123273849487304688e+00,4.231484413146972656e+00,4.345527172088623047e+00,4.465887546539306641e+00,4.593105792999267578e+00,4.727783679962158203e+00,4.870598793029785156e+00,5.000000000000000000e+00,5.000000000000000000e+00,5.000000000000000000e+00,5.000000000000000000e+00,5.000000000000000000e+00,5.000000000000000000e+00,5.000000000000000000e+00,5.000000000000000000e+00,5.000000000000000000e+00,5.000000000000000000e+00,5.000000000000000000e+00,5.000000000000000000e+00,5.000000000000000000e+00,5.000000000000000000e+00,5.000000000000000000e+00,5.000000000000000000e+00,5.000000000000000000e+00,5.000000000000000000e+00,5.000000000000000000e+00,5.000000000000000000e+00,5.000000000000000000e+00,5.000000000000000000e+00
1.789474487304687500e+00,1.809556126594543457e+00,1.830093502998352051e+00,1.851102590560913086e+00,1.872599601745605469e+00,1.894601821899414062e+00,1.917127132415771484e+00,1.940194606781005859e+00,1.963823914527893066e+00,1.988035678863525391e+00,2.012851953506469727e+00,2.038295745849609375e+00,2.064391136169433594e+00,2.091163158416748047e+00,2.118638753890991211e+00,2.146846055984497070e+00,2.175814390182495117e+00,2.205575466156005859e+00,2.236161708831787109e+00,2.267608404159545898e+00,2.299952030181884766e+00,2.333231687545776367e+00,2.367488861083984375e+00,2.402766704559326172e+00,2.439111709594726562e+00,2.476576328277587891e+00,2.515215396881103516e+00,2.555079221725463867e+00,2.596226930618286133e+00,2.638721942901611328e+00,2.682629585266113281e+00,2.728014230728149414e+00,2.774961471557617188e+00,2.823552608489990234e+00,2.873875617980957031e+00,2.926025152206420898e+00,2.980102300643920898e+00,3.036216020584106445e+00,3.094483375549316406e+00,3.155030488967895508e+00,3.217994928359985352e+00,3.283523321151733398e+00,3.351775884628295898e+00,3.422926187515258789e+00,3.497162580490112305e+00,3.574690818786621094e+00,3.655734062194824219e+00,3.740537405014038086e+00,3.829368591308593750e+00,3.922528266906738281e+00,4.020333290100097656e+00,4.123140335083007812e+00,4.231343746185302734e+00,4.345378875732421875e+00,4.465731143951416016e+00,4.592939853668212891e+00,4.727608203887939453e+00,4.870412349700927734e+00,5.000000000000000000e+00,5.000000000000000000e+00,5.000000000000000000e+00,5.000000000000000000e+00,5.000000000000000000e+00,5.000000000000000000e+00,5.000000000000000000e+00,5.000000000000000000e+00,5.000000000000000000e+00,5.000000000000000000e+00,5.000000000000000000e+00,5.000000000000000000e+00,5.000000000000000000e+00,5.000000000000000000e+00,5.000000000000000000e+00,5.000000000000000000e+00,5.000000000000000000e+00,5.000000000000000000e+00,5.000000000000000000e+00,5.000000000000000000e+00,5.000000000000000000e+00,5.000000000000000000e+00
1.789451003074645996e+00,1.809532284736633301e+00,1.830069184303283691e+00,1.851077675819396973e+00,1.872574090957641602e+00,1.894575715065002441e+00,1.917100310325622559e+00,1.940167307853698730e+00,1.963795781135559082e+00,1.988006949424743652e+00,2.012822628021240234e+00,2.038265705108642578e+00,2.064360141754150391e+00,2.091131448745727539e+00,2.118606090545654297e+00,2.146812677383422852e+00,2.175780057907104492e+00,2.205540180206298828e+00,2.236125469207763672e+00,2.267570972442626953e+00,2.299913644790649414e+00,2.333192110061645508e+00,2.367448091506958008e+00,2.402724504470825195e+00,2.439068317413330078e+00,2.476528644561767578e+00,2.515157222747802734e+00,2.555010795593261719e+00,2.596156358718872070e+00,2.638648748397827148e+00,2.682555198669433594e+00,2.727947950363159180e+00,2.774903297424316406e+00,2.823494195938110352e+00,2.873815298080444336e+00,2.925962448120117188e+00,2.980037450790405273e+00,3.036148548126220703e+00,3.094413042068481445e+00,3.154958009719848633e+00,3.217919111251831055e+00,3.283444404602050781e+00,3.351693630218505859e+00,3.422840356826782227e+00,3.497073411941528320e+00,3.574597120285034180e+00,3.655636310577392578e+00,3.740434885025024414e+00,3.829261064529418945e+00,3.922409057617187500e+00,4.020205974578857422e+00,4.123006820678710938e+00,4.231203079223632812e+00,4.345230579376220703e+00,4.465574741363525391e+00,4.592774391174316406e+00,4.727432727813720703e+00,4.870226383209228516e+00,5.000000000000000000e+00,5.000000000000000000e+00,5.000000000000000000e+00,5.000000000000000000e+00,5.000000000000000000e+00,5.000000000000000000e+00,5.000000000000000000e+00,5.000000000000000000e+00,5.000000000000000000e+00,5.000000000000000000e+00,5.000000000000000000e+00,5.000000000000000000e+00,5.000000000000000000e+00,5.000000000000000000e+00,5.000000000000000000e+00,5.000000000000000000e+00,5.000000000000000000e+00,5.000000000000000000e+00,5.000000000000000000e+00,5.000000000000000000e+00,5.000000000000000000e+00,5.000000000000000000e+00
1.789427757263183594e+00,1.809508442878723145e+00,1.830044865608215332e+00,1.851052761077880859e+00,1.872548699378967285e+00,1.894549608230590820e+00,1.917073607444763184e+00,1.940139889717102051e+00,1.963767766952514648e+00,1.987978219985961914e+00,2.012793064117431641e+00,2.038235425949096680e+00,2.064329147338867188e+00,2.091099500656127930e+00,2.118573665618896484e+00,2.146779060363769531e+00,2.175745725631713867e+00,2.205504655838012695e+00,2.236088991165161133e+00,2.267533540725708008e+00,2.299875259399414062e+00,2.333152532577514648e+00,2.367407321929931641e+00,2.402682542800903320e+00,2.439025163650512695e+00,2.476484060287475586e+00,2.515111207962036133e+00,2.554962873458862305e+00,2.596097469329833984e+00,2.638578414916992188e+00,2.682480096817016602e+00,2.727869987487792969e+00,2.774822473526000977e+00,2.823419570922851562e+00,2.873749017715454102e+00,2.925899744033813477e+00,2.979972362518310547e+00,3.036080837249755859e+00,3.094343185424804688e+00,3.154884815216064453e+00,3.217843055725097656e+00,3.283365488052368164e+00,3.351611375808715820e+00,3.422754764556884766e+00,3.496983766555786133e+00,3.574503898620605469e+00,3.655538320541381836e+00,3.740332365036010742e+00,3.829154014587402344e+00,3.922296285629272461e+00,4.020082950592041016e+00,4.122873306274414062e+00,4.231062412261962891e+00,4.345082283020019531e+00,4.465417861938476562e+00,4.592608928680419922e+00,4.727257251739501953e+00,4.870039939880371094e+00,5.000000000000000000e+00,5.000000000000000000e+00,5.000000000000000000e+00,5.000000000000000000e+00,5.000000000000000000e+00,5.000000000000000000e+00,5.000000000000000000e+00,5.000000000000000000e+00,5.000000000000000000e+00,5.000000000000000000e+00,5.000000000000000000e+00,5.000000000000000000e+00,5.000000000000000000e+00,5.000000000000000000e+00,5.000000000000000000e+00,5.000000000000000000e+00,5.000000000000000000e+00,5.000000000000000000e+00,5.000000000000000000e+00,5.000000000000000000e+00,5.000000000000000000e+00,5.000000000000000000e+00
1.789404392242431641e+00,1.809484720230102539e+00,1.830020427703857422e+00,1.851027846336364746e+00,1.872523188591003418e+00,1.894523501396179199e+00,1.917046904563903809e+00,1.940112233161926270e+00,1.963739752769470215e+00,1.987949371337890625e+00,2.012763500213623047e+00,2.038205146789550781e+00,2.064298152923583984e+00,2.091067790985107422e+00,2.118541002273559570e+00,2.146745443344116211e+00,2.175711154937744141e+00,2.205469369888305664e+00,2.236052751541137695e+00,2.267496347427368164e+00,2.299836635589599609e+00,2.333112955093383789e+00,2.367366552352905273e+00,2.402640581130981445e+00,2.438981771469116211e+00,2.476439237594604492e+00,2.515065193176269531e+00,2.554915428161621094e+00,2.596048355102539062e+00,2.638527870178222656e+00,2.682420253753662109e+00,2.727797985076904297e+00,2.774741649627685547e+00,2.823335886001586914e+00,2.873662710189819336e+00,2.925816059112548828e+00,2.979897499084472656e+00,3.036013603210449219e+00,3.094272851943969727e+00,3.154811859130859375e+00,3.217767477035522461e+00,3.283286333084106445e+00,3.351529359817504883e+00,3.422668933868408203e+00,3.496894121170043945e+00,3.574410200119018555e+00,3.655440568923950195e+00,3.740230321884155273e+00,3.829046487808227539e+00,3.922183513641357422e+00,4.019964218139648438e+00,4.122745513916015625e+00,4.230921745300292969e+00,4.344933986663818359e+00,4.465261459350585938e+00,4.592442989349365234e+00,4.727081775665283203e+00,4.869853973388671875e+00,5.000000000000000000e+00,5.000000000000000000e+00,5.000000000000000000e+00,5.000000000000000000e+00,5.000000000000000000e+00,5.000000000000000000e+00,5.000000000000000000e+00,5.000000000000000000e+00,5.000000000000000000e+00,5.000000000000000000e+00,5.000000000000000000e+00,5.000000000000000000e+00,5.000000000000000000e+00,5.000000000000000000e+00,5.000000000000000000e+00,5.000000000000000000e+00,5.000000000000000000e+00,5.000000000000000000e+00,5.000000000000000000e+00,5.000000000000000000e+00,5.000000000000000000e+00,5.000000000000000000e+00
1.789381146430969238e+00,1.809460878372192383e+00,1.829996109008789062e+00,1.851002931594848633e+00,1.872497677803039551e+00,1.894497394561767578e+00,1.917020201683044434e+00,1.940084934234619141e+00,1.963711738586425781e+00,1.987920641899108887e+00,2.012734174728393555e+00,2.038175106048583984e+00,2.064267158508300781e+00,2.091036081314086914e+00,2.118508338928222656e+00,2.146711826324462891e+00,2.175676822662353516e+00,2.205433845520019531e+00,2.236016273498535156e+00,2.267458915710449219e+00,2.299798011779785156e+00,2.333073377609252930e+00,2.367325782775878906e+00,2.402598619461059570e+00,2.438938617706298828e+00,2.476394653320312500e+00,2.515019178390502930e+00,2.554867982864379883e+00,2.595999479293823242e+00,2.638477087020874023e+00,2.682367801666259766e+00,2.727743864059448242e+00,2.774681329727172852e+00,2.823262214660644531e+00,2.873576164245605469e+00,2.925726175308227539e+00,2.979804277420043945e+00,3.035918951034545898e+00,3.094187974929809570e+00,3.154737234115600586e+00,3.217691659927368164e+00,3.283207654953002930e+00,3.351446866989135742e+00,3.422583103179931641e+00,3.496804714202880859e+00,3.574316501617431641e+00,3.655342817306518555e+00,3.740127563476562500e+00,3.828938961029052734e+00,3.922070980072021484e+00,4.019845962524414062e+00,4.122621059417724609e+00,4.230789184570312500e+00,4.344786167144775391e+00,4.465104579925537109e+00,4.592277526855468750e+00,4.726906299591064453e+00,4.869667530059814453e+00,5.000000000000000000e+00,5.000000000000000000e+00,5.000000000000000000e+00,5.000000000000000000e+00,5.000000000000000000e+00,5.000000000000000000e+00,5.000000000000000000e+00,5.000000000000000000e+00,5.000000000000000000e+00,5.000000000000000000e+00,5.000000000000000000e+00,5.000000000000000000e+00,5.000000000000000000e+00,5.000000000000000000e+00,5.000000000000000000e+00,5.000000000000000000e+00,5.000000000000000000e+00,5.000000000000000000e+00,5.000000000000000000e+00,5.000000000000000000e+00,5.000000000000000000e+00,5.000000000000000000e+00
1.789357900619506836e+00,1.809437036514282227e+00,1.829971790313720703e+00,1.850978016853332520e+00,1.872471928596496582e+00,1.894471287727355957e+00,1.916993498802185059e+00,1.940057516098022461e+00,1.963683605194091797e+00,1.987891912460327148e+00,2.012704610824584961e+00,2.038144826889038086e+00,2.064236164093017578e+00,2.091004133224487305e+00,2.118475675582885742e+00,2.146678447723388672e+00,2.175642490386962891e+00,2.205398559570312500e+00,2.235980033874511719e+00,2.267421483993530273e+00,2.299759626388549805e+00,2.333033800125122070e+00,2.367284774780273438e+00,2.402556657791137695e+00,2.438895225524902344e+00,2.476350069046020508e+00,2.514973402023315430e+00,2.554820299148559570e+00,2.595950365066528320e+00,2.638426542282104492e+00,2.682315587997436523e+00,2.727689743041992188e+00,2.774625301361083984e+00,2.823204278945922852e+00,2.873514890670776367e+00,2.925650835037231445e+00,2.979713678359985352e+00,3.035822391510009766e+00,3.094087839126586914e+00,3.154633045196533203e+00,3.217595338821411133e+00,3.283122062683105469e+00,3.351364612579345703e+00,3.422497510910034180e+00,3.496715068817138672e+00,3.574223279953002930e+00,3.655244827270507812e+00,3.740025043487548828e+00,3.828831911087036133e+00,3.921958446502685547e+00,4.019728183746337891e+00,4.122496604919433594e+00,4.230658054351806641e+00,4.344648361206054688e+00,4.464951038360595703e+00,4.592112064361572266e+00,4.726730823516845703e+00,4.869481563568115234e+00,5.000000000000000000e+00,5.000000000000000000e+00,5.000000000000000000e+00,5.000000000000000000e+00,5.000000000000000000e+00,5.000000000000000000e+00,5.000000000000000000e+00,5.000000000000000000e+00,5.000000000000000000e+00,5.000000000000000000e+00,5.000000000000000000e+00,5.000000000000000000e+00,5.000000000000000000e+00,5.000000000000000000e+00,5.000000000000000000e+00,5.000000000000000000e+00,5.000000000000000000e+00,5.000000000000000000e+00,5.000000000000000000e+00,5.000000000000000000e+00,5.000000000000000000e+00,5.000000000000000000e+00
1.789334535598754883e+00,1.809413194656372070e+00,1.829947471618652344e+00,1.850953102111816406e+00,1.872446417808532715e+00,1.894445180892944336e+00,1.916966676712036133e+00,1.940030217170715332e+00,1.963655591011047363e+00,1.987863183021545410e+00,2.012675285339355469e+00,2.038114547729492188e+00,2.064205169677734375e+00,2.090972423553466797e+00,2.118442773818969727e+00,2.146644830703735352e+00,2.175607919692993164e+00,2.205363035202026367e+00,2.235943555831909180e+00,2.267383813858032227e+00,2.299721240997314453e+00,2.332994222640991211e+00,2.367244005203247070e+00,2.402514696121215820e+00,2.438852071762084961e+00,2.476305484771728516e+00,2.514927387237548828e+00,2.554772853851318359e+00,2.595901489257812500e+00,2.638375997543334961e+00,2.682263135910034180e+00,2.727635622024536133e+00,2.774569272994995117e+00,2.823146343231201172e+00,2.873454809188842773e+00,2.925588607788085938e+00,2.979649305343627930e+00,3.035745143890380859e+00,3.093994140625000000e+00,3.154528617858886719e+00,3.217486619949340820e+00,3.283008813858032227e+00,3.351255178451538086e+00,3.422399044036865234e+00,3.496625423431396484e+00,3.574129581451416016e+00,3.655147075653076172e+00,3.739923000335693359e+00,3.828724384307861328e+00,3.921845912933349609e+00,4.019609451293945312e+00,4.122372150421142578e+00,4.230526924133300781e+00,4.344510078430175781e+00,4.464805126190185547e+00,4.591951370239257812e+00,4.726555347442626953e+00,4.869295120239257812e+00,5.000000000000000000e+00,5.000000000000000000e+00,5.000000000000000000e+00,5.000000000000000000e+00,5.000000000000000000e+00,5.000000000000000000e+00,5.000000000000000000e+00,5.000000000000000000e+00,5.000000000000000000e+00,5.000000000000000000e+00,5.000000000000000000e+00,5.000000000000000000e+00,5.000000000000000000e+00,5.000000000000000000e+00,5.000000000000000000e+00,5.000000000000000000e+00,5.000000000000000000e+00,5.000000000000000000e+00,5.000000000000000000e+00,5.000000000000000000e+00,5.000000000000000000e+00,5.000000000000000000e+00
1.789311289787292480e+00,1.809389233589172363e+00,1.829923033714294434e+00,1.850928187370300293e+00,1.872420907020568848e+00,1.894419074058532715e+00,1.916939973831176758e+00,1.940002799034118652e+00,1.963627576828002930e+00,1.987834453582763672e+00,2.012645721435546875e+00,2.038084506988525391e+00,2.064174175262451172e+00,2.090940713882446289e+00,2.118410348892211914e+00,2.146611452102661133e+00,2.175573587417602539e+00,2.205327749252319336e+00,2.235907316207885742e+00,2.267346620559692383e+00,2.299682855606079102e+00,2.332954645156860352e+00,2.367203235626220703e+00,2.402472734451293945e+00,2.438808679580688477e+00,2.476260900497436523e+00,2.514881372451782227e+00,2.554725408554077148e+00,2.595852375030517578e+00,2.638325214385986328e+00,2.682210922241210938e+00,2.727581501007080078e+00,2.774513244628906250e+00,2.823088407516479492e+00,2.873394727706909180e+00,2.925526380538940430e+00,2.979584693908691406e+00,3.035678148269653320e+00,3.093924522399902344e+00,3.154449701309204102e+00,3.217390060424804688e+00,3.282896041870117188e+00,3.351137638092041016e+00,3.422276496887207031e+00,3.496501207351684570e+00,3.574016809463500977e+00,3.655047416687011719e+00,3.739820480346679688e+00,3.828616857528686523e+00,3.921733140945434570e+00,4.019491195678710938e+00,4.122247695922851562e+00,4.230396270751953125e+00,4.344371795654296875e+00,4.464658737182617188e+00,4.591796875000000000e+00,4.726387977600097656e+00,4.869109153747558594e+00,5.000000000000000000e+00,5.000000000000000000e+00,5.000000000000000000e+00,5.000000000000000000e+00,5.000000000000000000e+00,5.000000000000000000e+00,5.000000000000000000e+00,5.000000000000000000e+00,5.000000000000000000e+00,5.000000000000000000e+00,5.000000000000000000e+00,5.000000000000000000e+00,5.000000000000000000e+00,5.000000000000000000e+00,5.000000000000000000e+00,5.000000000000000000e+00,5.000000000000000000e+00,5.000000000000000000e+00,5.000000000000000000e+00,5.000000000000000000e+00,5.000000000000000000e+00,5.000000000000000000e+00
1.789288043975830078e+00,1.809365391731262207e+00,1.829898715019226074e+00,1.850903272628784180e+00,1.872395515441894531e+00,1.894392967224121094e+00,1.916913270950317383e+00,1.939975380897521973e+00,1.963599562644958496e+00,1.987805724143981934e+00,2.012616395950317383e+00,2.038053989410400391e+00,2.064143180847167969e+00,2.090908765792846680e+00,2.118377685546875000e+00,2.146577835083007812e+00,2.175539016723632812e+00,2.205292463302612305e+00,2.235870838165283203e+00,2.267309188842773438e+00,2.299644231796264648e+00,2.332915067672729492e+00,2.367162466049194336e+00,2.402430534362792969e+00,2.438765525817871094e+00,2.476216316223144531e+00,2.514835357666015625e+00,2.554677963256835938e+00,2.595803260803222656e+00,2.638274431228637695e+00,2.682158708572387695e+00,2.727527379989624023e+00,2.774457216262817383e+00,2.823030471801757812e+00,2.873334407806396484e+00,2.925464153289794922e+00,2.979520082473754883e+00,3.035611152648925781e+00,3.093854904174804688e+00,3.154377222061157227e+00,3.217314958572387695e+00,3.282815217971801758e+00,3.351037502288818359e+00,3.422156095504760742e+00,3.496372938156127930e+00,3.573882818222045898e+00,3.654907226562500000e+00,3.739691257476806641e+00,3.828501701354980469e+00,3.921620368957519531e+00,4.019372940063476562e+00,4.122123718261718750e+00,4.230265140533447266e+00,4.344233512878417969e+00,4.464513301849365234e+00,4.591642856597900391e+00,4.726224422454833984e+00,4.868933677673339844e+00,5.000000000000000000e+00,5.000000000000000000e+00,5.000000000000000000e+00,5.000000000000000000e+00,5.000000000000000000e+00,5.000000000000000000e+00,5.000000000000000000e+00,5.000000000000000000e+00,5.000000000000000000e+00,5.000000000000000000e+00,5.000000000000000000e+00,5.000000000000000000e+00,5.000000000000000000e+00,5.000000000000000000e+00,5.000000000000000000e+00,5.000000000000000000e+00,5.000000000000000000e+00,5.000000000000000000e+00,5.000000000000000000e+00,5.000000000000000000e+00,5.000000000000000000e+00,5.000000000000000000e+00
1.789264678955078125e+00,1.809341669082641602e+00,1.829874396324157715e+00,1.850878357887268066e+00,1.872370004653930664e+00,1.894366860389709473e+00,1.916886568069458008e+00,1.939948081970214844e+00,1.963571310043334961e+00,1.987776994705200195e+00,2.012586832046508789e+00,2.038023948669433594e+00,2.064112186431884766e+00,2.090877056121826172e+00,2.118345022201538086e+00,2.146544456481933594e+00,2.175504684448242188e+00,2.205256938934326172e+00,2.235834598541259766e+00,2.267271757125854492e+00,2.299605846405029297e+00,2.332875251770019531e+00,2.367121696472167969e+00,2.402388572692871094e+00,2.438722133636474609e+00,2.476171731948852539e+00,2.514789104461669922e+00,2.554630517959594727e+00,2.595754384994506836e+00,2.638223886489868164e+00,2.682106256484985352e+00,2.727473020553588867e+00,2.774401187896728516e+00,2.822972536087036133e+00,2.873274326324462891e+00,2.925401926040649414e+00,2.979455471038818359e+00,3.035544157028198242e+00,3.093785285949707031e+00,3.154304742813110352e+00,3.217239618301391602e+00,3.282736778259277344e+00,3.350955963134765625e+00,3.422070980072021484e+00,3.496269464492797852e+00,3.573757171630859375e+00,3.654767513275146484e+00,3.739544630050659180e+00,3.828347921371459961e+00,3.921471595764160156e+00,4.019238471984863281e+00,4.121998786926269531e+00,4.230134010314941406e+00,4.344095706939697266e+00,4.464367389678955078e+00,4.591488361358642578e+00,4.726060867309570312e+00,4.868760108947753906e+00,5.000000000000000000e+00,5.000000000000000000e+00,5.000000000000000000e+00,5.000000000000000000e+00,5.000000000000000000e+00,5.000000000000000000e+00,5.000000000000000000e+00,5.000000000000000000e+00,5.000000000000000000e+00,5.000000000000000000e+00,5.000000000000000000e+00,5.000000000000000000e+00,5.000000000000000000e+00,5.000000000000000000e+00,5.000000000000000000e+00,5.000000000000000000e+00,5.000000000000000000e+00,5.000000000000000000e+00,5.000000000000000000e+00,5.000000000000000000e+00,5.000000000000000000e+00,5.000000000000000000e+00
1.789241433143615723e+00,1.809317827224731445e+00,1.829850077629089355e+00,1.850853443145751953e+00,1.872344493865966797e+00,1.894340753555297852e+00,1.916859865188598633e+00,1.939920663833618164e+00,1.963543176651000977e+00,1.987748265266418457e+00,2.012557268142700195e+00,2.037993669509887695e+00,2.064081192016601562e+00,2.090845108032226562e+00,2.118312358856201172e+00,2.146510839462280273e+00,2.175470113754272461e+00,2.205221652984619141e+00,2.235798120498657227e+00,2.267234325408935547e+00,2.299567461013793945e+00,2.332835674285888672e+00,2.367081165313720703e+00,2.402346611022949219e+00,2.438678979873657227e+00,2.476127147674560547e+00,2.514743089675903320e+00,2.554583072662353516e+00,2.595705270767211914e+00,2.638173341751098633e+00,2.682054042816162109e+00,2.727418899536132812e+00,2.774345397949218750e+00,2.822914600372314453e+00,2.873214483261108398e+00,2.925339460372924805e+00,2.979390621185302734e+00,3.035477161407470703e+00,3.093715667724609375e+00,3.154232501983642578e+00,3.217164278030395508e+00,3.282658100128173828e+00,3.350874185562133789e+00,3.421985864639282227e+00,3.496180534362792969e+00,3.573664426803588867e+00,3.654660463333129883e+00,3.739412784576416016e+00,3.828194141387939453e+00,3.921310186386108398e+00,4.019069194793701172e+00,4.121827125549316406e+00,4.229977130889892578e+00,4.343955993652343750e+00,4.464221000671386719e+00,4.591333866119384766e+00,4.725897312164306641e+00,4.868587017059326172e+00,5.000000000000000000e+00,5.000000000000000000e+00,5.000000000000000000e+00,5.000000000000000000e+00,5.000000000000000000e+00,5.000000000000000000e+00,5.000000000000000000e+00,5.000000000000000000e+00,5.000000000000000000e+00,5.000000000000000000e+00,5.000000000000000000e+00,5.000000000000000000e+00,5.000000000000000000e+00,5.000000000000000000e+00,5.000000000000000000e+00,5.000000000000000000e+00,5.000000000000000000e+00,5.000000000000000000e+00,5.000000000000000000e+00,5.000000000000000000e+00,5.000000000000000000e+00,5.000000000000000000e+00
1.789218187332153320e+00,1.809293985366821289e+00,1.829825639724731445e+00,1.850828528404235840e+00,1.872318983078002930e+00,1.894314527511596680e+00,1.916833162307739258e+00,1.939893364906311035e+00,1.963515162467956543e+00,1.987719535827636719e+00,2.012527704238891602e+00,2.037963390350341797e+00,2.064050197601318359e+00,2.090813398361206055e+00,2.118279695510864258e+00,2.146477460861206055e+00,2.175435781478881836e+00,2.205186367034912109e+00,2.235761642456054688e+00,2.267196893692016602e+00,2.299528837203979492e+00,2.332796096801757812e+00,2.367040395736694336e+00,2.402304649353027344e+00,2.438635587692260742e+00,2.476082563400268555e+00,2.514697074890136719e+00,2.554535627365112305e+00,2.595656156539916992e+00,2.638122797012329102e+00,2.682001590728759766e+00,2.727364778518676758e+00,2.774289369583129883e+00,2.822856664657592773e+00,2.873154401779174805e+00,2.925277233123779297e+00,2.979326248168945312e+00,3.035410165786743164e+00,3.093646287918090820e+00,3.154160022735595703e+00,3.217089176177978516e+00,3.282579898834228516e+00,3.350792646408081055e+00,3.421900510787963867e+00,3.496091604232788086e+00,3.573571443557739258e+00,3.654562950134277344e+00,3.739311218261718750e+00,3.828083276748657227e+00,3.921172380447387695e+00,4.018901824951171875e+00,4.121648788452148438e+00,4.229789733886718750e+00,4.343758106231689453e+00,4.464037895202636719e+00,4.591168880462646484e+00,4.725734233856201172e+00,4.868413448333740234e+00,5.000000000000000000e+00,5.000000000000000000e+00,5.000000000000000000e+00,5.000000000000000000e+00,5.000000000000000000e+00,5.000000000000000000e+00,5.000000000000000000e+00,5.000000000000000000e+00,5.000000000000000000e+00,5.000000000000000000e+00,5.000000000000000000e+00,5.000000000000000000e+00,5.000000000000000000e+00,5.000000000000000000e+00,5.000000000000000000e+00,5.000000000000000000e+00,5.000000000000000000e+00,5.000000000000000000e+00,5.000000000000000000e+00,5.000000000000000000e+00,5.000000000000000000e+00,5.000000000000000000e+00
1.789194941520690918e+00,1.809270262718200684e+00,1.829801321029663086e+00,1.850803613662719727e+00,1.872293472290039062e+00,1.894288420677185059e+00,1.916806459426879883e+00,1.939865946769714355e+00,1.963487148284912109e+00,1.987690806388854980e+00,2.012498378753662109e+00,2.037933349609375000e+00,2.064019203186035156e+00,2.090781450271606445e+00,2.118247032165527344e+00,2.146443843841552734e+00,2.175401210784912109e+00,2.205150842666625977e+00,2.235725402832031250e+00,2.267159700393676758e+00,2.299490213394165039e+00,2.332756519317626953e+00,2.366999626159667969e+00,2.402262687683105469e+00,2.438592433929443359e+00,2.476037979125976562e+00,2.514651298522949219e+00,2.554488182067871094e+00,2.595607280731201172e+00,2.638072013854980469e+00,2.681949377059936523e+00,2.727310895919799805e+00,2.774233341217041016e+00,2.822798490524291992e+00,2.873094320297241211e+00,2.925215244293212891e+00,2.979261636734008789e+00,3.035343170166015625e+00,3.093576192855834961e+00,3.154087781906127930e+00,3.217013835906982422e+00,3.282501459121704102e+00,3.350710868835449219e+00,3.421815156936645508e+00,3.496002912521362305e+00,3.573478698730468750e+00,3.654465913772583008e+00,3.739209413528442383e+00,3.827976703643798828e+00,3.921060562133789062e+00,4.018784523010253906e+00,4.121503829956054688e+00,4.229611873626708984e+00,4.343560218811035156e+00,4.463829040527343750e+00,4.590947628021240234e+00,4.725518703460693359e+00,4.868216991424560547e+00,5.000000000000000000e+00,5.000000000000000000e+00,5.000000000000000000e+00,5.000000000000000000e+00,5.000000000000000000e+00,5.000000000000000000e+00,5.000000000000000000e+00,5.000000000000000000e+00,5.000000000000000000e+00,5.000000000000000000e+00,5.000000000000000000e+00,5.000000000000000000e+00,5.000000000000000000e+00,5.000000000000000000e+00,5.000000000000000000e+00,5.000000000000000000e+00,5.000000000000000000e+00,5.000000000000000000e+00,5.000000000000000000e+00,5.000000000000000000e+00,5.000000000000000000e+00,5.000000000000000000e+00
1.789171576499938965e+00,1.809246420860290527e+00,1.829776763916015625e+00,1.850778698921203613e+00,1.872267961502075195e+00,1.894262313842773438e+00,1.916779637336730957e+00,1.939838647842407227e+00,1.963459134101867676e+00,1.987662076950073242e+00,2.012468814849853516e+00,2.037903070449829102e+00,2.063988208770751953e+00,2.090749740600585938e+00,2.118214368820190430e+00,2.146410226821899414e+00,2.175366878509521484e+00,2.205115556716918945e+00,2.235688924789428711e+00,2.267122268676757812e+00,2.299451828002929688e+00,2.332716941833496094e+00,2.366958856582641602e+00,2.402220726013183594e+00,2.438549280166625977e+00,2.475993156433105469e+00,2.514605283737182617e+00,2.554440736770629883e+00,2.595558166503906250e+00,2.638021469116210938e+00,2.681896924972534180e+00,2.727256774902343750e+00,2.774177312850952148e+00,2.822740554809570312e+00,2.873034238815307617e+00,2.925153017044067383e+00,2.979197025299072266e+00,3.035276174545288086e+00,3.093506813049316406e+00,3.154015541076660156e+00,3.216938495635986328e+00,3.282423019409179688e+00,3.350629329681396484e+00,3.421730041503906250e+00,3.495913982391357422e+00,3.573385715484619141e+00,3.654368877410888672e+00,3.739107847213745117e+00,3.827869653701782227e+00,3.920948743820190430e+00,4.018666744232177734e+00,4.121380329132080078e+00,4.229481697082519531e+00,4.343407154083251953e+00,4.463640213012695312e+00,4.590726852416992188e+00,4.725285053253173828e+00,4.867969036102294922e+00,5.000000000000000000e+00,5.000000000000000000e+00,5.000000000000000000e+00,5.000000000000000000e+00,5.000000000000000000e+00,5.000000000000000000e+00,5.000000000000000000e+00,5.000000000000000000e+00,5.000000000000000000e+00,5.000000000000000000e+00,5.000000000000000000e+00,5.000000000000000000e+00,5.000000000000000000e+00,5.000000000000000000e+00,5.000000000000000000e+00,5.000000000000000000e+00,5.000000000000000000e+00,5.000000000000000000e+00,5.000000000000000000e+00,5.000000000000000000e+00,5.000000000000000000e+00,5.000000000000000000e+00
1.789148330688476562e+00,1.809222579002380371e+00,1.829752445220947266e+00,1.850753784179687500e+00,1.872242569923400879e+00,1.894236207008361816e+00,1.916752934455871582e+00,1.939811229705810547e+00,1.963431119918823242e+00,1.987633347511291504e+00,2.012439489364624023e+00,2.037872791290283203e+00,2.063957214355468750e+00,2.090718030929565430e+00,2.118181943893432617e+00,2.146376848220825195e+00,2.175332546234130859e+00,2.205080032348632812e+00,2.235652685165405273e+00,2.267084836959838867e+00,2.299413442611694336e+00,2.332677364349365234e+00,2.366917848587036133e+00,2.402178764343261719e+00,2.438505887985229492e+00,2.475948572158813477e+00,2.514559268951416016e+00,2.554393291473388672e+00,2.595509290695190430e+00,2.637970924377441406e+00,2.681844472885131836e+00,2.727202653884887695e+00,2.774121522903442383e+00,2.822682619094848633e+00,2.872974395751953125e+00,2.925090551376342773e+00,2.979132652282714844e+00,3.035209178924560547e+00,3.093437194824218750e+00,3.153943061828613281e+00,3.216862916946411133e+00,3.282344818115234375e+00,3.350547552108764648e+00,3.421644926071166992e+00,3.495825052261352539e+00,3.573292970657348633e+00,3.654271602630615234e+00,3.739006280899047852e+00,3.827763080596923828e+00,3.920836925506591797e+00,4.018549442291259766e+00,4.121256828308105469e+00,4.229351997375488281e+00,4.343270301818847656e+00,4.463494777679443359e+00,4.590565204620361328e+00,4.725082397460937500e+00,4.867721080780029297e+00,5.000000000000000000e+00,5.000000000000000000e+00,5.000000000000000000e+00,5.000000000000000000e+00,5.000000000000000000e+00,5.000000000000000000e+00,5.000000000000000000e+00,5.000000000000000000e+00,5.000000000000000000e+00,5.000000000000000000e+00,5.000000000000000000e+00,5.000000000000000000e+00,5.000000000000000000e+00,5.000000000000000000e+00,5.000000000000000000e+00,5.000000000000000000e+00,5.000000000000000000e+00,5.000000000000000000e+00,5.000000000000000000e+00,5.000000000000000000e+00,5.000000000000000000e+00,5.000000000000000000e+00
1.789125084877014160e+00,1.809198856353759766e+00,1.829728126525878906e+00,1.850728869438171387e+00,1.872217059135437012e+00,1.894210100173950195e+00,1.916726231575012207e+00,1.939783930778503418e+00,1.963403105735778809e+00,1.987604379653930664e+00,2.012409925460815430e+00,2.037842750549316406e+00,2.063926219940185547e+00,2.090686082839965820e+00,2.118149280548095703e+00,2.146343231201171875e+00,2.175297975540161133e+00,2.205044746398925781e+00,2.235616207122802734e+00,2.267047405242919922e+00,2.299375057220458984e+00,2.332638025283813477e+00,2.366877079010009766e+00,2.402136802673339844e+00,2.438462734222412109e+00,2.475903987884521484e+00,2.514513254165649414e+00,2.554345607757568359e+00,2.595460176467895508e+00,2.637920379638671875e+00,2.681792259216308594e+00,2.727148532867431641e+00,2.774065256118774414e+00,2.822624683380126953e+00,2.872914314270019531e+00,2.925028324127197266e+00,2.979068040847778320e+00,3.035142183303833008e+00,3.093367576599121094e+00,3.153870820999145508e+00,3.216787815093994141e+00,3.282266378402709961e+00,3.350466012954711914e+00,3.421559810638427734e+00,3.495736122131347656e+00,3.573199748992919922e+00,3.654174566268920898e+00,3.738904476165771484e+00,3.827656507492065430e+00,3.920725107192993164e+00,4.018431663513183594e+00,4.121133327484130859e+00,4.229221820831298828e+00,4.343132972717285156e+00,4.463349819183349609e+00,4.590412139892578125e+00,4.724920272827148438e+00,4.867548942565917969e+00,5.000000000000000000e+00,5.000000000000000000e+00,5.000000000000000000e+00,5.000000000000000000e+00,5.000000000000000000e+00,5.000000000000000000e+00,5.000000000000000000e+00,5.000000000000000000e+00,5.000000000000000000e+00,5.000000000000000000e+00,5.000000000000000000e+00,5.000000000000000000e+00,5.000000000000000000e+00,5.000000000000000000e+00,5.000000000000000000e+00,5.000000000000000000e+00,5.000000000000000000e+00,5.000000000000000000e+00,5.000000000000000000e+00,5.000000000000000000e+00,5.000000000000000000e+00,5.000000000000000000e+00
1.789101719856262207e+00,1.809175014495849609e+00,1.829703807830810547e+00,1.850703954696655273e+00,1.872191548347473145e+00,1.894183993339538574e+00,1.916699528694152832e+00,1.939756512641906738e+00,1.963374972343444824e+00,1.987575650215148926e+00,2.012380599975585938e+00,2.037812471389770508e+00,2.063895225524902344e+00,2.090654373168945312e+00,2.118116378784179688e+00,2.146309852600097656e+00,2.175263643264770508e+00,2.205009460449218750e+00,2.235579967498779297e+00,2.267009973526000977e+00,2.299336433410644531e+00,2.332598447799682617e+00,2.366836547851562500e+00,2.402094841003417969e+00,2.438419342041015625e+00,2.475859403610229492e+00,2.514467239379882812e+00,2.554298162460327148e+00,2.595411300659179688e+00,2.637869596481323242e+00,2.681740045547485352e+00,2.727094411849975586e+00,2.774009227752685547e+00,2.822566747665405273e+00,2.872854232788085938e+00,2.924966096878051758e+00,2.979003429412841797e+00,3.035074949264526367e+00,3.093297958374023438e+00,3.153798341751098633e+00,3.216712474822998047e+00,3.282188177108764648e+00,3.350383996963500977e+00,3.421474695205688477e+00,3.495647430419921875e+00,3.573107004165649414e+00,3.654077529907226562e+00,3.738802909851074219e+00,3.827549934387207031e+00,3.920613288879394531e+00,4.018314361572265625e+00,4.121009349822998047e+00,4.229091644287109375e+00,4.342995643615722656e+00,4.463205337524414062e+00,4.590258598327636719e+00,4.724757671356201172e+00,4.867376804351806641e+00,5.000000000000000000e+00,5.000000000000000000e+00,5.000000000000000000e+00,5.000000000000000000e+00,5.000000000000000000e+00,5.000000000000000000e+00,5.000000000000000000e+00,5.000000000000000000e+00,5.000000000000000000e+00,5.000000000000000000e+00,5.000000000000000000e+00,5.000000000000000000e+00,5.000000000000000000e+00,5.000000000000000000e+00,5.000000000000000000e+00,5.000000000000000000e+00,5.000000000000000000e+00,5.000000000000000000e+00,5.000000000000000000e+00,5.000000000000000000e+00,5.000000000000000000e+00,5.000000000000000000e+00
1.789078474044799805e+00,1.809151172637939453e+00,1.829679369926452637e+00,1.850679039955139160e+00,1.872166037559509277e+00,1.894158005714416504e+00,1.916672587394714355e+00,1.939729213714599609e+00,1.963346958160400391e+00,1.987546920776367188e+00,2.012351036071777344e+00,2.037782192230224609e+00,2.063864231109619141e+00,2.090622663497924805e+00,2.118083715438842773e+00,2.146276235580444336e+00,2.175229310989379883e+00,2.204973936080932617e+00,2.235543489456176758e+00,2.266972541809082031e+00,2.299298048019409180e+00,2.332558870315551758e+00,2.366795778274536133e+00,2.402052879333496094e+00,2.438375949859619141e+00,2.475814819335937500e+00,2.514421224594116211e+00,2.554250717163085938e+00,2.595362186431884766e+00,2.637818813323974609e+00,2.681687593460083008e+00,2.727040290832519531e+00,2.773953199386596680e+00,2.822508811950683594e+00,2.872794151306152344e+00,2.924903869628906250e+00,2.978939056396484375e+00,3.035007953643798828e+00,3.093228340148925781e+00,3.153726100921630859e+00,3.216637372970581055e+00,3.282109737396240234e+00,3.350302457809448242e+00,3.421389579772949219e+00,3.495558500289916992e+00,3.573014020919799805e+00,3.653980493545532227e+00,3.738700866699218750e+00,3.827443599700927734e+00,3.920501470565795898e+00,4.018197059631347656e+00,4.120885848999023438e+00,4.228961467742919922e+00,4.342858791351318359e+00,4.463060379028320312e+00,4.590105533599853516e+00,4.724595069885253906e+00,4.867204666137695312e+00,5.000000000000000000e+00,5.000000000000000000e+00,5.000000000000000000e+00,5.000000000000000000e+00,5.000000000000000000e+00,5.000000000000000000e+00,5.000000000000000000e+00,5.000000000000000000e+00,5.000000000000000000e+00,5.000000000000000000e+00,5.000000000000000000e+00,5.000000000000000000e+00,5.000000000000000000e+00,5.000000000000000000e+00,5.000000000000000000e+00,5.000000000000000000e+00,5.000000000000000000e+00,5.000000000000000000e+00,5.000000000000000000e+00,5.000000000000000000e+00,5.000000000000000000e+00,5.000000000000000000e+00
1.789055228233337402e+00,1.809127449989318848e+00,1.829655051231384277e+00,1.850654125213623047e+00,1.872140526771545410e+00,1.894131898880004883e+00,1.916645884513854980e+00,1.939701795578002930e+00,1.963318943977355957e+00,1.987518191337585449e+00,2.012321710586547852e+00,2.037751913070678711e+00,2.063833236694335938e+00,2.090590953826904297e+00,2.118051290512084961e+00,2.146242856979370117e+00,2.175194740295410156e+00,2.204938650131225586e+00,2.235507249832153320e+00,2.266935348510742188e+00,2.299259662628173828e+00,2.332519054412841797e+00,2.366755008697509766e+00,2.402010917663574219e+00,2.438332796096801758e+00,2.475770235061645508e+00,2.514375209808349609e+00,2.554203271865844727e+00,2.595313310623168945e+00,2.637768268585205078e+00,2.681635379791259766e+00,2.726986408233642578e+00,2.773897409439086914e+00,2.822450876235961914e+00,2.872734069824218750e+00,2.924841642379760742e+00,2.978874444961547852e+00,3.034940958023071289e+00,3.093158721923828125e+00,3.153653383255004883e+00,3.216562032699584961e+00,3.282031536102294922e+00,3.350220918655395508e+00,3.421304464340209961e+00,3.495469331741333008e+00,3.572921276092529297e+00,3.653883218765258789e+00,3.738599061965942383e+00,3.827337026596069336e+00,3.920389890670776367e+00,4.018079757690429688e+00,4.120762348175048828e+00,4.228831291198730469e+00,4.342720985412597656e+00,4.462915420532226562e+00,4.589951992034912109e+00,4.724432945251464844e+00,4.867032051086425781e+00,5.000000000000000000e+00,5.000000000000000000e+00,5.000000000000000000e+00,5.000000000000000000e+00,5.000000000000000000e+00,5.000000000000000000e+00,5.000000000000000000e+00,5.000000000000000000e+00,5.000000000000000000e+00,5.000000000000000000e+00,5.000000000000000000e+00,5.000000000000000000e+00,5.000000000000000000e+00,5.000000000000000000e+00,5.000000000000000000e+00,5.000000000000000000e+00,5.000000000000000000e+00,5.000000000000000000e+00,5.000000000000000000e+00,5.000000000000000000e+00,5.000000000000000000e+00,5.000000000000000000e+00
1.789031982421875000e+00,1.809103608131408691e+00,1.829630732536315918e+00,1.850629091262817383e+00,1.872115015983581543e+00,1.894105792045593262e+00,1.916619181632995605e+00,1.939674496650695801e+00,1.963290929794311523e+00,1.987489461898803711e+00,2.012292146682739258e+00,2.037721872329711914e+00,2.063802242279052734e+00,2.090559005737304688e+00,2.118018627166748047e+00,2.146209239959716797e+00,2.175160408020019531e+00,2.204903364181518555e+00,2.235471010208129883e+00,2.266897916793823242e+00,2.299221277236938477e+00,2.332479476928710938e+00,2.366714239120483398e+00,2.401968955993652344e+00,2.438289642333984375e+00,2.475725650787353516e+00,2.514329195022583008e+00,2.554155826568603516e+00,2.595264196395874023e+00,2.637717723846435547e+00,2.681583166122436523e+00,2.726932048797607422e+00,2.773841381072998047e+00,2.822392940521240234e+00,2.872673988342285156e+00,2.924779415130615234e+00,2.978809833526611328e+00,3.034873962402343750e+00,3.093089342117309570e+00,3.153581142425537109e+00,3.216486930847167969e+00,3.281953096389770508e+00,3.350139141082763672e+00,3.421219110488891602e+00,3.495380401611328125e+00,3.572828292846679688e+00,3.653786182403564453e+00,3.738497495651245117e+00,3.827230453491210938e+00,3.920277595520019531e+00,4.017962455749511719e+00,4.120638847351074219e+00,4.228701114654541016e+00,4.342584133148193359e+00,4.462770462036132812e+00,4.589798927307128906e+00,4.724270820617675781e+00,4.866859436035156250e+00,5.000000000000000000e+00,5.000000000000000000e+00,5.000000000000000000e+00,5.000000000000000000e+00,5.000000000000000000e+00,5.000000000000000000e+00,5.000000000000000000e+00,5.000000000000000000e+00,5.000000000000000000e+00,5.000000000000000000e+00,5.000000000000000000e+00,5.000000000000000000e+00,5.000000000000000000e+00,5.000000000000000000e+00,5.000000000000000000e+00,5.000000000000000000e+00,5.000000000000000000e+00,5.000000000000000000e+00,5.000000000000000000e+00,5.000000000000000000e+00,5.000000000000000000e+00,5.000000000000000000e+00
1.789008498191833496e+00,1.809079766273498535e+00,1.829606413841247559e+00,1.850604176521301270e+00,1.872089624404907227e+00,1.894079685211181641e+00,1.916592478752136230e+00,1.939647078514099121e+00,1.963262915611267090e+00,1.987460732460021973e+00,2.012262821197509766e+00,2.037691593170166016e+00,2.063771247863769531e+00,2.090527057647705078e+00,2.117985963821411133e+00,2.146175861358642578e+00,2.175125837326049805e+00,2.204867839813232422e+00,2.235434532165527344e+00,2.266860485076904297e+00,2.299182653427124023e+00,2.332439899444580078e+00,2.366673469543457031e+00,2.401926755905151367e+00,2.438246250152587891e+00,2.475681066513061523e+00,2.514283180236816406e+00,2.554108381271362305e+00,2.595215320587158203e+00,2.637667179107666016e+00,2.681530714035034180e+00,2.726877927780151367e+00,2.773785352706909180e+00,2.822335004806518555e+00,2.872613906860351562e+00,2.924717187881469727e+00,2.978745222091674805e+00,3.034806966781616211e+00,3.093019723892211914e+00,3.153508901596069336e+00,3.216411590576171875e+00,3.281874418258666992e+00,3.350057601928710938e+00,3.421134233474731445e+00,3.495291471481323242e+00,3.572735548019409180e+00,3.653689146041870117e+00,3.738395929336547852e+00,3.827123880386352539e+00,3.920165777206420898e+00,4.017844676971435547e+00,4.120515823364257812e+00,4.228571414947509766e+00,4.342446804046630859e+00,4.462625503540039062e+00,4.589645385742187500e+00,4.724108219146728516e+00,4.866687297821044922e+00,5.000000000000000000e+00,5.000000000000000000e+00,5.000000000000000000e+00,5.000000000000000000e+00,5.000000000000000000e+00,5.000000000000000000e+00,5.000000000000000000e+00,5.000000000000000000e+00,5.000000000000000000e+00,5.000000000000000000e+00,5.000000000000000000e+00,5.000000000000000000e+00,5.000000000000000000e+00,5.000000000000000000e+00,5.000000000000000000e+00,5.000000000000000000e+00,5.000000000000000000e+00,5.000000000000000000e+00,5.000000000000000000e+00,5.000000000000000000e+00,5.000000000000000000e+00,5.000000000000000000e+00
1.788985252380371094e+00,1.809056043624877930e+00,1.829582095146179199e+00,1.850579261779785156e+00,1.872064113616943359e+00,1.894053578376770020e+00,1.916565775871276855e+00,1.939619779586791992e+00,1.963234901428222656e+00,1.987432003021240234e+00,2.012233257293701172e+00,2.037661314010620117e+00,2.063740253448486328e+00,2.090495347976684570e+00,2.117953300476074219e+00,2.146142244338989258e+00,2.175091505050659180e+00,2.204832553863525391e+00,2.235398054122924805e+00,2.266823053359985352e+00,2.299144268035888672e+00,2.332400321960449219e+00,2.366632699966430664e+00,2.401884794235229492e+00,2.438203096389770508e+00,2.475636720657348633e+00,2.514237165451049805e+00,2.554060935974121094e+00,2.595166206359863281e+00,2.637616395950317383e+00,2.681478500366210938e+00,2.726823806762695312e+00,2.773729562759399414e+00,2.822276830673217773e+00,2.872554063796997070e+00,2.924654960632324219e+00,2.978680610656738281e+00,3.034739971160888672e+00,3.092950105667114258e+00,3.153436422348022461e+00,3.216336250305175781e+00,3.281796216964721680e+00,3.349976062774658203e+00,3.421049118041992188e+00,3.495202779769897461e+00,3.572642803192138672e+00,3.653591632843017578e+00,3.738294363021850586e+00,3.827017545700073242e+00,3.920053958892822266e+00,4.017727375030517578e+00,4.120391845703125000e+00,4.228441238403320312e+00,4.342309951782226562e+00,4.462480545043945312e+00,4.589492321014404297e+00,4.723946094512939453e+00,4.802554130554199219e+00,4.801373958587646484e+00,4.800194263458251953e+00,4.799015045166015625e+00,4.797835826873779297e+00,4.796658039093017578e+00,4.795480251312255859e+00,4.794303417205810547e+00,4.793127536773681641e+00,4.791951179504394531e+00,4.790776252746582031e+00,4.789601325988769531e+00,4.788427829742431641e+00,4.787253856658935547e+00,4.786081314086914062e+00,4.784908771514892578e+00,4.783736705780029297e+00,4.782566070556640625e+00,4.781394958496093750e+00,4.780225276947021484e+00,4.779055595397949219e+00,4.777886867523193359e+00,4.776718616485595703e+00
1.788961887359619141e+00,1.809032201766967773e+00,1.829557657241821289e+00,1.850554347038269043e+00,1.872038602828979492e+00,1.894027471542358398e+00,1.916539072990417480e+00,1.939592361450195312e+00,1.963206887245178223e+00,1.987403273582458496e+00,2.012203693389892578e+00,2.037631273269653320e+00,2.063709259033203125e+00,2.090463638305664062e+00,2.117920637130737305e+00,2.146108627319335938e+00,2.175057172775268555e+00,2.204797267913818359e+00,2.235361814498901367e+00,2.266785860061645508e+00,2.299105644226074219e+00,2.332360744476318359e+00,2.366592168807983398e+00,2.401842832565307617e+00,2.438159942626953125e+00,2.475592136383056641e+00,2.514191150665283203e+00,2.554013490676879883e+00,2.595117092132568359e+00,2.637565851211547852e+00,2.681426286697387695e+00,2.726769685745239258e+00,2.773673534393310547e+00,2.822218894958496094e+00,2.872493982315063477e+00,2.924592733383178711e+00,2.978615999221801758e+00,3.034672975540161133e+00,3.092880249023437500e+00,3.153364181518554688e+00,3.216261148452758789e+00,3.281717777252197266e+00,3.349894285202026367e+00,3.420963525772094727e+00,3.495113849639892578e+00,3.572550058364868164e+00,3.653494596481323242e+00,3.738192558288574219e+00,3.740906476974487305e+00,3.740190744400024414e+00,3.739474534988403320e+00,3.738758802413940430e+00,3.738043069839477539e+00,3.737328290939331055e+00,3.736613273620605469e+00,3.735898494720458984e+00,3.735184431076049805e+00,3.734470367431640625e+00,3.733756303787231445e+00,3.733043193817138672e+00,3.732329845428466797e+00,3.731616735458374023e+00,3.730903863906860352e+00,3.730191707611083984e+00,3.729479312896728516e+00,3.728767395019531250e+00,3.728056192398071289e+00,3.727344512939453125e+00,3.726633310317993164e+00,3.725922346115112305e+00,3.725212335586547852e+00,3.724501848220825195e+00,3.723791599273681641e+00,3.723082304000854492e+00,3.722372770309448242e+00,3.721663475036621094e+00,3.720954418182373047e+00,3.720246076583862305e+00,3.719537496566772461e+00,3.718829393386840820e+00
1.788938641548156738e+00,1.809008359909057617e+00,1.829533338546752930e+00,1.850529432296752930e+00,1.872013092041015625e+00,1.894001364707946777e+00,1.916512370109558105e+00,1.939564824104309082e+00,1.963178873062133789e+00,1.987374663352966309e+00,2.012174367904663086e+00,2.037600994110107422e+00,2.063678264617919922e+00,2.090431928634643555e+00,2.117888212203979492e+00,2.146075248718261719e+00,2.175022602081298828e+00,2.204761981964111328e+00,2.235325336456298828e+00,2.266748428344726562e+00,2.299067258834838867e+00,2.332321166992187500e+00,2.366551399230957031e+00,2.401800870895385742e+00,2.438116550445556641e+00,2.475547313690185547e+00,2.514145374298095703e+00,2.553966045379638672e+00,2.595068216323852539e+00,2.637515306472778320e+00,2.681373596191406250e+00,2.726715803146362305e+00,2.773617506027221680e+00,2.822160959243774414e+00,2.872433900833129883e+00,2.924530267715454102e+00,2.978551626205444336e+00,3.034605979919433594e+00,3.064138412475585938e+00,3.063657760620117188e+00,3.063177347183227539e+00,3.062697172164916992e+00,3.062216997146606445e+00,3.061737060546875000e+00,3.061257362365722656e+00,3.060777664184570312e+00,3.060297966003417969e+00,3.059818506240844727e+00,3.059339523315429688e+00,3.058860540390014648e+00,3.058381557464599609e+00,3.057902574539184570e+00,3.057424068450927734e+00,3.056945562362670898e+00,3.056467294692993164e+00,3.055989265441894531e+00,3.055511236190795898e+00,3.055033206939697266e+00,3.054555416107177734e+00,3.054078102111816406e+00,3.053600549697875977e+00,3.053123235702514648e+00,3.052646398544311523e+00,3.052169322967529297e+00,3.051692485809326172e+00,3.051215887069702148e+00,3.050739288330078125e+00,3.050262928009033203e+00,3.049786567687988281e+00,3.049310684204101562e+00,3.048834800720214844e+00,3.048358917236328125e+00,3.047883510589599609e+00,3.047407865524291992e+00,3.046932458877563477e+00,3.046457290649414062e+00,3.045982360839843750e+00,3.045507431030273438e+00,3.045032501220703125e+00,3.044558286666870117e+00
1.788915395736694336e+00,1.808984637260437012e+00,1.829509019851684570e+00,1.850504517555236816e+00,1.871987700462341309e+00,1.893975377082824707e+00,1.916485667228698730e+00,1.939537405967712402e+00,1.963150739669799805e+00,1.987345933914184570e+00,2.012144804000854492e+00,2.037570714950561523e+00,2.063647270202636719e+00,2.090399980545043945e+00,2.117855548858642578e+00,2.146041631698608398e+00,2.174988269805908203e+00,2.204726457595825195e+00,2.235289096832275391e+00,2.266710996627807617e+00,2.299028873443603516e+00,2.332281589508056641e+00,2.366510391235351562e+00,2.401758909225463867e+00,2.438073396682739258e+00,2.475502729415893555e+00,2.514099359512329102e+00,2.553918600082397461e+00,2.594725608825683594e+00,2.594381093978881836e+00,2.594036579132080078e+00,2.593692064285278320e+00,2.593347787857055664e+00,2.593003749847412109e+00,2.592659473419189453e+00,2.592315196990966797e+00,2.591971397399902344e+00,2.591627597808837891e+00,2.591283798217773438e+00,2.590939998626708984e+00,2.590596437454223633e+00,2.590252876281738281e+00,2.589909553527832031e+00,2.589565992355346680e+00,2.589222908020019531e+00,2.588879823684692383e+00,2.588536739349365234e+00,2.588193893432617188e+00,2.587850809097290039e+00,2.587507963180541992e+00,2.587165355682373047e+00,2.586822748184204102e+00,2.586480379104614258e+00,2.586137771606445312e+00,2.585795640945434570e+00,2.585453271865844727e+00,2.585111141204833984e+00,2.584769010543823242e+00,2.584427118301391602e+00,2.584085226058959961e+00,2.583743333816528320e+00,2.583401679992675781e+00,2.583060264587402344e+00,2.582718610763549805e+00,2.582377195358276367e+00,2.582036018371582031e+00,2.581694602966308594e+00,2.581353425979614258e+00,2.581012487411499023e+00,2.580671548843383789e+00,2.580330610275268555e+00,2.579989910125732422e+00,2.579649209976196289e+00,2.579308509826660156e+00,2.578967809677124023e+00,2.578627586364746094e+00,2.578287124633789062e+00,2.577946901321411133e+00,2.577606678009033203e+00,2.577266693115234375e+00
1.788892149925231934e+00,1.808960795402526855e+00,1.829484701156616211e+00,1.850479602813720703e+00,1.871961951255798340e+00,1.893949270248413086e+00,1.916458964347839355e+00,1.939510107040405273e+00,1.963122725486755371e+00,1.987317204475402832e+00,2.012115478515625000e+00,2.037540674209594727e+00,2.063616275787353516e+00,2.090368270874023438e+00,2.117822647094726562e+00,2.146008253097534180e+00,2.174953937530517578e+00,2.204690933227539062e+00,2.235252857208251953e+00,2.249771833419799805e+00,2.249512672424316406e+00,2.249253749847412109e+00,2.248994827270507812e+00,2.248735904693603516e+00,2.248476982116699219e+00,2.248218297958374023e+00,2.247959613800048828e+00,2.247700929641723633e+00,2.247442245483398438e+00,2.247183799743652344e+00,2.246925115585327148e+00,2.246666669845581055e+00,2.246408462524414062e+00,2.246150255203247070e+00,2.245891809463500977e+00,2.245633840560913086e+00,2.245375633239746094e+00,2.245117425918579102e+00,2.244859457015991211e+00,2.244601488113403320e+00,2.244343757629394531e+00,2.244085788726806641e+00,2.243828058242797852e+00,2.243570327758789062e+00,2.243312597274780273e+00,2.243055105209350586e+00,2.242797613143920898e+00,2.242540121078491211e+00,2.242282629013061523e+00,2.242025375366210938e+00,2.241768121719360352e+00,2.241510868072509766e+00,2.241253614425659180e+00,2.240996599197387695e+00,2.240739345550537109e+00,2.240482330322265625e+00,2.240225315093994141e+00,2.239968538284301758e+00,2.239711761474609375e+00,2.239454984664916992e+00,2.239198207855224609e+00,2.238941669464111328e+00,2.238685131072998047e+00,2.238428592681884766e+00,2.238172054290771484e+00,2.237915754318237305e+00,2.237659215927124023e+00,2.237403154373168945e+00,2.237146854400634766e+00,2.236890554428100586e+00,2.236634492874145508e+00,2.236378431320190430e+00,2.236122369766235352e+00,2.235866546630859375e+00,2.235610723495483398e+00,2.235354661941528320e+00,2.235098838806152344e+00,2.234843254089355469e+00,2.234587669372558594e+00,2.234332084655761719e+00
1.788868904113769531e+00,1.808936834335327148e+00,1.829460382461547852e+00,1.850454688072204590e+00,1.871936440467834473e+00,1.893923163414001465e+00,1.916432261466979980e+00,1.939482688903808594e+00,1.963094711303710938e+00,1.985976338386535645e+00,1.985774397850036621e+00,1.985572457313537598e+00,1.985370635986328125e+00,1.985169172286987305e+00,1.984967350959777832e+00,1.984765648841857910e+00,1.984563946723937988e+00,1.984362363815307617e+00,1.984160780906677246e+00,1.983959197998046875e+00,1.983757972717285156e+00,1.983556509017944336e+00,1.983355045318603516e+00,1.983153700828552246e+00,1.982952356338500977e+00,1.982751011848449707e+00,1.982549786567687988e+00,1.982348799705505371e+00,1.982147574424743652e+00,1.981946468353271484e+00,1.981745362281799316e+00,1.981544256210327148e+00,1.981343269348144531e+00,1.981142282485961914e+00,1.980941295623779297e+00,1.980740666389465332e+00,1.980539798736572266e+00,1.980339050292968750e+00,1.980138301849365234e+00,1.979937553405761719e+00,1.979736804962158203e+00,1.979536175727844238e+00,1.979335784912109375e+00,1.979135155677795410e+00,1.978934645652770996e+00,1.978734135627746582e+00,1.978533744812011719e+00,1.978333353996276855e+00,1.978132963180541992e+00,1.977932810783386230e+00,1.977732539176940918e+00,1.977532267570495605e+00,1.977332115173339844e+00,1.977131962776184082e+00,1.976931810379028320e+00,1.976731777191162109e+00,1.976531863212585449e+00,1.976331949234008789e+00,1.976131916046142578e+00,1.975932002067565918e+00,1.975732088088989258e+00,1.975532293319702148e+00,1.975332498550415039e+00,1.975132942199707031e+00,1.974933266639709473e+00,1.974733591079711914e+00,1.974533915519714355e+00,1.974334239959716797e+00,1.974134683609008789e+00,1.973935246467590332e+00,1.973735690116882324e+00,1.973536491394042969e+00,1.973337173461914062e+00,1.973137736320495605e+00,1.972938418388366699e+00,1.972739219665527344e+00,1.972539901733398438e+00,1.972340941429138184e+00,1.972141861915588379e+00,1.971942663192749023e+00
1.777389049530029297e+00,1.777227282524108887e+00,1.777065634727478027e+00,1.776903986930847168e+00,1.776742339134216309e+00,1.776580929756164551e+00,1.776419281959533691e+00,1.776257753372192383e+00,1.776096224784851074e+00,1.775934696197509766e+00,1.775773286819458008e+00,1.775611758232116699e+00,1.775450587272644043e+00,1.775289177894592285e+00,1.775127887725830078e+00,1.774966597557067871e+00,1.774805188179016113e+00,1.774644017219543457e+00,1.774482727050781250e+00,1.774321675300598145e+00,1.774160504341125488e+00,1.773999452590942383e+00,1.773838281631469727e+00,1.773677229881286621e+00,1.773516178131103516e+00,1.773355126380920410e+00,1.773194313049316406e+00,1.773033380508422852e+00,1.772872328758239746e+00,1.772711515426635742e+00,1.772550582885742188e+00,1.772389769554138184e+00,1.772228956222534180e+00,1.772068142890930176e+00,1.771907567977905273e+00,1.771746754646301270e+00,1.771586060523986816e+00,1.771425366401672363e+00,1.771264791488647461e+00,1.771104097366333008e+00,1.770943522453308105e+00,1.770783185958862305e+00,1.770622611045837402e+00,1.770462155342102051e+00,1.770301580429077148e+00,1.770141124725341797e+00,1.769980788230895996e+00,1.769820332527160645e+00,1.769660234451293945e+00,1.769499897956848145e+00,1.769339561462402344e+00,1.769179344177246094e+00,1.769019007682800293e+00,1.768858790397644043e+00,1.768698692321777344e+00,1.768538713455200195e+00,1.768378496170043945e+00,1.768218398094177246e+00,1.768058419227600098e+00,1.767898321151733398e+00,1.767738342285156250e+00,1.767578363418579102e+00,1.767418384552001953e+00,1.767258644104003906e+00,1.767098784446716309e+00,1.766938924789428711e+00,1.766779065132141113e+00,1.766619205474853516e+00,1.766459465026855469e+00,1.766299724578857422e+00,1.766140222549438477e+00,1.765980482101440430e+00,1.765820860862731934e+00,1.765661239624023438e+00,1.765501618385314941e+00,1.765342116355895996e+00,1.765182733535766602e+00,1.765023231506347656e+00,1.764863729476928711e+00,1.764704227447509766e+00
1.607262015342712402e+00,1.607129693031311035e+00,1.606997489929199219e+00,1.606865286827087402e+00,1.606733202934265137e+00,1.606601119041442871e+00,1.606468915939331055e+00,1.606336832046508789e+00,1.606204748153686523e+00,1.606072664260864258e+00,1.605940580368041992e+00,1.605808734893798828e+00,1.605676651000976562e+00,1.605544686317443848e+00,1.605412721633911133e+00,1.605280756950378418e+00,1.605148792266845703e+00,1.605016946792602539e+00,1.604885220527648926e+00,1.604753375053405762e+00,1.604621529579162598e+00,1.604489684104919434e+00,1.604357838630676270e+00,1.604226112365722656e+00,1.604094386100769043e+00,1.603962779045104980e+00,1.603831052780151367e+00,1.603699326515197754e+00,1.603567719459533691e+00,1.603435993194580078e+00,1.603304386138916016e+00,1.603172779083251953e+00,1.603041172027587891e+00,1.602909803390502930e+00,1.602778315544128418e+00,1.602646708488464355e+00,1.602515220642089844e+00,1.602383732795715332e+00,1.602252364158630371e+00,1.602120876312255859e+00,1.601989626884460449e+00,1.601858258247375488e+00,1.601726889610290527e+00,1.601595520973205566e+00,1.601464271545410156e+00,1.601332902908325195e+00,1.601201653480529785e+00,1.601070523262023926e+00,1.600939273834228516e+00,1.600808143615722656e+00,1.600676894187927246e+00,1.600545763969421387e+00,1.600414633750915527e+00,1.600283503532409668e+00,1.600152492523193359e+00,1.600021362304687500e+00,1.599890351295471191e+00,1.599759221076965332e+00,1.599628210067749023e+00,1.599497199058532715e+00,1.599366307258605957e+00,1.599235296249389648e+00,1.599104523658752441e+00,1.598973631858825684e+00,1.598842740058898926e+00,1.598711848258972168e+00,1.598580956459045410e+00,1.598450183868408203e+00,1.598319411277770996e+00,1.598188757896423340e+00,1.598057985305786133e+00,1.597927212715148926e+00,1.597796440124511719e+00,1.597665786743164062e+00,1.597535133361816406e+00,1.597404479980468750e+00,1.597273945808410645e+00,1.597143292427062988e+00,1.597012758255004883e+00,1.596882224082946777e+00
1.466858148574829102e+00,1.466747999191284180e+00,1.466637849807739258e+00,1.466527819633483887e+00,1.466417670249938965e+00,1.466307640075683594e+00,1.466197490692138672e+00,1.466087460517883301e+00,1.465977430343627930e+00,1.465867400169372559e+00,1.465757489204406738e+00,1.465647578239440918e+00,1.465537548065185547e+00,1.465427637100219727e+00,1.465317606925964355e+00,1.465207695960998535e+00,1.465097784996032715e+00,1.464987993240356445e+00,1.464878201484680176e+00,1.464768290519714355e+00,1.464658498764038086e+00,1.464548587799072266e+00,1.464438796043395996e+00,1.464329004287719727e+00,1.464219212532043457e+00,1.464109659194946289e+00,1.463999867439270020e+00,1.463890194892883301e+00,1.463780403137207031e+00,1.463670730590820312e+00,1.463561058044433594e+00,1.463451385498046875e+00,1.463341832160949707e+00,1.463232278823852539e+00,1.463122606277465820e+00,1.463013052940368652e+00,1.462903380393981934e+00,1.462793827056884766e+00,1.462684273719787598e+00,1.462574958801269531e+00,1.462465405464172363e+00,1.462355852127075195e+00,1.462246417999267578e+00,1.462136983871459961e+00,1.462027549743652344e+00,1.461918115615844727e+00,1.461808800697326660e+00,1.461699366569519043e+00,1.461590051651000977e+00,1.461480617523193359e+00,1.461371302604675293e+00,1.461261987686157227e+00,1.461152672767639160e+00,1.461043477058410645e+00,1.460934162139892578e+00,1.460824966430664062e+00,1.460715651512145996e+00,1.460606455802917480e+00,1.460497260093688965e+00,1.460387945175170898e+00,1.460278868675231934e+00,1.460169792175292969e+00,1.460060596466064453e+00,1.459951519966125488e+00,1.459842324256896973e+00,1.459733247756958008e+00,1.459624171257019043e+00,1.459515094757080078e+00,1.459406137466430664e+00,1.459297060966491699e+00,1.459188103675842285e+00,1.459079027175903320e+00,1.458970069885253906e+00,1.458861112594604492e+00,1.458752155303955078e+00,1.458643317222595215e+00,1.458534359931945801e+00,1.458425521850585938e+00,1.458316564559936523e+00,1.458207726478576660e+00
1.349013805389404297e+00,1.348920583724975586e+00,1.348827481269836426e+00,1.348734378814697266e+00,1.348641276359558105e+00,1.348548173904418945e+00,1.348455071449279785e+00,1.348361968994140625e+00,1.348268866539001465e+00,1.348175883293151855e+00,1.348082900047302246e+00,1.347989797592163086e+00,1.347896814346313477e+00,1.347803711891174316e+00,1.347710728645324707e+00,1.347617745399475098e+00,1.347524881362915039e+00,1.347431898117065430e+00,1.347339034080505371e+00,1.347246050834655762e+00,1.347153186798095703e+00,1.347060203552246094e+00,1.346967339515686035e+00,1.346874475479125977e+00,1.346781730651855469e+00,1.346688866615295410e+00,1.346596002578735352e+00,1.346503138542175293e+00,1.346410274505615234e+00,1.346317529678344727e+00,1.346224665641784668e+00,1.346132040023803711e+00,1.346039295196533203e+00,1.345946550369262695e+00,1.345853805541992188e+00,1.345761060714721680e+00,1.345668315887451172e+00,1.345575571060180664e+00,1.345483064651489258e+00,1.345390319824218750e+00,1.345297694206237793e+00,1.345204949378967285e+00,1.345112323760986328e+00,1.345019698143005371e+00,1.344927072525024414e+00,1.344834566116333008e+00,1.344742059707641602e+00,1.344649434089660645e+00,1.344556808471679688e+00,1.344464302062988281e+00,1.344371795654296875e+00,1.344279170036315918e+00,1.344186663627624512e+00,1.344094276428222656e+00,1.344001770019531250e+00,1.343909382820129395e+00,1.343816876411437988e+00,1.343724370002746582e+00,1.343631982803344727e+00,1.343539595603942871e+00,1.343447208404541016e+00,1.343354821205139160e+00,1.343262434005737305e+00,1.343170046806335449e+00,1.343077659606933594e+00,1.342985391616821289e+00,1.342893004417419434e+00,1.342800736427307129e+00,1.342708468437194824e+00,1.342616200447082520e+00,1.342523932456970215e+00,1.342431545257568359e+00,1.342339277267456055e+00,1.342247128486633301e+00,1.342154979705810547e+00,1.342062711715698242e+00,1.341970562934875488e+00,1.341878294944763184e+00,1.341786146163940430e+00,1.341693997383117676e+00
1.248696088790893555e+00,1.248616337776184082e+00,1.248536586761474609e+00,1.248456716537475586e+00,1.248376965522766113e+00,1.248297095298767090e+00,1.248217344284057617e+00,1.248137593269348145e+00,1.248057961463928223e+00,1.247978210449218750e+00,1.247898459434509277e+00,1.247818708419799805e+00,1.247738957405090332e+00,1.247659325599670410e+00,1.247579574584960938e+00,1.247499942779541016e+00,1.247420310974121094e+00,1.247340679168701172e+00,1.247261047363281250e+00,1.247181415557861328e+00,1.247101783752441406e+00,1.247022151947021484e+00,1.246942520141601562e+00,1.246863007545471191e+00,1.246783375740051270e+00,1.246703863143920898e+00,1.246624231338500977e+00,1.246544718742370605e+00,1.246465086936950684e+00,1.246385574340820312e+00,1.246306180953979492e+00,1.246226549148559570e+00,1.246147036552429199e+00,1.246067643165588379e+00,1.245988130569458008e+00,1.245908617973327637e+00,1.245829105377197266e+00,1.245749711990356445e+00,1.245670318603515625e+00,1.245590925216674805e+00,1.245511412620544434e+00,1.245432019233703613e+00,1.245352625846862793e+00,1.245273232460021973e+00,1.245193958282470703e+00,1.245114564895629883e+00,1.245035171508789062e+00,1.244955778121948242e+00,1.244876384735107422e+00,1.244797110557556152e+00,1.244717717170715332e+00,1.244638442993164062e+00,1.244559168815612793e+00,1.244479894638061523e+00,1.244400620460510254e+00,1.244321346282958984e+00,1.244242072105407715e+00,1.244162797927856445e+00,1.244083523750305176e+00,1.244004368782043457e+00,1.243925213813781738e+00,1.243845939636230469e+00,1.243766784667968750e+00,1.243687629699707031e+00,1.243608355522155762e+00,1.243529200553894043e+00,1.243450164794921875e+00,1.243371009826660156e+00,1.243291854858398438e+00,1.243212699890136719e+00,1.243133544921875000e+00,1.243054389953613281e+00,1.242975354194641113e+00,1.242896318435668945e+00,1.242817282676696777e+00,1.242738127708435059e+00,1.242659091949462891e+00,1.242580056190490723e+00,1.242501020431518555e+00,1.242421984672546387e+00
1.162265777587890625e+00,1.162196636199951172e+00,1.162127494812011719e+00,1.162058353424072266e+00,1.161989212036132812e+00,1.161920070648193359e+00,1.161850929260253906e+00,1.161781907081604004e+00,1.161712884902954102e+00,1.161643743515014648e+00,1.161574602127075195e+00,1.161505579948425293e+00,1.161436557769775391e+00,1.161367416381835938e+00,1.161298394203186035e+00,1.161229372024536133e+00,1.161160349845886230e+00,1.161091327667236328e+00,1.161022305488586426e+00,1.160953283309936523e+00,1.160884380340576172e+00,1.160815358161926270e+00,1.160746455192565918e+00,1.160677433013916016e+00,1.160608410835266113e+00,1.160539507865905762e+00,1.160470485687255859e+00,1.160401582717895508e+00,1.160332679748535156e+00,1.160263776779174805e+00,1.160194873809814453e+00,1.160125970840454102e+00,1.160057067871093750e+00,1.159988164901733398e+00,1.159919261932373047e+00,1.159850358963012695e+00,1.159781575202941895e+00,1.159712672233581543e+00,1.159643888473510742e+00,1.159574985504150391e+00,1.159506201744079590e+00,1.159437298774719238e+00,1.159368515014648438e+00,1.159299731254577637e+00,1.159230947494506836e+00,1.159162163734436035e+00,1.159093379974365234e+00,1.159024596214294434e+00,1.158955812454223633e+00,1.158887028694152832e+00,1.158818244934082031e+00,1.158749580383300781e+00,1.158680796623229980e+00,1.158612132072448730e+00,1.158543348312377930e+00,1.158474683761596680e+00,1.158405900001525879e+00,1.158337235450744629e+00,1.158268690109252930e+00,1.158200025558471680e+00,1.158131361007690430e+00,1.158062696456909180e+00,1.157994031906127930e+00,1.157925367355346680e+00,1.157856702804565430e+00,1.157788157463073730e+00,1.157719492912292480e+00,1.157650828361511230e+00,1.157582283020019531e+00,1.157513618469238281e+00,1.157445073127746582e+00,1.157376527786254883e+00,1.157307982444763184e+00,1.157239437103271484e+00,1.157170891761779785e+00,1.157102346420288086e+00,1.157033801078796387e+00,1.156965255737304688e+00,1.156896710395812988e+00,1.156828165054321289e+00
1.087025642395019531e+00,1.086965203285217285e+00,1.086904644966125488e+00,1.086844205856323242e+00,1.086783766746520996e+00,1.086723208427429199e+00,1.086662769317626953e+00,1.086602449417114258e+00,1.086542010307312012e+00,1.086481451988220215e+00,1.086421132087707520e+00,1.086360692977905273e+00,1.086300253868103027e+00,1.086239814758300781e+00,1.086179494857788086e+00,1.086119055747985840e+00,1.086058735847473145e+00,1.085998296737670898e+00,1.085937857627868652e+00,1.085877537727355957e+00,1.085817217826843262e+00,1.085756897926330566e+00,1.085696578025817871e+00,1.085636138916015625e+00,1.085575819015502930e+00,1.085515499114990234e+00,1.085455179214477539e+00,1.085394859313964844e+00,1.085334658622741699e+00,1.085274338722229004e+00,1.085214018821716309e+00,1.085153698921203613e+00,1.085093379020690918e+00,1.085033178329467773e+00,1.084972858428955078e+00,1.084912657737731934e+00,1.084852457046508789e+00,1.084792137145996094e+00,1.084731936454772949e+00,1.084671616554260254e+00,1.084611415863037109e+00,1.084551215171813965e+00,1.084491014480590820e+00,1.084430813789367676e+00,1.084370613098144531e+00,1.084310412406921387e+00,1.084250211715698242e+00,1.084190011024475098e+00,1.084129810333251953e+00,1.084069728851318359e+00,1.084009647369384766e+00,1.083949446678161621e+00,1.083889245986938477e+00,1.083829164505004883e+00,1.083768963813781738e+00,1.083708882331848145e+00,1.083648681640625000e+00,1.083588719367980957e+00,1.083528518676757812e+00,1.083468437194824219e+00,1.083408355712890625e+00,1.083348274230957031e+00,1.083288192749023438e+00,1.083228111267089844e+00,1.083168029785156250e+00,1.083108067512512207e+00,1.083047986030578613e+00,1.082987904548645020e+00,1.082927823066711426e+00,1.082867860794067383e+00,1.082807779312133789e+00,1.082747697830200195e+00,1.082687735557556152e+00,1.082627773284912109e+00,1.082567811012268066e+00,1.082507729530334473e+00,1.082447767257690430e+00,1.082387804985046387e+00,1.082327842712402344e+00,1.082267880439758301e+00
1.020934700965881348e+00,1.020881295204162598e+00,1.020828008651733398e+00,1.020774602890014648e+00,1.020721316337585449e+00,1.020667910575866699e+00,1.020614624023437500e+00,1.020561337471008301e+00,1.020508050918579102e+00,1.020454645156860352e+00,1.020401358604431152e+00,1.020348072052001953e+00,1.020294785499572754e+00,1.020241498947143555e+00,1.020188212394714355e+00,1.020134925842285156e+00,1.020081639289855957e+00,1.020028352737426758e+00,1.019975185394287109e+00,1.019921898841857910e+00,1.019868731498718262e+00,1.019815444946289062e+00,1.019762158393859863e+00,1.019708991050720215e+00,1.019655704498291016e+00,1.019602537155151367e+00,1.019549250602722168e+00,1.019496083259582520e+00,1.019442915916442871e+00,1.019389629364013672e+00,1.019336462020874023e+00,1.019283294677734375e+00,1.019230127334594727e+00,1.019176959991455078e+00,1.019123673439025879e+00,1.019070625305175781e+00,1.019017457962036133e+00,1.018964290618896484e+00,1.018911123275756836e+00,1.018857955932617188e+00,1.018804788589477539e+00,1.018751621246337891e+00,1.018698573112487793e+00,1.018645524978637695e+00,1.018592357635498047e+00,1.018539190292358398e+00,1.018486142158508301e+00,1.018432974815368652e+00,1.018379926681518555e+00,1.018326878547668457e+00,1.018273830413818359e+00,1.018220663070678711e+00,1.018167614936828613e+00,1.018114566802978516e+00,1.018061518669128418e+00,1.018008351325988770e+00,1.017955422401428223e+00,1.017902374267578125e+00,1.017849326133728027e+00,1.017796277999877930e+00,1.017743229866027832e+00,1.017690181732177734e+00,1.017637133598327637e+00,1.017584204673767090e+00,1.017531156539916992e+00,1.017478227615356445e+00,1.017425179481506348e+00,1.017372250556945801e+00,1.017319202423095703e+00,1.017266273498535156e+00,1.017213225364685059e+00,1.017160296440124512e+00,1.017107367515563965e+00,1.017054438591003418e+00,1.017001390457153320e+00,1.016948461532592773e+00,1.016895532608032227e+00,1.016842603683471680e+00,1.016789674758911133e+00,1.016736745834350586e+00
9.624198675155639648e-01,9.623723626136779785e-01,9.623249769210815430e-01,9.622775316238403320e-01,9.622301459312438965e-01,9.621828198432922363e-01,9.621353745460510254e-01,9.620880484580993652e-01,9.620406031608581543e-01,9.619932770729064941e-01,9.619458317756652832e-01,9.618985056877136230e-01,9.618511795997619629e-01,9.618037343025207520e-01,9.617564678192138672e-01,9.617090225219726562e-01,9.616617560386657715e-01,9.616143703460693359e-01,9.615670442581176758e-01,9.615197777748107910e-01,9.614723920822143555e-01,9.614251255989074707e-01,9.613777399063110352e-01,9.613304734230041504e-01,9.612830877304077148e-01,9.612358212471008301e-01,9.611886143684387207e-01,9.611412286758422852e-01,9.610940217971801758e-01,9.610466361045837402e-01,9.609994292259216309e-01,9.609521031379699707e-01,9.609048962593078613e-01,9.608575105667114258e-01,9.608103036880493164e-01,9.607630968093872070e-01,9.607157707214355469e-01,9.606686234474182129e-01,9.606212973594665527e-01,9.605740904808044434e-01,9.605268239974975586e-01,9.604796171188354492e-01,9.604324698448181152e-01,9.603852033615112305e-01,9.603379964828491211e-01,9.602907299995422363e-01,9.602435827255249023e-01,9.601963162422180176e-01,9.601491689682006836e-01,9.601020216941833496e-01,9.600547552108764648e-01,9.600076675415039062e-01,9.599604010581970215e-01,9.599132537841796875e-01,9.598660469055175781e-01,9.598188996315002441e-01,9.597718119621276855e-01,9.597246050834655762e-01,9.596775174140930176e-01,9.596303105354309082e-01,9.595832228660583496e-01,9.595360159873962402e-01,9.594889283180236816e-01,9.594418406486511230e-01,9.593946337699890137e-01,9.593476057052612305e-01,9.593003988265991211e-01,9.592533111572265625e-01,9.592061638832092285e-01,9.591591358184814453e-01,9.591120481491088867e-01,9.590649008750915527e-01,9.590178728103637695e-01,9.589707255363464355e-01,9.589236974716186523e-01,9.588766098022460938e-01,9.588295817375183105e-01,9.587825536727905273e-01,9.587354063987731934e-01,9.586884379386901855e-01
9.102488160133361816e-01,9.102064371109008789e-01,9.101639389991760254e-01,9.101215600967407227e-01,9.100792407989501953e-01,9.100368022918701172e-01,9.099944233894348145e-01,9.099519848823547363e-01,9.099096655845642090e-01,9.098672270774841309e-01,9.098248481750488281e-01,9.097825288772583008e-01,9.097400903701782227e-01,9.096977710723876953e-01,9.096553325653076172e-01,9.096130728721618652e-01,9.095706343650817871e-01,9.095283150672912598e-01,9.094860553741455078e-01,9.094436168670654297e-01,9.094013571739196777e-01,9.093589186668395996e-01,9.093166589736938477e-01,9.092742800712585449e-01,9.092319607734680176e-01,9.091897010803222656e-01,9.091473221778869629e-01,9.091050624847412109e-01,9.090626835823059082e-01,9.090204238891601562e-01,9.089781045913696289e-01,9.089358448982238770e-01,9.088935256004333496e-01,9.088512659072875977e-01,9.088090062141418457e-01,9.087666869163513184e-01,9.087244272232055664e-01,9.086821079254150391e-01,9.086399078369140625e-01,9.085975885391235352e-01,9.085553884506225586e-01,9.085131287574768066e-01,9.084708094596862793e-01,9.084286093711853027e-01,9.083863496780395508e-01,9.083441495895385742e-01,9.083018302917480469e-01,9.082596302032470703e-01,9.082174897193908691e-01,9.081751704216003418e-01,9.081330299377441406e-01,9.080907702445983887e-01,9.080485701560974121e-01,9.080063104629516602e-01,9.079641699790954590e-01,9.079219698905944824e-01,9.078797101974487305e-01,9.078375697135925293e-01,9.077953100204467773e-01,9.077531695365905762e-01,9.077109694480895996e-01,9.076688289642333984e-01,9.076266884803771973e-01,9.075844883918762207e-01,9.075423479080200195e-01,9.075001478195190430e-01,9.074580073356628418e-01,9.074158072471618652e-01,9.073736667633056641e-01,9.073315858840942383e-01,9.072893857955932617e-01,9.072473049163818359e-01,9.072051048278808594e-01,9.071630239486694336e-01,9.071208238601684570e-01,9.070787429809570312e-01,9.070366621017456055e-01,9.069945216178894043e-01,9.069524407386779785e-01,9.069103002548217773e-01
