3.097518444061279297e+00,3.176066637039184570e+00,3.258702278137207031e+00,3.345752716064453125e+00,3.437581539154052734e+00,3.534584283828735352e+00,3.637220144271850586e+00,3.745994567871093750e+00,3.861475706100463867e+00,3.984303236007690430e+00,4.115201473236083984e+00,4.254993438720703125e+00,4.404615879058837891e+00,4.565144538879394531e+00,4.737817287445068359e+00,4.924066066741943359e+00,5.000000000000000000e+00,5.000000000000000000e+00,5.000000000000000000e+00,5.000000000000000000e+00,5.000000000000000000e+00,5.000000000000000000e+00,5.000000000000000000e+00,5.000000000000000000e+00,5.000000000000000000e+00,5.000000000000000000e+00,5.000000000000000000e+00,5.000000000000000000e+00,5.000000000000000000e+00,5.000000000000000000e+00,5.000000000000000000e+00,5.000000000000000000e+00,5.000000000000000000e+00,5.000000000000000000e+00,5.000000000000000000e+00,5.000000000000000000e+00,5.000000000000000000e+00,5.000000000000000000e+00,5.000000000000000000e+00,5.000000000000000000e+00,5.000000000000000000e+00,5.000000000000000000e+00,5.000000000000000000e+00,5.000000000000000000e+00,5.000000000000000000e+00,5.000000000000000000e+00,5.000000000000000000e+00,5.000000000000000000e+00,5.000000000000000000e+00,5.000000000000000000e+00,5.000000000000000000e+00,5.000000000000000000e+00,5.000000000000000000e+00,5.000000000000000000e+00,5.000000000000000000e+00,5.000000000000000000e+00,5.000000000000000000e+00,5.000000000000000000e+00,5.000000000000000000e+00,5.000000000000000000e+00,5.000000000000000000e+00,5.000000000000000000e+00,5.000000000000000000e+00,5.000000000000000000e+00,5.000000000000000000e+00,5.000000000000000000e+00,5.000000000000000000e+00,5.000000000000000000e+00,5.000000000000000000e+00,5.000000000000000000e+00,4.846843242645263672e+00,4.688252925872802734e+00,4.539712429046630859e+00,4.400294780731201172e+00,4.269185543060302734e+00,4.145663261413574219e+00,4.029087543487548828e+00,3.918889284133911133e+00,3.814558267593383789e+00,3.715638160705566406e+00
3.097452402114868164e+00,3.175997257232666016e+00,3.258629083633422852e+00,3.345675468444824219e+00,3.437500238418579102e+00,3.534507274627685547e+00,3.637138843536376953e+00,3.745908737182617188e+00,3.861384630203247070e+00,3.984206199645996094e+00,4.115097999572753906e+00,4.254882335662841797e+00,4.404497146606445312e+00,4.565017223358154297e+00,4.737679958343505859e+00,4.923917770385742188e+00,5.000000000000000000e+00,5.000000000000000000e+00,5.000000000000000000e+00,5.000000000000000000e+00,5.000000000000000000e+00,5.000000000000000000e+00,5.000000000000000000e+00,5.000000000000000000e+00,5.000000000000000000e+00,5.000000000000000000e+00,5.000000000000000000e+00,5.000000000000000000e+00,5.000000000000000000e+00,5.000000000000000000e+00,5.000000000000000000e+00,5.000000000000000000e+00,5.000000000000000000e+00,5.000000000000000000e+00,5.000000000000000000e+00,5.000000000000000000e+00,5.000000000000000000e+00,5.000000000000000000e+00,5.000000000000000000e+00,5.000000000000000000e+00,5.000000000000000000e+00,5.000000000000000000e+00,5.000000000000000000e+00,5.000000000000000000e+00,5.000000000000000000e+00,5.000000000000000000e+00,5.000000000000000000e+00,5.000000000000000000e+00,5.000000000000000000e+00,5.000000000000000000e+00,5.000000000000000000e+00,5.000000000000000000e+00,5.000000000000000000e+00,5.000000000000000000e+00,5.000000000000000000e+00,5.000000000000000000e+00,5.000000000000000000e+00,5.000000000000000000e+00,5.000000000000000000e+00,5.000000000000000000e+00,5.000000000000000000e+00,5.000000000000000000e+00,5.000000000000000000e+00,5.000000000000000000e+00,5.000000000000000000e+00,5.000000000000000000e+00,5.000000000000000000e+00,5.000000000000000000e+00,5.000000000000000000e+00,5.000000000000000000e+00,4.846985340118408203e+00,4.688385963439941406e+00,4.539836883544921875e+00,4.400412082672119141e+00,4.269295692443847656e+00,4.145766735076904297e+00,4.029185771942138672e+00,3.918981790542602539e+00,3.814643621444702148e+00,3.715715646743774414e+00
3.097386360168457031e+00,3.175927639007568359e+00,3.258555889129638672e+00,3.345598459243774414e+00,3.437418699264526367e+00,3.534421205520629883e+00,3.637057542800903320e+00,3.745822668075561523e+00,3.861293077468872070e+00,3.984108924865722656e+00,4.114994525909423828e+00,4.254771709442138672e+00,4.404378414154052734e+00,4.564889430999755859e+00,4.737542629241943359e+00,4.923768997192382812e+00,5.000000000000000000e+00,5.000000000000000000e+00,5.000000000000000000e+00,5.000000000000000000e+00,5.000000000000000000e+00,5.000000000000000000e+00,5.000000000000000000e+00,5.000000000000000000e+00,5.000000000000000000e+00,5.000000000000000000e+00,5.000000000000000000e+00,5.000000000000000000e+00,5.000000000000000000e+00,5.000000000000000000e+00,5.000000000000000000e+00,5.000000000000000000e+00,5.000000000000000000e+00,5.000000000000000000e+00,5.000000000000000000e+00,5.000000000000000000e+00,5.000000000000000000e+00,5.000000000000000000e+00,5.000000000000000000e+00,5.000000000000000000e+00,5.000000000000000000e+00,5.000000000000000000e+00,5.000000000000000000e+00,5.000000000000000000e+00,5.000000000000000000e+00,5.000000000000000000e+00,5.000000000000000000e+00,5.000000000000000000e+00,5.000000000000000000e+00,5.000000000000000000e+00,5.000000000000000000e+00,5.000000000000000000e+00,5.000000000000000000e+00,5.000000000000000000e+00,5.000000000000000000e+00,5.000000000000000000e+00,5.000000000000000000e+00,5.000000000000000000e+00,5.000000000000000000e+00,5.000000000000000000e+00,5.000000000000000000e+00,5.000000000000000000e+00,5.000000000000000000e+00,5.000000000000000000e+00,5.000000000000000000e+00,5.000000000000000000e+00,5.000000000000000000e+00,5.000000000000000000e+00,5.000000000000000000e+00,5.000000000000000000e+00,4.847126960754394531e+00,4.688518524169921875e+00,4.539961338043212891e+00,4.400528907775878906e+00,4.269405364990234375e+00,4.145869731903076172e+00,4.029278278350830078e+00,3.919065475463867188e+00,3.814721584320068359e+00,3.715789556503295898e+00
3.097320318222045898e+00,3.175858259201049805e+00,3.258482933044433594e+00,3.345521450042724609e+00,3.437337398529052734e+00,3.534335136413574219e+00,3.636966705322265625e+00,3.745736598968505859e+00,3.861202001571655273e+00,3.984011888504028320e+00,4.114890575408935547e+00,4.254660606384277344e+00,4.404259681701660156e+00,4.564761638641357422e+00,4.737405300140380859e+00,4.923620700836181641e+00,5.000000000000000000e+00,5.000000000000000000e+00,5.000000000000000000e+00,5.000000000000000000e+00,5.000000000000000000e+00,5.000000000000000000e+00,5.000000000000000000e+00,5.000000000000000000e+00,5.000000000000000000e+00,5.000000000000000000e+00,5.000000000000000000e+00,5.000000000000000000e+00,5.000000000000000000e+00,5.000000000000000000e+00,5.000000000000000000e+00,5.000000000000000000e+00,5.000000000000000000e+00,5.000000000000000000e+00,5.000000000000000000e+00,5.000000000000000000e+00,5.000000000000000000e+00,5.000000000000000000e+00,5.000000000000000000e+00,5.000000000000000000e+00,5.000000000000000000e+00,5.000000000000000000e+00,5.000000000000000000e+00,5.000000000000000000e+00,5.000000000000000000e+00,5.000000000000000000e+00,5.000000000000000000e+00,5.000000000000000000e+00,5.000000000000000000e+00,5.000000000000000000e+00,5.000000000000000000e+00,5.000000000000000000e+00,5.000000000000000000e+00,5.000000000000000000e+00,5.000000000000000000e+00,5.000000000000000000e+00,5.000000000000000000e+00,5.000000000000000000e+00,5.000000000000000000e+00,5.000000000000000000e+00,5.000000000000000000e+00,5.000000000000000000e+00,5.000000000000000000e+00,5.000000000000000000e+00,5.000000000000000000e+00,5.000000000000000000e+00,5.000000000000000000e+00,5.000000000000000000e+00,5.000000000000000000e+00,5.000000000000000000e+00,4.847269058227539062e+00,4.688651084899902344e+00,4.540085315704345703e+00,4.400640964508056641e+00,4.269506931304931641e+00,4.145961284637451172e+00,4.029365539550781250e+00,3.919147968292236328e+00,3.814799785614013672e+00,3.715863227844238281e+00
3.097254276275634766e+00,3.175788879394531250e+00,3.258409738540649414e+00,3.345444440841674805e+00,3.437256097793579102e+00,3.534249305725097656e+00,3.636875629425048828e+00,3.745640039443969727e+00,3.861110448837280273e+00,3.983914375305175781e+00,4.114787101745605469e+00,4.254549980163574219e+00,4.404140472412109375e+00,4.564634323120117188e+00,4.737267971038818359e+00,4.923472404479980469e+00,5.000000000000000000e+00,5.000000000000000000e+00,5.000000000000000000e+00,5.000000000000000000e+00,5.000000000000000000e+00,5.000000000000000000e+00,5.000000000000000000e+00,5.000000000000000000e+00,5.000000000000000000e+00,5.000000000000000000e+00,5.000000000000000000e+00,5.000000000000000000e+00,5.000000000000000000e+00,5.000000000000000000e+00,5.000000000000000000e+00,5.000000000000000000e+00,5.000000000000000000e+00,5.000000000000000000e+00,5.000000000000000000e+00,5.000000000000000000e+00,5.000000000000000000e+00,5.000000000000000000e+00,5.000000000000000000e+00,5.000000000000000000e+00,5.000000000000000000e+00,5.000000000000000000e+00,5.000000000000000000e+00,5.000000000000000000e+00,5.000000000000000000e+00,5.000000000000000000e+00,5.000000000000000000e+00,5.000000000000000000e+00,5.000000000000000000e+00,5.000000000000000000e+00,4.187212944030761719e+00,4.158482074737548828e+00,5.000000000000000000e+00,5.000000000000000000e+00,5.000000000000000000e+00,5.000000000000000000e+00,5.000000000000000000e+00,5.000000000000000000e+00,5.000000000000000000e+00,5.000000000000000000e+00,5.000000000000000000e+00,5.000000000000000000e+00,5.000000000000000000e+00,5.000000000000000000e+00,5.000000000000000000e+00,5.000000000000000000e+00,5.000000000000000000e+00,5.000000000000000000e+00,5.000000000000000000e+00,5.000000000000000000e+00,4.847407341003417969e+00,4.688775062561035156e+00,4.540196895599365234e+00,4.400744915008544922e+00,4.269604682922363281e+00,4.146053791046142578e+00,4.029452323913574219e+00,3.919230222702026367e+00,3.814877748489379883e+00,3.715937376022338867e+00
3.097188234329223633e+00,3.175719499588012695e+00,3.258336782455444336e+00,3.345367431640625000e+00,3.437174797058105469e+00,3.534163236618041992e+00,3.636784553527832031e+00,3.745543241500854492e+00,3.861007690429687500e+00,3.983817338943481445e+00,4.114683151245117188e+00,4.254438877105712891e+00,4.404021739959716797e+00,4.564507007598876953e+00,4.737130165100097656e+00,4.923323631286621094e+00,5.000000000000000000e+00,5.000000000000000000e+00,5.000000000000000000e+00,5.000000000000000000e+00,5.000000000000000000e+00,5.000000000000000000e+00,5.000000000000000000e+00,5.000000000000000000e+00,5.000000000000000000e+00,5.000000000000000000e+00,5.000000000000000000e+00,5.000000000000000000e+00,5.000000000000000000e+00,5.000000000000000000e+00,5.000000000000000000e+00,5.000000000000000000e+00,5.000000000000000000e+00,5.000000000000000000e+00,5.000000000000000000e+00,5.000000000000000000e+00,5.000000000000000000e+00,5.000000000000000000e+00,5.000000000000000000e+00,5.000000000000000000e+00,5.000000000000000000e+00,5.000000000000000000e+00,5.000000000000000000e+00,5.000000000000000000e+00,5.000000000000000000e+00,5.000000000000000000e+00,5.000000000000000000e+00,5.000000000000000000e+00,5.000000000000000000e+00,5.000000000000000000e+00,4.203137874603271484e+00,4.165023326873779297e+00,5.000000000000000000e+00,5.000000000000000000e+00,5.000000000000000000e+00,5.000000000000000000e+00,5.000000000000000000e+00,5.000000000000000000e+00,5.000000000000000000e+00,5.000000000000000000e+00,5.000000000000000000e+00,5.000000000000000000e+00,5.000000000000000000e+00,5.000000000000000000e+00,5.000000000000000000e+00,5.000000000000000000e+00,5.000000000000000000e+00,5.000000000000000000e+00,5.000000000000000000e+00,5.000000000000000000e+00,4.847533702850341797e+00,4.688893318176269531e+00,4.540307044982910156e+00,4.400848865509033203e+00,4.269701957702636719e+00,4.146145820617675781e+00,4.029539108276367188e+00,3.919312715530395508e+00,3.814955472946166992e+00,3.716011524200439453e+00
3.097122192382812500e+00,3.175649881362915039e+00,3.258263587951660156e+00,3.345290422439575195e+00,3.437093496322631836e+00,3.534077405929565430e+00,3.636693477630615234e+00,3.745446681976318359e+00,3.860905170440673828e+00,3.983708143234252930e+00,4.114579677581787109e+00,4.254328250885009766e+00,4.403903007507324219e+00,4.564379215240478516e+00,4.736992835998535156e+00,4.923175334930419922e+00,5.000000000000000000e+00,5.000000000000000000e+00,5.000000000000000000e+00,5.000000000000000000e+00,5.000000000000000000e+00,5.000000000000000000e+00,5.000000000000000000e+00,5.000000000000000000e+00,5.000000000000000000e+00,5.000000000000000000e+00,5.000000000000000000e+00,5.000000000000000000e+00,5.000000000000000000e+00,5.000000000000000000e+00,5.000000000000000000e+00,5.000000000000000000e+00,5.000000000000000000e+00,5.000000000000000000e+00,5.000000000000000000e+00,5.000000000000000000e+00,5.000000000000000000e+00,5.000000000000000000e+00,5.000000000000000000e+00,5.000000000000000000e+00,5.000000000000000000e+00,5.000000000000000000e+00,5.000000000000000000e+00,5.000000000000000000e+00,5.000000000000000000e+00,5.000000000000000000e+00,5.000000000000000000e+00,5.000000000000000000e+00,5.000000000000000000e+00,5.000000000000000000e+00,4.277400970458984375e+00,4.245336055755615234e+00,5.000000000000000000e+00,5.000000000000000000e+00,5.000000000000000000e+00,5.000000000000000000e+00,5.000000000000000000e+00,5.000000000000000000e+00,5.000000000000000000e+00,5.000000000000000000e+00,5.000000000000000000e+00,5.000000000000000000e+00,5.000000000000000000e+00,5.000000000000000000e+00,5.000000000000000000e+00,5.000000000000000000e+00,5.000000000000000000e+00,5.000000000000000000e+00,5.000000000000000000e+00,5.000000000000000000e+00,4.847659587860107422e+00,4.689011096954345703e+00,4.540417671203613281e+00,4.400952816009521484e+00,4.269799709320068359e+00,4.146238327026367188e+00,4.029626369476318359e+00,3.919395208358764648e+00,3.815033435821533203e+00,3.716085433959960938e+00
3.097056150436401367e+00,3.175580501556396484e+00,3.258190393447875977e+00,3.345213174819946289e+00,3.437012195587158203e+00,3.533991336822509766e+00,3.636602401733398438e+00,3.745350122451782227e+00,3.860802650451660156e+00,3.983598947525024414e+00,4.114463329315185547e+00,4.254217147827148438e+00,4.403784275054931641e+00,4.564251899719238281e+00,4.736855506896972656e+00,4.923026561737060547e+00,5.000000000000000000e+00,5.000000000000000000e+00,5.000000000000000000e+00,5.000000000000000000e+00,5.000000000000000000e+00,5.000000000000000000e+00,5.000000000000000000e+00,5.000000000000000000e+00,5.000000000000000000e+00,5.000000000000000000e+00,5.000000000000000000e+00,5.000000000000000000e+00,5.000000000000000000e+00,5.000000000000000000e+00,5.000000000000000000e+00,5.000000000000000000e+00,5.000000000000000000e+00,5.000000000000000000e+00,5.000000000000000000e+00,5.000000000000000000e+00,5.000000000000000000e+00,5.000000000000000000e+00,5.000000000000000000e+00,5.000000000000000000e+00,5.000000000000000000e+00,5.000000000000000000e+00,5.000000000000000000e+00,5.000000000000000000e+00,5.000000000000000000e+00,5.000000000000000000e+00,5.000000000000000000e+00,5.000000000000000000e+00,4.235564231872558594e+00,4.235057353973388672e+00,4.179381370544433594e+00,4.204018592834472656e+00,4.212406158447265625e+00,4.226792812347412109e+00,5.000000000000000000e+00,5.000000000000000000e+00,5.000000000000000000e+00,5.000000000000000000e+00,5.000000000000000000e+00,5.000000000000000000e+00,5.000000000000000000e+00,5.000000000000000000e+00,5.000000000000000000e+00,5.000000000000000000e+00,5.000000000000000000e+00,5.000000000000000000e+00,5.000000000000000000e+00,5.000000000000000000e+00,5.000000000000000000e+00,5.000000000000000000e+00,4.847785472869873047e+00,4.689128875732421875e+00,4.540528297424316406e+00,4.401056289672851562e+00,4.269897937774658203e+00,4.146329879760742188e+00,4.029713630676269531e+00,3.919477462768554688e+00,3.815111637115478516e+00,3.716159582138061523e+00
3.096990108489990234e+00,3.175511121749877930e+00,3.258117437362670898e+00,3.345136165618896484e+00,3.436930894851684570e+00,3.533905267715454102e+00,3.636511325836181641e+00,3.745253562927246094e+00,3.860699892044067383e+00,3.983489751815795898e+00,4.114346981048583984e+00,4.254093170166015625e+00,4.403666019439697266e+00,4.564124107360839844e+00,4.736718177795410156e+00,4.922878265380859375e+00,5.000000000000000000e+00,5.000000000000000000e+00,5.000000000000000000e+00,5.000000000000000000e+00,5.000000000000000000e+00,5.000000000000000000e+00,5.000000000000000000e+00,5.000000000000000000e+00,5.000000000000000000e+00,5.000000000000000000e+00,5.000000000000000000e+00,5.000000000000000000e+00,5.000000000000000000e+00,5.000000000000000000e+00,5.000000000000000000e+00,5.000000000000000000e+00,5.000000000000000000e+00,5.000000000000000000e+00,5.000000000000000000e+00,5.000000000000000000e+00,5.000000000000000000e+00,5.000000000000000000e+00,5.000000000000000000e+00,5.000000000000000000e+00,5.000000000000000000e+00,5.000000000000000000e+00,5.000000000000000000e+00,5.000000000000000000e+00,5.000000000000000000e+00,5.000000000000000000e+00,5.000000000000000000e+00,4.302566051483154297e+00,4.234185218811035156e+00,4.182018280029296875e+00,4.152812480926513672e+00,4.156224727630615234e+00,4.157975196838378906e+00,4.234318733215332031e+00,4.264645576477050781e+00,5.000000000000000000e+00,5.000000000000000000e+00,5.000000000000000000e+00,5.000000000000000000e+00,5.000000000000000000e+00,5.000000000000000000e+00,5.000000000000000000e+00,5.000000000000000000e+00,5.000000000000000000e+00,5.000000000000000000e+00,5.000000000000000000e+00,5.000000000000000000e+00,5.000000000000000000e+00,5.000000000000000000e+00,5.000000000000000000e+00,4.847911834716796875e+00,4.689246654510498047e+00,4.540638923645019531e+00,4.401160240173339844e+00,4.269995689392089844e+00,4.146422386169433594e+00,4.029800415039062500e+00,3.919559478759765625e+00,3.815189599990844727e+00,3.716233730316162109e+00
3.096924066543579102e+00,3.175441741943359375e+00,3.258044242858886719e+00,3.345059156417846680e+00,3.436849594116210938e+00,3.533819437026977539e+00,3.636420249938964844e+00,3.745157003402709961e+00,3.860597372055053711e+00,3.983380556106567383e+00,4.114230155944824219e+00,4.253968715667724609e+00,4.403532981872558594e+00,4.563996791839599609e+00,4.736580848693847656e+00,4.922729969024658203e+00,5.000000000000000000e+00,5.000000000000000000e+00,5.000000000000000000e+00,5.000000000000000000e+00,5.000000000000000000e+00,5.000000000000000000e+00,5.000000000000000000e+00,5.000000000000000000e+00,5.000000000000000000e+00,5.000000000000000000e+00,5.000000000000000000e+00,5.000000000000000000e+00,5.000000000000000000e+00,5.000000000000000000e+00,5.000000000000000000e+00,5.000000000000000000e+00,5.000000000000000000e+00,5.000000000000000000e+00,5.000000000000000000e+00,5.000000000000000000e+00,5.000000000000000000e+00,5.000000000000000000e+00,5.000000000000000000e+00,5.000000000000000000e+00,5.000000000000000000e+00,5.000000000000000000e+00,5.000000000000000000e+00,5.000000000000000000e+00,5.000000000000000000e+00,5.000000000000000000e+00,5.000000000000000000e+00,5.000000000000000000e+00,4.234805107116699219e+00,4.190842628479003906e+00,4.155091762542724609e+00,4.149381637573242188e+00,4.164701461791992188e+00,4.256430625915527344e+00,5.000000000000000000e+00,5.000000000000000000e+00,5.000000000000000000e+00,5.000000000000000000e+00,5.000000000000000000e+00,5.000000000000000000e+00,5.000000000000000000e+00,5.000000000000000000e+00,5.000000000000000000e+00,5.000000000000000000e+00,5.000000000000000000e+00,5.000000000000000000e+00,5.000000000000000000e+00,5.000000000000000000e+00,5.000000000000000000e+00,5.000000000000000000e+00,4.848037242889404297e+00,4.689364433288574219e+00,4.540749073028564453e+00,4.401264190673828125e+00,4.270093441009521484e+00,4.146514415740966797e+00,4.029887676239013672e+00,3.919641971588134766e+00,3.815267801284790039e+00,3.716307878494262695e+00
3.096858024597167969e+00,3.175372362136840820e+00,3.257971286773681641e+00,3.344982147216796875e+00,3.436768293380737305e+00,3.533733367919921875e+00,3.636329174041748047e+00,3.745060443878173828e+00,3.860494613647460938e+00,3.983271121978759766e+00,4.114113807678222656e+00,4.253844261169433594e+00,4.403399467468261719e+00,4.563854217529296875e+00,4.736443042755126953e+00,4.922581672668457031e+00,5.000000000000000000e+00,5.000000000000000000e+00,5.000000000000000000e+00,5.000000000000000000e+00,5.000000000000000000e+00,5.000000000000000000e+00,5.000000000000000000e+00,5.000000000000000000e+00,5.000000000000000000e+00,5.000000000000000000e+00,5.000000000000000000e+00,5.000000000000000000e+00,5.000000000000000000e+00,5.000000000000000000e+00,5.000000000000000000e+00,5.000000000000000000e+00,5.000000000000000000e+00,5.000000000000000000e+00,5.000000000000000000e+00,5.000000000000000000e+00,5.000000000000000000e+00,5.000000000000000000e+00,5.000000000000000000e+00,5.000000000000000000e+00,5.000000000000000000e+00,5.000000000000000000e+00,5.000000000000000000e+00,5.000000000000000000e+00,5.000000000000000000e+00,5.000000000000000000e+00,5.000000000000000000e+00,5.000000000000000000e+00,4.232359886169433594e+00,4.206457614898681641e+00,4.156632900238037109e+00,4.143854141235351562e+00,4.162766456604003906e+00,4.255779266357421875e+00,5.000000000000000000e+00,5.000000000000000000e+00,5.000000000000000000e+00,5.000000000000000000e+00,5.000000000000000000e+00,5.000000000000000000e+00,5.000000000000000000e+00,5.000000000000000000e+00,5.000000000000000000e+00,5.000000000000000000e+00,5.000000000000000000e+00,5.000000000000000000e+00,5.000000000000000000e+00,5.000000000000000000e+00,5.000000000000000000e+00,5.000000000000000000e+00,4.848163604736328125e+00,4.689482688903808594e+00,4.540859699249267578e+00,4.401368141174316406e+00,4.270190715789794922e+00,4.146606922149658203e+00,4.029974460601806641e+00,3.919724225997924805e+00,3.815345764160156250e+00,3.716381788253784180e+00
3.096753358840942383e+00,3.175284624099731445e+00,3.257898092269897461e+00,3.344905138015747070e+00,3.436686992645263672e+00,3.533647537231445312e+00,3.636238336563110352e+00,3.744963884353637695e+00,3.860392093658447266e+00,3.983161926269531250e+00,4.113996982574462891e+00,4.253719329833984375e+00,4.403265953063964844e+00,4.563710689544677734e+00,4.736289978027343750e+00,4.922433376312255859e+00,5.000000000000000000e+00,5.000000000000000000e+00,5.000000000000000000e+00,5.000000000000000000e+00,5.000000000000000000e+00,5.000000000000000000e+00,5.000000000000000000e+00,5.000000000000000000e+00,5.000000000000000000e+00,5.000000000000000000e+00,5.000000000000000000e+00,5.000000000000000000e+00,5.000000000000000000e+00,5.000000000000000000e+00,5.000000000000000000e+00,5.000000000000000000e+00,5.000000000000000000e+00,5.000000000000000000e+00,5.000000000000000000e+00,5.000000000000000000e+00,5.000000000000000000e+00,5.000000000000000000e+00,5.000000000000000000e+00,5.000000000000000000e+00,5.000000000000000000e+00,5.000000000000000000e+00,5.000000000000000000e+00,5.000000000000000000e+00,5.000000000000000000e+00,5.000000000000000000e+00,5.000000000000000000e+00,5.000000000000000000e+00,4.228291511535644531e+00,4.219707012176513672e+00,4.155404567718505859e+00,4.152984142303466797e+00,4.160363674163818359e+00,4.280091762542724609e+00,5.000000000000000000e+00,5.000000000000000000e+00,5.000000000000000000e+00,5.000000000000000000e+00,5.000000000000000000e+00,5.000000000000000000e+00,5.000000000000000000e+00,5.000000000000000000e+00,5.000000000000000000e+00,5.000000000000000000e+00,5.000000000000000000e+00,5.000000000000000000e+00,5.000000000000000000e+00,5.000000000000000000e+00,5.000000000000000000e+00,5.000000000000000000e+00,4.848289489746093750e+00,4.689600467681884766e+00,4.540970325469970703e+00,4.401472091674804688e+00,4.270288944244384766e+00,4.146698951721191406e+00,4.030061721801757812e+00,3.919806718826293945e+00,3.815423965454101562e+00,3.716455936431884766e+00
3.096638917922973633e+00,3.175164461135864258e+00,3.257775783538818359e+00,3.344800710678100586e+00,3.436602830886840820e+00,3.533561468124389648e+00,3.636147260665893555e+00,3.744867324829101562e+00,3.860289573669433594e+00,3.983052730560302734e+00,4.113880634307861328e+00,4.253594875335693359e+00,4.403132438659667969e+00,4.563567161560058594e+00,4.736135959625244141e+00,4.922267913818359375e+00,5.000000000000000000e+00,5.000000000000000000e+00,5.000000000000000000e+00,5.000000000000000000e+00,5.000000000000000000e+00,5.000000000000000000e+00,5.000000000000000000e+00,5.000000000000000000e+00,5.000000000000000000e+00,5.000000000000000000e+00,5.000000000000000000e+00,5.000000000000000000e+00,5.000000000000000000e+00,5.000000000000000000e+00,5.000000000000000000e+00,5.000000000000000000e+00,5.000000000000000000e+00,5.000000000000000000e+00,5.000000000000000000e+00,5.000000000000000000e+00,5.000000000000000000e+00,5.000000000000000000e+00,5.000000000000000000e+00,5.000000000000000000e+00,5.000000000000000000e+00,5.000000000000000000e+00,5.000000000000000000e+00,5.000000000000000000e+00,5.000000000000000000e+00,5.000000000000000000e+00,5.000000000000000000e+00,5.000000000000000000e+00,4.222929477691650391e+00,4.206044673919677734e+00,4.161685466766357422e+00,4.139398574829101562e+00,4.168100833892822266e+00,4.288465976715087891e+00,5.000000000000000000e+00,5.000000000000000000e+00,5.000000000000000000e+00,5.000000000000000000e+00,5.000000000000000000e+00,5.000000000000000000e+00,5.000000000000000000e+00,5.000000000000000000e+00,5.000000000000000000e+00,5.000000000000000000e+00,5.000000000000000000e+00,5.000000000000000000e+00,5.000000000000000000e+00,5.000000000000000000e+00,5.000000000000000000e+00,5.000000000000000000e+00,4.848415851593017578e+00,4.689718246459960938e+00,4.541080951690673828e+00,4.401575565338134766e+00,4.270386695861816406e+00,4.146790981292724609e+00,4.030148983001708984e+00,3.919889211654663086e+00,3.815501928329467773e+00,3.716530084609985352e+00
3.096536636352539062e+00,3.175043821334838867e+00,3.257648944854736328e+00,3.344667196273803711e+00,3.436461687088012695e+00,3.533436775207519531e+00,3.636044263839721680e+00,3.744771242141723633e+00,3.860187292098999023e+00,3.982944011688232422e+00,4.113764286041259766e+00,4.253470420837402344e+00,4.402999401092529297e+00,4.563424110412597656e+00,4.735981464385986328e+00,4.922101497650146484e+00,5.000000000000000000e+00,5.000000000000000000e+00,5.000000000000000000e+00,5.000000000000000000e+00,5.000000000000000000e+00,5.000000000000000000e+00,5.000000000000000000e+00,5.000000000000000000e+00,5.000000000000000000e+00,5.000000000000000000e+00,5.000000000000000000e+00,5.000000000000000000e+00,5.000000000000000000e+00,5.000000000000000000e+00,5.000000000000000000e+00,5.000000000000000000e+00,5.000000000000000000e+00,5.000000000000000000e+00,5.000000000000000000e+00,5.000000000000000000e+00,5.000000000000000000e+00,5.000000000000000000e+00,5.000000000000000000e+00,5.000000000000000000e+00,5.000000000000000000e+00,5.000000000000000000e+00,5.000000000000000000e+00,5.000000000000000000e+00,5.000000000000000000e+00,5.000000000000000000e+00,5.000000000000000000e+00,5.000000000000000000e+00,4.172728061676025391e+00,4.198755264282226562e+00,4.168140411376953125e+00,4.167968273162841797e+00,4.179598331451416016e+00,4.279384136199951172e+00,5.000000000000000000e+00,5.000000000000000000e+00,5.000000000000000000e+00,5.000000000000000000e+00,5.000000000000000000e+00,5.000000000000000000e+00,5.000000000000000000e+00,5.000000000000000000e+00,5.000000000000000000e+00,5.000000000000000000e+00,5.000000000000000000e+00,5.000000000000000000e+00,5.000000000000000000e+00,5.000000000000000000e+00,5.000000000000000000e+00,5.000000000000000000e+00,4.848541736602783203e+00,4.689836025238037109e+00,4.541191577911376953e+00,4.401679515838623047e+00,4.270484447479248047e+00,4.146883487701416016e+00,4.030236244201660156e+00,3.919971704483032227e+00,3.815580129623413086e+00,3.716603755950927734e+00
3.096470594406127930e+00,3.174964904785156250e+00,3.257542133331298828e+00,3.344533443450927734e+00,3.436320781707763672e+00,3.533288002014160156e+00,3.635886669158935547e+00,3.744621992111206055e+00,3.860061645507812500e+00,3.982834815979003906e+00,4.113647937774658203e+00,4.253345966339111328e+00,4.402865886688232422e+00,4.563281059265136719e+00,4.735827445983886719e+00,4.921934604644775391e+00,5.000000000000000000e+00,5.000000000000000000e+00,5.000000000000000000e+00,5.000000000000000000e+00,5.000000000000000000e+00,5.000000000000000000e+00,5.000000000000000000e+00,5.000000000000000000e+00,5.000000000000000000e+00,5.000000000000000000e+00,5.000000000000000000e+00,5.000000000000000000e+00,5.000000000000000000e+00,5.000000000000000000e+00,5.000000000000000000e+00,5.000000000000000000e+00,5.000000000000000000e+00,5.000000000000000000e+00,5.000000000000000000e+00,5.000000000000000000e+00,5.000000000000000000e+00,5.000000000000000000e+00,5.000000000000000000e+00,5.000000000000000000e+00,5.000000000000000000e+00,5.000000000000000000e+00,5.000000000000000000e+00,5.000000000000000000e+00,5.000000000000000000e+00,5.000000000000000000e+00,5.000000000000000000e+00,5.000000000000000000e+00,4.121937751770019531e+00,4.197995185852050781e+00,4.191154956817626953e+00,4.136816501617431641e+00,4.088574886322021484e+00,4.301952838897705078e+00,4.266040325164794922e+00,5.000000000000000000e+00,5.000000000000000000e+00,5.000000000000000000e+00,5.000000000000000000e+00,5.000000000000000000e+00,5.000000000000000000e+00,5.000000000000000000e+00,5.000000000000000000e+00,5.000000000000000000e+00,5.000000000000000000e+00,5.000000000000000000e+00,5.000000000000000000e+00,5.000000000000000000e+00,5.000000000000000000e+00,5.000000000000000000e+00,4.848667621612548828e+00,4.689954280853271484e+00,4.541301727294921875e+00,4.401783466339111328e+00,4.270581722259521484e+00,4.146975517272949219e+00,4.030323028564453125e+00,3.920053958892822266e+00,3.815658330917358398e+00,3.716677904129028320e+00
3.096404314041137695e+00,3.174895286560058594e+00,3.257468938827514648e+00,3.344452619552612305e+00,3.436209201812744141e+00,3.533142566680908203e+00,3.635728836059570312e+00,3.744454622268676758e+00,3.859883546829223633e+00,3.982656002044677734e+00,4.113494396209716797e+00,4.253221511840820312e+00,4.402732372283935547e+00,4.563137531280517578e+00,4.735672950744628906e+00,4.921768188476562500e+00,5.000000000000000000e+00,5.000000000000000000e+00,5.000000000000000000e+00,5.000000000000000000e+00,5.000000000000000000e+00,5.000000000000000000e+00,5.000000000000000000e+00,5.000000000000000000e+00,5.000000000000000000e+00,5.000000000000000000e+00,5.000000000000000000e+00,5.000000000000000000e+00,5.000000000000000000e+00,5.000000000000000000e+00,5.000000000000000000e+00,5.000000000000000000e+00,5.000000000000000000e+00,5.000000000000000000e+00,5.000000000000000000e+00,5.000000000000000000e+00,5.000000000000000000e+00,5.000000000000000000e+00,5.000000000000000000e+00,5.000000000000000000e+00,5.000000000000000000e+00,5.000000000000000000e+00,5.000000000000000000e+00,5.000000000000000000e+00,5.000000000000000000e+00,5.000000000000000000e+00,5.000000000000000000e+00,5.000000000000000000e+00,4.079759597778320312e+00,4.201622009277343750e+00,4.183689117431640625e+00,4.125844001770019531e+00,4.058449745178222656e+00,4.091642856597900391e+00,4.252814769744873047e+00,5.000000000000000000e+00,5.000000000000000000e+00,5.000000000000000000e+00,5.000000000000000000e+00,5.000000000000000000e+00,5.000000000000000000e+00,5.000000000000000000e+00,5.000000000000000000e+00,5.000000000000000000e+00,5.000000000000000000e+00,5.000000000000000000e+00,5.000000000000000000e+00,5.000000000000000000e+00,5.000000000000000000e+00,5.000000000000000000e+00,4.848793506622314453e+00,4.690072059631347656e+00,4.541412353515625000e+00,4.401887416839599609e+00,4.270679950714111328e+00,4.147067546844482422e+00,4.030409812927246094e+00,3.920136451721191406e+00,3.815735816955566406e+00,3.716752052307128906e+00
3.096338272094726562e+00,3.174825906753540039e+00,3.257395744323730469e+00,3.344375371932983398e+00,3.436127662658691406e+00,3.533056259155273438e+00,3.635612249374389648e+00,3.744299888610839844e+00,3.859706163406372070e+00,3.982466697692871094e+00,4.113292694091796875e+00,4.253005981445312500e+00,4.402544498443603516e+00,4.562981605529785156e+00,4.735518455505371094e+00,4.921601295471191406e+00,5.000000000000000000e+00,5.000000000000000000e+00,5.000000000000000000e+00,5.000000000000000000e+00,5.000000000000000000e+00,5.000000000000000000e+00,5.000000000000000000e+00,5.000000000000000000e+00,5.000000000000000000e+00,5.000000000000000000e+00,5.000000000000000000e+00,5.000000000000000000e+00,5.000000000000000000e+00,5.000000000000000000e+00,5.000000000000000000e+00,5.000000000000000000e+00,5.000000000000000000e+00,5.000000000000000000e+00,5.000000000000000000e+00,5.000000000000000000e+00,5.000000000000000000e+00,5.000000000000000000e+00,5.000000000000000000e+00,5.000000000000000000e+00,5.000000000000000000e+00,5.000000000000000000e+00,5.000000000000000000e+00,5.000000000000000000e+00,5.000000000000000000e+00,5.000000000000000000e+00,5.000000000000000000e+00,5.000000000000000000e+00,4.017741680145263672e+00,4.218819141387939453e+00,4.197777271270751953e+00,4.121234893798828125e+00,4.029460906982421875e+00,4.049431324005126953e+00,4.227717399597167969e+00,5.000000000000000000e+00,5.000000000000000000e+00,5.000000000000000000e+00,5.000000000000000000e+00,5.000000000000000000e+00,5.000000000000000000e+00,5.000000000000000000e+00,5.000000000000000000e+00,5.000000000000000000e+00,5.000000000000000000e+00,5.000000000000000000e+00,5.000000000000000000e+00,5.000000000000000000e+00,5.000000000000000000e+00,5.000000000000000000e+00,4.848919868469238281e+00,4.690189838409423828e+00,4.541522979736328125e+00,4.401991367340087891e+00,4.270777702331542969e+00,4.147160053253173828e+00,4.030497074127197266e+00,3.920218944549560547e+00,3.815816164016723633e+00,3.716831445693969727e+00
3.096271991729736328e+00,3.174756050109863281e+00,3.257322549819946289e+00,3.344298362731933594e+00,3.436046361923217773e+00,3.532970190048217773e+00,3.635521173477172852e+00,3.744203090667724609e+00,3.859583616256713867e+00,3.982301235198974609e+00,4.113090515136718750e+00,4.252790451049804688e+00,4.402313232421875000e+00,4.562733173370361328e+00,4.735286712646484375e+00,4.921404838562011719e+00,5.000000000000000000e+00,5.000000000000000000e+00,5.000000000000000000e+00,5.000000000000000000e+00,5.000000000000000000e+00,5.000000000000000000e+00,5.000000000000000000e+00,5.000000000000000000e+00,5.000000000000000000e+00,5.000000000000000000e+00,5.000000000000000000e+00,5.000000000000000000e+00,5.000000000000000000e+00,5.000000000000000000e+00,5.000000000000000000e+00,5.000000000000000000e+00,5.000000000000000000e+00,5.000000000000000000e+00,5.000000000000000000e+00,5.000000000000000000e+00,5.000000000000000000e+00,5.000000000000000000e+00,5.000000000000000000e+00,5.000000000000000000e+00,5.000000000000000000e+00,5.000000000000000000e+00,5.000000000000000000e+00,5.000000000000000000e+00,5.000000000000000000e+00,5.000000000000000000e+00,5.000000000000000000e+00,5.000000000000000000e+00,5.000000000000000000e+00,4.239324569702148438e+00,4.214563369750976562e+00,5.000000000000000000e+00,3.995344400405883789e+00,4.008759975433349609e+00,5.000000000000000000e+00,5.000000000000000000e+00,5.000000000000000000e+00,5.000000000000000000e+00,5.000000000000000000e+00,5.000000000000000000e+00,5.000000000000000000e+00,5.000000000000000000e+00,5.000000000000000000e+00,5.000000000000000000e+00,5.000000000000000000e+00,5.000000000000000000e+00,5.000000000000000000e+00,5.000000000000000000e+00,5.000000000000000000e+00,5.000000000000000000e+00,4.849045753479003906e+00,4.690308094024658203e+00,4.541633605957031250e+00,4.402094841003417969e+00,4.270875453948974609e+00,4.147252082824707031e+00,4.030588626861572266e+00,3.920309066772460938e+00,3.815903902053833008e+00,3.716914892196655273e+00
3.096205949783325195e+00,3.174686670303344727e+00,3.257249593734741211e+00,3.344221115112304688e+00,3.435964584350585938e+00,3.532883882522583008e+00,3.635429859161376953e+00,3.744106531143188477e+00,3.859480857849121094e+00,3.982192039489746094e+00,4.112962245941162109e+00,4.252612590789794922e+00,4.402081489562988281e+00,4.562484741210937500e+00,4.735018730163574219e+00,4.921115398406982422e+00,5.000000000000000000e+00,5.000000000000000000e+00,5.000000000000000000e+00,5.000000000000000000e+00,5.000000000000000000e+00,5.000000000000000000e+00,5.000000000000000000e+00,5.000000000000000000e+00,5.000000000000000000e+00,5.000000000000000000e+00,5.000000000000000000e+00,5.000000000000000000e+00,5.000000000000000000e+00,5.000000000000000000e+00,5.000000000000000000e+00,5.000000000000000000e+00,5.000000000000000000e+00,5.000000000000000000e+00,5.000000000000000000e+00,5.000000000000000000e+00,5.000000000000000000e+00,5.000000000000000000e+00,5.000000000000000000e+00,5.000000000000000000e+00,5.000000000000000000e+00,5.000000000000000000e+00,5.000000000000000000e+00,5.000000000000000000e+00,5.000000000000000000e+00,5.000000000000000000e+00,5.000000000000000000e+00,5.000000000000000000e+00,5.000000000000000000e+00,4.294719219207763672e+00,4.229621887207031250e+00,5.000000000000000000e+00,3.976101398468017578e+00,3.991029024124145508e+00,5.000000000000000000e+00,5.000000000000000000e+00,5.000000000000000000e+00,5.000000000000000000e+00,5.000000000000000000e+00,5.000000000000000000e+00,5.000000000000000000e+00,5.000000000000000000e+00,5.000000000000000000e+00,5.000000000000000000e+00,5.000000000000000000e+00,5.000000000000000000e+00,5.000000000000000000e+00,5.000000000000000000e+00,5.000000000000000000e+00,5.000000000000000000e+00,4.849172115325927734e+00,4.690425872802734375e+00,4.541744232177734375e+00,4.402201652526855469e+00,4.270980834960937500e+00,4.147356033325195312e+00,4.030686855316162109e+00,3.920402050018310547e+00,3.815991401672363281e+00,3.716998100280761719e+00
3.096139669418334961e+00,3.174617052078247070e+00,3.257176160812377930e+00,3.344144105911254883e+00,3.435883283615112305e+00,3.532798051834106445e+00,3.635338783264160156e+00,3.744009494781494141e+00,3.859377861022949219e+00,3.982082366943359375e+00,4.112845420837402344e+00,4.252487659454345703e+00,4.401946067810058594e+00,4.562293052673339844e+00,4.734763145446777344e+00,4.920825958251953125e+00,5.000000000000000000e+00,5.000000000000000000e+00,5.000000000000000000e+00,5.000000000000000000e+00,5.000000000000000000e+00,5.000000000000000000e+00,5.000000000000000000e+00,5.000000000000000000e+00,5.000000000000000000e+00,5.000000000000000000e+00,5.000000000000000000e+00,5.000000000000000000e+00,5.000000000000000000e+00,5.000000000000000000e+00,5.000000000000000000e+00,5.000000000000000000e+00,5.000000000000000000e+00,5.000000000000000000e+00,5.000000000000000000e+00,5.000000000000000000e+00,5.000000000000000000e+00,5.000000000000000000e+00,5.000000000000000000e+00,5.000000000000000000e+00,5.000000000000000000e+00,5.000000000000000000e+00,5.000000000000000000e+00,5.000000000000000000e+00,5.000000000000000000e+00,5.000000000000000000e+00,5.000000000000000000e+00,5.000000000000000000e+00,5.000000000000000000e+00,5.000000000000000000e+00,4.243590831756591797e+00,5.000000000000000000e+00,3.999795198440551758e+00,4.005517005920410156e+00,5.000000000000000000e+00,5.000000000000000000e+00,5.000000000000000000e+00,5.000000000000000000e+00,5.000000000000000000e+00,5.000000000000000000e+00,5.000000000000000000e+00,5.000000000000000000e+00,5.000000000000000000e+00,5.000000000000000000e+00,5.000000000000000000e+00,5.000000000000000000e+00,5.000000000000000000e+00,5.000000000000000000e+00,5.000000000000000000e+00,5.000000000000000000e+00,4.849298000335693359e+00,4.690550327301025391e+00,4.541866302490234375e+00,4.402318477630615234e+00,4.271090984344482422e+00,4.147459506988525391e+00,4.030784606933593750e+00,3.920494794845581055e+00,3.816079616546630859e+00,3.717081308364868164e+00
3.096073627471923828e+00,3.174547672271728516e+00,3.257103204727172852e+00,3.344066858291625977e+00,3.435801744461059570e+00,3.532711744308471680e+00,3.635247468948364258e+00,3.743913173675537109e+00,3.859275341033935547e+00,3.981973171234130859e+00,4.112728595733642578e+00,4.252363204956054688e+00,4.401812553405761719e+00,4.562149524688720703e+00,4.734608650207519531e+00,4.920618534088134766e+00,5.000000000000000000e+00,5.000000000000000000e+00,5.000000000000000000e+00,5.000000000000000000e+00,5.000000000000000000e+00,5.000000000000000000e+00,5.000000000000000000e+00,5.000000000000000000e+00,5.000000000000000000e+00,5.000000000000000000e+00,5.000000000000000000e+00,5.000000000000000000e+00,5.000000000000000000e+00,5.000000000000000000e+00,5.000000000000000000e+00,5.000000000000000000e+00,5.000000000000000000e+00,5.000000000000000000e+00,5.000000000000000000e+00,5.000000000000000000e+00,5.000000000000000000e+00,5.000000000000000000e+00,5.000000000000000000e+00,5.000000000000000000e+00,5.000000000000000000e+00,5.000000000000000000e+00,5.000000000000000000e+00,5.000000000000000000e+00,5.000000000000000000e+00,5.000000000000000000e+00,5.000000000000000000e+00,5.000000000000000000e+00,5.000000000000000000e+00,4.368631839752197266e+00,4.300048351287841797e+00,5.000000000000000000e+00,4.020970344543457031e+00,4.014448642730712891e+00,5.000000000000000000e+00,5.000000000000000000e+00,5.000000000000000000e+00,5.000000000000000000e+00,5.000000000000000000e+00,5.000000000000000000e+00,5.000000000000000000e+00,5.000000000000000000e+00,5.000000000000000000e+00,5.000000000000000000e+00,5.000000000000000000e+00,5.000000000000000000e+00,5.000000000000000000e+00,5.000000000000000000e+00,5.000000000000000000e+00,5.000000000000000000e+00,4.849440097808837891e+00,4.690682411193847656e+00,4.541990756988525391e+00,4.402435302734375000e+00,4.271200656890869141e+00,4.147563457489013672e+00,4.030882358551025391e+00,3.920587301254272461e+00,3.816167354583740234e+00,3.717164993286132812e+00
3.096007347106933594e+00,3.174478054046630859e+00,3.257029771804809570e+00,3.343989849090576172e+00,3.435720443725585938e+00,3.532625913619995117e+00,3.635156393051147461e+00,3.743816137313842773e+00,3.859172582626342773e+00,3.981863498687744141e+00,4.112612247467041016e+00,4.252238273620605469e+00,4.401679039001464844e+00,4.562005996704101562e+00,4.734454154968261719e+00,4.920451164245605469e+00,5.000000000000000000e+00,5.000000000000000000e+00,5.000000000000000000e+00,5.000000000000000000e+00,5.000000000000000000e+00,5.000000000000000000e+00,5.000000000000000000e+00,5.000000000000000000e+00,5.000000000000000000e+00,5.000000000000000000e+00,5.000000000000000000e+00,5.000000000000000000e+00,5.000000000000000000e+00,5.000000000000000000e+00,5.000000000000000000e+00,5.000000000000000000e+00,5.000000000000000000e+00,5.000000000000000000e+00,5.000000000000000000e+00,5.000000000000000000e+00,5.000000000000000000e+00,5.000000000000000000e+00,5.000000000000000000e+00,5.000000000000000000e+00,5.000000000000000000e+00,5.000000000000000000e+00,5.000000000000000000e+00,5.000000000000000000e+00,5.000000000000000000e+00,5.000000000000000000e+00,5.000000000000000000e+00,5.000000000000000000e+00,5.000000000000000000e+00,4.412497043609619141e+00,4.352201461791992188e+00,5.000000000000000000e+00,4.018677711486816406e+00,4.011104583740234375e+00,5.000000000000000000e+00,5.000000000000000000e+00,5.000000000000000000e+00,5.000000000000000000e+00,5.000000000000000000e+00,5.000000000000000000e+00,5.000000000000000000e+00,5.000000000000000000e+00,5.000000000000000000e+00,5.000000000000000000e+00,5.000000000000000000e+00,5.000000000000000000e+00,5.000000000000000000e+00,5.000000000000000000e+00,5.000000000000000000e+00,5.000000000000000000e+00,4.849582195281982422e+00,4.690815448760986328e+00,4.542114734649658203e+00,4.402552604675292969e+00,4.271310806274414062e+00,4.147666931152343750e+00,4.030980587005615234e+00,3.920680284500122070e+00,3.816254854202270508e+00,3.717248201370239258e+00
3.095941543579101562e+00,3.174408674240112305e+00,3.256956815719604492e+00,3.343912363052368164e+00,3.435638904571533203e+00,3.532539606094360352e+00,3.635065078735351562e+00,3.743719577789306641e+00,3.859069824218750000e+00,3.981754302978515625e+00,4.112495422363281250e+00,4.252113819122314453e+00,4.401545047760009766e+00,4.561862468719482422e+00,4.734299182891845703e+00,4.920284271240234375e+00,5.000000000000000000e+00,5.000000000000000000e+00,5.000000000000000000e+00,5.000000000000000000e+00,5.000000000000000000e+00,5.000000000000000000e+00,5.000000000000000000e+00,5.000000000000000000e+00,5.000000000000000000e+00,5.000000000000000000e+00,5.000000000000000000e+00,5.000000000000000000e+00,5.000000000000000000e+00,5.000000000000000000e+00,5.000000000000000000e+00,5.000000000000000000e+00,5.000000000000000000e+00,5.000000000000000000e+00,5.000000000000000000e+00,5.000000000000000000e+00,5.000000000000000000e+00,5.000000000000000000e+00,5.000000000000000000e+00,5.000000000000000000e+00,5.000000000000000000e+00,5.000000000000000000e+00,5.000000000000000000e+00,5.000000000000000000e+00,5.000000000000000000e+00,5.000000000000000000e+00,5.000000000000000000e+00,5.000000000000000000e+00,5.000000000000000000e+00,5.000000000000000000e+00,4.378129005432128906e+00,5.000000000000000000e+00,4.017563819885253906e+00,4.015367984771728516e+00,5.000000000000000000e+00,5.000000000000000000e+00,5.000000000000000000e+00,5.000000000000000000e+00,5.000000000000000000e+00,5.000000000000000000e+00,5.000000000000000000e+00,5.000000000000000000e+00,5.000000000000000000e+00,5.000000000000000000e+00,5.000000000000000000e+00,5.000000000000000000e+00,5.000000000000000000e+00,5.000000000000000000e+00,5.000000000000000000e+00,5.000000000000000000e+00,4.849723815917968750e+00,4.690948009490966797e+00,4.542239189147949219e+00,4.402668952941894531e+00,4.271420955657958984e+00,4.147770881652832031e+00,4.031078338623046875e+00,3.920772790908813477e+00,3.816343069076538086e+00,3.717331171035766602e+00
3.095875263214111328e+00,3.174338817596435547e+00,3.256883382797241211e+00,3.343835592269897461e+00,3.435557603836059570e+00,3.532453775405883789e+00,3.634974241256713867e+00,3.743622779846191406e+00,3.858967065811157227e+00,3.981644868850708008e+00,4.112379074096679688e+00,4.251988887786865234e+00,4.401411533355712891e+00,4.561718940734863281e+00,4.734144687652587891e+00,4.920117378234863281e+00,5.000000000000000000e+00,5.000000000000000000e+00,5.000000000000000000e+00,5.000000000000000000e+00,5.000000000000000000e+00,5.000000000000000000e+00,5.000000000000000000e+00,5.000000000000000000e+00,5.000000000000000000e+00,5.000000000000000000e+00,5.000000000000000000e+00,5.000000000000000000e+00,5.000000000000000000e+00,5.000000000000000000e+00,5.000000000000000000e+00,5.000000000000000000e+00,5.000000000000000000e+00,5.000000000000000000e+00,5.000000000000000000e+00,5.000000000000000000e+00,5.000000000000000000e+00,5.000000000000000000e+00,5.000000000000000000e+00,5.000000000000000000e+00,5.000000000000000000e+00,5.000000000000000000e+00,5.000000000000000000e+00,5.000000000000000000e+00,5.000000000000000000e+00,5.000000000000000000e+00,5.000000000000000000e+00,5.000000000000000000e+00,5.000000000000000000e+00,5.000000000000000000e+00,4.408646106719970703e+00,5.000000000000000000e+00,4.030155181884765625e+00,4.025279521942138672e+00,5.000000000000000000e+00,5.000000000000000000e+00,5.000000000000000000e+00,5.000000000000000000e+00,5.000000000000000000e+00,5.000000000000000000e+00,5.000000000000000000e+00,5.000000000000000000e+00,5.000000000000000000e+00,5.000000000000000000e+00,5.000000000000000000e+00,5.000000000000000000e+00,5.000000000000000000e+00,5.000000000000000000e+00,5.000000000000000000e+00,5.000000000000000000e+00,4.849865436553955078e+00,4.691080570220947266e+00,4.542363643646240234e+00,4.402786254882812500e+00,4.271530628204345703e+00,4.147874832153320312e+00,4.031176567077636719e+00,3.920865297317504883e+00,3.816430807113647461e+00,3.717414855957031250e+00
3.095809221267700195e+00,3.174269676208496094e+00,3.256810426712036133e+00,3.343758106231689453e+00,3.435476064682006836e+00,3.532367467880249023e+00,3.634882688522338867e+00,3.743526220321655273e+00,3.858864545822143555e+00,3.981535673141479492e+00,4.112262248992919922e+00,4.251863956451416016e+00,4.401278018951416016e+00,4.561575412750244141e+00,4.733990192413330078e+00,4.919950008392333984e+00,5.000000000000000000e+00,5.000000000000000000e+00,5.000000000000000000e+00,5.000000000000000000e+00,5.000000000000000000e+00,5.000000000000000000e+00,5.000000000000000000e+00,5.000000000000000000e+00,5.000000000000000000e+00,5.000000000000000000e+00,5.000000000000000000e+00,5.000000000000000000e+00,5.000000000000000000e+00,5.000000000000000000e+00,5.000000000000000000e+00,5.000000000000000000e+00,5.000000000000000000e+00,5.000000000000000000e+00,5.000000000000000000e+00,5.000000000000000000e+00,5.000000000000000000e+00,5.000000000000000000e+00,5.000000000000000000e+00,5.000000000000000000e+00,5.000000000000000000e+00,5.000000000000000000e+00,5.000000000000000000e+00,5.000000000000000000e+00,5.000000000000000000e+00,5.000000000000000000e+00,5.000000000000000000e+00,5.000000000000000000e+00,5.000000000000000000e+00,5.000000000000000000e+00,4.462324142456054688e+00,5.000000000000000000e+00,5.000000000000000000e+00,5.000000000000000000e+00,5.000000000000000000e+00,5.000000000000000000e+00,5.000000000000000000e+00,5.000000000000000000e+00,5.000000000000000000e+00,5.000000000000000000e+00,5.000000000000000000e+00,5.000000000000000000e+00,5.000000000000000000e+00,5.000000000000000000e+00,5.000000000000000000e+00,5.000000000000000000e+00,5.000000000000000000e+00,5.000000000000000000e+00,5.000000000000000000e+00,5.000000000000000000e+00,4.850007534027099609e+00,4.691213607788085938e+00,4.542488098144531250e+00,4.402903079986572266e+00,4.271640777587890625e+00,4.147978305816650391e+00,4.031274795532226562e+00,3.920958280563354492e+00,3.816518306732177734e+00,3.717498064041137695e+00
3.095742940902709961e+00,3.174199819564819336e+00,3.256736993789672852e+00,3.343681097030639648e+00,3.435394763946533203e+00,3.532281398773193359e+00,3.634791851043701172e+00,3.743429422378540039e+00,3.858761548995971680e+00,3.981426000595092773e+00,4.112145423889160156e+00,4.251739501953125000e+00,4.401144504547119141e+00,4.561431884765625000e+00,4.733835697174072266e+00,4.855134010314941406e+00,4.853930950164794922e+00,4.852728366851806641e+00,4.851526260375976562e+00,4.850324630737304688e+00,4.849123477935791016e+00,4.847923278808593750e+00,4.846723556518554688e+00,4.845524311065673828e+00,4.844325542449951172e+00,4.843127727508544922e+00,4.841929912567138672e+00,4.840733528137207031e+00,4.839537143707275391e+00,4.838341236114501953e+00,4.837146759033203125e+00,4.835952281951904297e+00,4.834758281707763672e+00,4.833565235137939453e+00,4.832372188568115234e+00,4.831180095672607422e+00,4.829988479614257812e+00,4.828797817230224609e+00,4.827607154846191406e+00,4.826417446136474609e+00,4.825228691101074219e+00,4.824039936065673828e+00,4.822851657867431641e+00,4.821664810180664062e+00,4.820477962493896484e+00,4.819291591644287109e+00,4.818106174468994141e+00,4.816920757293701172e+00,4.815736293792724609e+00,4.814552783966064453e+00,4.394204139709472656e+00,4.812186241149902344e+00,4.077885627746582031e+00,3.854494571685791016e+00,4.808641433715820312e+00,4.807461261749267578e+00,4.806281566619873047e+00,4.805102348327636719e+00,4.803923130035400391e+00,4.802745342254638672e+00,4.801568031311035156e+00,4.800390720367431641e+00,4.799214839935302734e+00,4.798038959503173828e+00,4.796863555908203125e+00,4.795689105987548828e+00,4.794515132904052734e+00,4.793341159820556641e+00,4.792168617248535156e+00,4.790996074676513672e+00,4.789824485778808594e+00,4.691346168518066406e+00,4.542612552642822266e+00,4.403019905090332031e+00,4.271750926971435547e+00,4.148082256317138672e+00,4.031372547149658203e+00,3.921050786972045898e+00,3.816606521606445312e+00,3.717581272125244141e+00
3.095676898956298828e+00,3.174130439758300781e+00,3.256664037704467773e+00,3.343603849411010742e+00,3.435313224792480469e+00,3.532195329666137695e+00,3.634700536727905273e+00,3.743332862854003906e+00,3.771261692047119141e+00,3.770535707473754883e+00,3.769809722900390625e+00,3.769084215164184570e+00,3.768359184265136719e+00,3.767633914947509766e+00,3.766909360885620117e+00,3.766185283660888672e+00,3.765460729598999023e+00,3.764737129211425781e+00,3.764013528823852539e+00,3.763290166854858398e+00,3.762567281723022461e+00,3.761844635009765625e+00,3.761121988296508789e+00,3.760399818420410156e+00,3.759678125381469727e+00,3.758956193923950195e+00,3.758234977722167969e+00,3.757513999938964844e+00,3.756793022155761719e+00,3.756072759628295898e+00,3.755352497100830078e+00,3.754632234573364258e+00,3.753912687301635742e+00,3.753193378448486328e+00,3.752474069595336914e+00,3.751755237579345703e+00,3.751036405563354492e+00,3.750318288803100586e+00,3.749600410461425781e+00,3.748882293701171875e+00,3.748164892196655273e+00,3.747447967529296875e+00,3.746730804443359375e+00,3.746014118194580078e+00,3.745297908782958984e+00,3.744581460952758789e+00,3.743865966796875000e+00,3.743150472640991211e+00,3.742434978485107422e+00,3.741719961166381836e+00,3.741005420684814453e+00,3.740290641784667969e+00,3.739576578140258789e+00,3.738862991333007812e+00,3.738148927688598633e+00,3.737435817718505859e+00,3.736722707748413086e+00,3.736009597778320312e+00,3.735297203063964844e+00,3.734585046768188477e+00,3.733872652053833008e+00,3.733161211013793945e+00,3.732449769973754883e+00,3.731738328933715820e+00,3.731027364730834961e+00,3.730316877365112305e+00,3.729606151580810547e+00,3.728896379470825195e+00,3.728186607360839844e+00,3.727476596832275391e+00,3.726767539978027344e+00,3.726058483123779297e+00,3.725349426269531250e+00,3.724641084671020508e+00,3.723932743072509766e+00,3.723224878311157227e+00,3.722517251968383789e+00,3.721809625625610352e+00,3.721102476119995117e+00,3.717664957046508789e+00
3.083490133285522461e+00,3.083004713058471680e+00,3.082519054412841797e+00,3.082034111022949219e+00,3.081548929214477539e+00,3.081063985824584961e+00,3.080579519271850586e+00,3.080094814300537109e+00,3.079610586166381836e+00,3.079126358032226562e+00,3.078642129898071289e+00,3.078158378601074219e+00,3.077674865722656250e+00,3.077191114425659180e+00,3.076707601547241211e+00,3.076224565505981445e+00,3.075741291046142578e+00,3.075258255004882812e+00,3.074775457382202148e+00,3.074292659759521484e+00,3.073810338973999023e+00,3.073328018188476562e+00,3.072845458984375000e+00,3.072363615036010742e+00,3.071881771087646484e+00,3.071399927139282227e+00,3.070918321609497070e+00,3.070436954498291016e+00,3.069955348968505859e+00,3.069474458694458008e+00,3.068993568420410156e+00,3.068512439727783203e+00,3.068031787872314453e+00,3.067551374435424805e+00,3.067070722579956055e+00,3.066590547561645508e+00,3.066110372543334961e+00,3.065630435943603516e+00,3.065150737762451172e+00,3.064671039581298828e+00,3.064191579818725586e+00,3.063712358474731445e+00,3.063232898712158203e+00,3.062753915786743164e+00,3.062275171279907227e+00,3.061796188354492188e+00,3.061317682266235352e+00,3.060839414596557617e+00,3.060360908508300781e+00,3.059882879257202148e+00,3.059404850006103516e+00,3.058926820755004883e+00,3.058449268341064453e+00,3.057971715927124023e+00,3.057494163513183594e+00,3.057016849517822266e+00,3.056540012359619141e+00,3.056062698364257812e+00,3.055586099624633789e+00,3.055109500885009766e+00,3.054632663726806641e+00,3.054156541824340820e+00,3.053680419921875000e+00,3.053204059600830078e+00,3.052728176116943359e+00,3.052252531051635742e+00,3.051776647567749023e+00,3.051301479339599609e+00,3.050826072692871094e+00,3.050350666046142578e+00,3.049875736236572266e+00,3.049401044845581055e+00,3.048926115036010742e+00,3.048451662063598633e+00,3.047976970672607422e+00,3.047502756118774414e+00,3.047028779983520508e+00,3.046554565429687500e+00,3.046080827713012695e+00,3.045607328414916992e+00
2.605109930038452148e+00,2.604763507843017578e+00,2.604417085647583008e+00,2.604070663452148438e+00,2.603724241256713867e+00,2.603378295898437500e+00,2.603032112121582031e+00,2.602685928344726562e+00,2.602339982986450195e+00,2.601994276046752930e+00,2.601648569107055664e+00,2.601303100585937500e+00,2.600957632064819336e+00,2.600612163543701172e+00,2.600266933441162109e+00,2.599921703338623047e+00,2.599576473236083984e+00,2.599231719970703125e+00,2.598886728286743164e+00,2.598541736602783203e+00,2.598196983337402344e+00,2.597852468490600586e+00,2.597507715225219727e+00,2.597163438796997070e+00,2.596819162368774414e+00,2.596474647521972656e+00,2.596130609512329102e+00,2.595786571502685547e+00,2.595442295074462891e+00,2.595098495483398438e+00,2.594754695892333984e+00,2.594410896301269531e+00,2.594067335128784180e+00,2.593723773956298828e+00,2.593380212783813477e+00,2.593036890029907227e+00,2.592693567276000977e+00,2.592350244522094727e+00,2.592007398605346680e+00,2.591664075851440430e+00,2.591321229934692383e+00,2.590978622436523438e+00,2.590635776519775391e+00,2.590293169021606445e+00,2.589950561523437500e+00,2.589607954025268555e+00,2.589265823364257812e+00,2.588923454284667969e+00,2.588581085205078125e+00,2.588239192962646484e+00,2.587897300720214844e+00,2.587555170059204102e+00,2.587213277816772461e+00,2.586871623992919922e+00,2.586529970169067383e+00,2.586188316345214844e+00,2.585847139358520508e+00,2.585505485534667969e+00,2.585164308547973633e+00,2.584823131561279297e+00,2.584481954574584961e+00,2.584141016006469727e+00,2.583800077438354492e+00,2.583459138870239258e+00,2.583118438720703125e+00,2.582777976989746094e+00,2.582437276840209961e+00,2.582096815109252930e+00,2.581756353378295898e+00,2.581415891647338867e+00,2.581075906753540039e+00,2.580735683441162109e+00,2.580395698547363281e+00,2.580055713653564453e+00,2.579715728759765625e+00,2.579375982284545898e+00,2.579036474227905273e+00,2.578696727752685547e+00,2.578357219696044922e+00,2.578017950057983398e+00
2.255228519439697266e+00,2.254968881607055664e+00,2.254709005355834961e+00,2.254449367523193359e+00,2.254189968109130859e+00,2.253930568695068359e+00,2.253670930862426758e+00,2.253411769866943359e+00,2.253152370452880859e+00,2.252893209457397461e+00,2.252633810043334961e+00,2.252374887466430664e+00,2.252115726470947266e+00,2.251856803894042969e+00,2.251597881317138672e+00,2.251339197158813477e+00,2.251080274581909180e+00,2.250821590423583984e+00,2.250562906265258789e+00,2.250304222106933594e+00,2.250045776367187500e+00,2.249787330627441406e+00,2.249528884887695312e+00,2.249270439147949219e+00,2.249012231826782227e+00,2.248754024505615234e+00,2.248495817184448242e+00,2.248237609863281250e+00,2.247979640960693359e+00,2.247721672058105469e+00,2.247463703155517578e+00,2.247205734252929688e+00,2.246948003768920898e+00,2.246690273284912109e+00,2.246432304382324219e+00,2.246174812316894531e+00,2.245917081832885742e+00,2.245659589767456055e+00,2.245402097702026367e+00,2.245144605636596680e+00,2.244887351989746094e+00,2.244630098342895508e+00,2.244372844696044922e+00,2.244115591049194336e+00,2.243858575820922852e+00,2.243601322174072266e+00,2.243344545364379883e+00,2.243087530136108398e+00,2.242830514907836914e+00,2.242573738098144531e+00,2.242317199707031250e+00,2.242060422897338867e+00,2.241803646087646484e+00,2.241547107696533203e+00,2.241290569305419922e+00,2.241034030914306641e+00,2.240777730941772461e+00,2.240521430969238281e+00,2.240265130996704102e+00,2.240008831024169922e+00,2.239752531051635742e+00,2.239496469497680664e+00,2.239240407943725586e+00,2.238984346389770508e+00,2.238728523254394531e+00,2.238472700119018555e+00,2.238216876983642578e+00,2.237961053848266602e+00,2.237705469131469727e+00,2.237449645996093750e+00,2.237194061279296875e+00,2.236938714981079102e+00,2.236683130264282227e+00,2.236427783966064453e+00,2.236172199249267578e+00,2.235916852951049805e+00,2.235661745071411133e+00,2.235406398773193359e+00,2.235151290893554688e+00,2.234896421432495117e+00
1.988201498985290527e+00,1.987999558448791504e+00,1.987797737121582031e+00,1.987595915794372559e+00,1.987394094467163086e+00,1.987192392349243164e+00,1.986990928649902344e+00,1.986789345741271973e+00,1.986587643623352051e+00,1.986386179924011230e+00,1.986184597015380859e+00,1.985983133316040039e+00,1.985781669616699219e+00,1.985580444335937500e+00,1.985379099845886230e+00,1.985177874565124512e+00,1.984976530075073242e+00,1.984775304794311523e+00,1.984574317932128906e+00,1.984373092651367188e+00,1.984171986579895020e+00,1.983971118927001953e+00,1.983770132064819336e+00,1.983569145202636719e+00,1.983368396759033203e+00,1.983167529106140137e+00,1.982966661453247070e+00,1.982766032218933105e+00,1.982565164566040039e+00,1.982364416122436523e+00,1.982164025306701660e+00,1.981963276863098145e+00,1.981762647628784180e+00,1.981562256813049316e+00,1.981361746788024902e+00,1.981161236763000488e+00,1.980960726737976074e+00,1.980760574340820312e+00,1.980560183525085449e+00,1.980359792709350586e+00,1.980159759521484375e+00,1.979959487915039062e+00,1.979759216308593750e+00,1.979559302330017090e+00,1.979359149932861328e+00,1.979158997535705566e+00,1.978959202766418457e+00,1.978759169578552246e+00,1.978559136390686035e+00,1.978359460830688477e+00,1.978159546852111816e+00,1.977959632873535156e+00,1.977760076522827148e+00,1.977560281753540039e+00,1.977360486984252930e+00,1.977161049842834473e+00,1.976961374282836914e+00,1.976761817932128906e+00,1.976562380790710449e+00,1.976362824440002441e+00,1.976163387298583984e+00,1.975964069366455078e+00,1.975764751434326172e+00,1.975565314292907715e+00,1.975366234779357910e+00,1.975166916847229004e+00,1.974967598915100098e+00,1.974768638610839844e+00,1.974569439888000488e+00,1.974370360374450684e+00,1.974171400070190430e+00,1.973972320556640625e+00,1.973773360252380371e+00,1.973574638366699219e+00,1.973375678062438965e+00,1.973176717758178711e+00,1.972978115081787109e+00,1.972779273986816406e+00,1.972580552101135254e+00,1.972382068634033203e+00
1.777713775634765625e+00,1.777552485466003418e+00,1.777391076087951660e+00,1.777229785919189453e+00,1.777068376541137695e+00,1.776907205581665039e+00,1.776745915412902832e+00,1.776584625244140625e+00,1.776423573493957520e+00,1.776262402534484863e+00,1.776101231575012207e+00,1.775940179824829102e+00,1.775779128074645996e+00,1.775617957115173340e+00,1.775457024574279785e+00,1.775296211242675781e+00,1.775135159492492676e+00,1.774974226951599121e+00,1.774813294410705566e+00,1.774652481079101562e+00,1.774491548538208008e+00,1.774330973625183105e+00,1.774170160293579102e+00,1.774009346961975098e+00,1.773848772048950195e+00,1.773688077926635742e+00,1.773527383804321289e+00,1.773366928100585938e+00,1.773206233978271484e+00,1.773045659065246582e+00,1.772885322570800781e+00,1.772724747657775879e+00,1.772564291954040527e+00,1.772403955459594727e+00,1.772243499755859375e+00,1.772083044052124023e+00,1.771922707557678223e+00,1.771762490272521973e+00,1.771602153778076172e+00,1.771441817283630371e+00,1.771281719207763672e+00,1.771121501922607422e+00,1.770961284637451172e+00,1.770801305770874023e+00,1.770641088485717773e+00,1.770480990409851074e+00,1.770321011543273926e+00,1.770161032676696777e+00,1.770000934600830078e+00,1.769841074943542480e+00,1.769681096076965332e+00,1.769521117210388184e+00,1.769361376762390137e+00,1.769201517105102539e+00,1.769041657447814941e+00,1.768881916999816895e+00,1.768722176551818848e+00,1.768562316894531250e+00,1.768402814865112305e+00,1.768243074417114258e+00,1.768083333969116211e+00,1.767923831939697266e+00,1.767764210700988770e+00,1.767604589462280273e+00,1.767445206642150879e+00,1.767285585403442383e+00,1.767126083374023438e+00,1.766966819763183594e+00,1.766807317733764648e+00,1.766647934913635254e+00,1.766488671302795410e+00,1.766329288482666016e+00,1.766169905662536621e+00,1.766010761260986328e+00,1.765851497650146484e+00,1.765692234039306641e+00,1.765533208847045898e+00,1.765374064445495605e+00,1.765214800834655762e+00,1.765055894851684570e+00
1.607527494430541992e+00,1.607395529747009277e+00,1.607263565063476562e+00,1.607131600379943848e+00,1.606999754905700684e+00,1.606867909431457520e+00,1.606736063957214355e+00,1.606604218482971191e+00,1.606472373008728027e+00,1.606340527534484863e+00,1.606208920478820801e+00,1.606077075004577637e+00,1.605945348739624023e+00,1.605813622474670410e+00,1.605681896209716797e+00,1.605550169944763184e+00,1.605418562889099121e+00,1.605287075042724609e+00,1.605155467987060547e+00,1.605023860931396484e+00,1.604892253875732422e+00,1.604760646820068359e+00,1.604629158973693848e+00,1.604497671127319336e+00,1.604366302490234375e+00,1.604234814643859863e+00,1.604103326797485352e+00,1.603972077369689941e+00,1.603840708732604980e+00,1.603709340095520020e+00,1.603578090667724609e+00,1.603446722030639648e+00,1.603315472602844238e+00,1.603184342384338379e+00,1.603052973747253418e+00,1.602921724319458008e+00,1.602790474891662598e+00,1.602659463882446289e+00,1.602528214454650879e+00,1.602397084236145020e+00,1.602266073226928711e+00,1.602134943008422852e+00,1.602003931999206543e+00,1.601872920989990234e+00,1.601741909980773926e+00,1.601610898971557617e+00,1.601480007171630859e+00,1.601348996162414551e+00,1.601217985153198242e+00,1.601087212562561035e+00,1.600956320762634277e+00,1.600825309753417969e+00,1.600694656372070312e+00,1.600563764572143555e+00,1.600432872772216797e+00,1.600302219390869141e+00,1.600171446800231934e+00,1.600040674209594727e+00,1.599910020828247070e+00,1.599779248237609863e+00,1.599648475646972656e+00,1.599517941474914551e+00,1.599387288093566895e+00,1.599256634712219238e+00,1.599126219749450684e+00,1.598995566368103027e+00,1.598864912986755371e+00,1.598734498023986816e+00,1.598603963851928711e+00,1.598473429679870605e+00,1.598343133926391602e+00,1.598212599754333496e+00,1.598082184791564941e+00,1.597951889038085938e+00,1.597821474075317383e+00,1.597691059112548828e+00,1.597560763359069824e+00,1.597430467605590820e+00,1.597300171852111816e+00,1.597169995307922363e+00
1.467079281806945801e+00,1.466969370841979980e+00,1.466859459877014160e+00,1.466749548912048340e+00,1.466639637947082520e+00,1.466529726982116699e+00,1.466420054435729980e+00,1.466310143470764160e+00,1.466200351715087891e+00,1.466090559959411621e+00,1.465980768203735352e+00,1.465870976448059082e+00,1.465761303901672363e+00,1.465651631355285645e+00,1.465541958808898926e+00,1.465432167053222656e+00,1.465322494506835938e+00,1.465212821960449219e+00,1.465103149414062500e+00,1.464993715286254883e+00,1.464884042739868164e+00,1.464774489402770996e+00,1.464664816856384277e+00,1.464555263519287109e+00,1.464445710182189941e+00,1.464336156845092773e+00,1.464226841926574707e+00,1.464117288589477539e+00,1.464007735252380371e+00,1.463898301124572754e+00,1.463788986206054688e+00,1.463679552078247070e+00,1.463570117950439453e+00,1.463460803031921387e+00,1.463351488113403320e+00,1.463242053985595703e+00,1.463132739067077637e+00,1.463023424148559570e+00,1.462914109230041504e+00,1.462804794311523438e+00,1.462695717811584473e+00,1.462586402893066406e+00,1.462477087974548340e+00,1.462368011474609375e+00,1.462258815765380859e+00,1.462149620056152344e+00,1.462040543556213379e+00,1.461931347846984863e+00,1.461822152137756348e+00,1.461713194847106934e+00,1.461603999137878418e+00,1.461494922637939453e+00,1.461385965347290039e+00,1.461276888847351074e+00,1.461167812347412109e+00,1.461058855056762695e+00,1.460949778556823730e+00,1.460840821266174316e+00,1.460731983184814453e+00,1.460622906684875488e+00,1.460513949394226074e+00,1.460405111312866211e+00,1.460296273231506348e+00,1.460187315940856934e+00,1.460078477859497070e+00,1.459969639778137207e+00,1.459860801696777344e+00,1.459752082824707031e+00,1.459643244743347168e+00,1.459534406661987305e+00,1.459425687789916992e+00,1.459316849708557129e+00,1.459208130836486816e+00,1.459099531173706055e+00,1.458990812301635742e+00,1.458881974220275879e+00,1.458773493766784668e+00,1.458664774894714355e+00,1.458556056022644043e+00,1.458447575569152832e+00
1.349200725555419922e+00,1.349107742309570312e+00,1.349014878273010254e+00,1.348921895027160645e+00,1.348828911781311035e+00,1.348736047744750977e+00,1.348643064498901367e+00,1.348550200462341309e+00,1.348457455635070801e+00,1.348364591598510742e+00,1.348271727561950684e+00,1.348178863525390625e+00,1.348085999488830566e+00,1.347993135452270508e+00,1.347900390625000000e+00,1.347807645797729492e+00,1.347714900970458984e+00,1.347622156143188477e+00,1.347529292106628418e+00,1.347436547279357910e+00,1.347343921661376953e+00,1.347251296043395996e+00,1.347158551216125488e+00,1.347065925598144531e+00,1.346973180770874023e+00,1.346880555152893066e+00,1.346787810325622559e+00,1.346695184707641602e+00,1.346602678298950195e+00,1.346510052680969238e+00,1.346417427062988281e+00,1.346324920654296875e+00,1.346232295036315918e+00,1.346139788627624512e+00,1.346047282218933105e+00,1.345954775810241699e+00,1.345862150192260742e+00,1.345769762992858887e+00,1.345677256584167480e+00,1.345584750175476074e+00,1.345492362976074219e+00,1.345399975776672363e+00,1.345307469367980957e+00,1.345215082168579102e+00,1.345122694969177246e+00,1.345030307769775391e+00,1.344938039779663086e+00,1.344845652580261230e+00,1.344753265380859375e+00,1.344660997390747070e+00,1.344568610191345215e+00,1.344476222991943359e+00,1.344384074211120605e+00,1.344291687011718750e+00,1.344199419021606445e+00,1.344107270240783691e+00,1.344015002250671387e+00,1.343922734260559082e+00,1.343830585479736328e+00,1.343738317489624023e+00,1.343646049499511719e+00,1.343554019927978516e+00,1.343461751937866211e+00,1.343369603157043457e+00,1.343277454376220703e+00,1.343185305595397949e+00,1.343093156814575195e+00,1.343001127243041992e+00,1.342908978462219238e+00,1.342816948890686035e+00,1.342724919319152832e+00,1.342632770538330078e+00,1.342540740966796875e+00,1.342448830604553223e+00,1.342356681823730469e+00,1.342264652252197266e+00,1.342172741889953613e+00,1.342080712318420410e+00,1.341988801956176758e+00,1.341896891593933105e+00
1.248856186866760254e+00,1.248776555061340332e+00,1.248696923255920410e+00,1.248617410659790039e+00,1.248537778854370117e+00,1.248458147048950195e+00,1.248378515243530273e+00,1.248298883438110352e+00,1.248219370841979980e+00,1.248139739036560059e+00,1.248060226440429688e+00,1.247980713844299316e+00,1.247901201248168945e+00,1.247821569442749023e+00,1.247742056846618652e+00,1.247662544250488281e+00,1.247583031654357910e+00,1.247503638267517090e+00,1.247424125671386719e+00,1.247344613075256348e+00,1.247265219688415527e+00,1.247185707092285156e+00,1.247106313705444336e+00,1.247026920318603516e+00,1.246947526931762695e+00,1.246868133544921875e+00,1.246788620948791504e+00,1.246709227561950684e+00,1.246629834175109863e+00,1.246550559997558594e+00,1.246471166610717773e+00,1.246391892433166504e+00,1.246312499046325684e+00,1.246233224868774414e+00,1.246153831481933594e+00,1.246074557304382324e+00,1.245995163917541504e+00,1.245916008949279785e+00,1.245836734771728516e+00,1.245757460594177246e+00,1.245678305625915527e+00,1.245599031448364258e+00,1.245519757270812988e+00,1.245440602302551270e+00,1.245361328125000000e+00,1.245282173156738281e+00,1.245203018188476562e+00,1.245123863220214844e+00,1.245044708251953125e+00,1.244965553283691406e+00,1.244886398315429688e+00,1.244807243347167969e+00,1.244728207588195801e+00,1.244649052619934082e+00,1.244569897651672363e+00,1.244490861892700195e+00,1.244411826133728027e+00,1.244332671165466309e+00,1.244253754615783691e+00,1.244174599647521973e+00,1.244095563888549805e+00,1.244016647338867188e+00,1.243937611579895020e+00,1.243858575820922852e+00,1.243779540061950684e+00,1.243700623512268066e+00,1.243621587753295898e+00,1.243542671203613281e+00,1.243463635444641113e+00,1.243384718894958496e+00,1.243305802345275879e+00,1.243226885795593262e+00,1.243147969245910645e+00,1.243069052696228027e+00,1.242990136146545410e+00,1.242911219596862793e+00,1.242832422256469727e+00,1.242753505706787109e+00,1.242674708366394043e+00,1.242595911026000977e+00
1.162404537200927734e+00,1.162335515022277832e+00,1.162266492843627930e+00,1.162197470664978027e+00,1.162128448486328125e+00,1.162059545516967773e+00,1.161990642547607422e+00,1.161921620368957520e+00,1.161852717399597168e+00,1.161783695220947266e+00,1.161714792251586914e+00,1.161645889282226562e+00,1.161576986312866211e+00,1.161508083343505859e+00,1.161439180374145508e+00,1.161370277404785156e+00,1.161301374435424805e+00,1.161232471466064453e+00,1.161163568496704102e+00,1.161094784736633301e+00,1.161026000976562500e+00,1.160957098007202148e+00,1.160888314247131348e+00,1.160819411277770996e+00,1.160750627517700195e+00,1.160681724548339844e+00,1.160613059997558594e+00,1.160544276237487793e+00,1.160475492477416992e+00,1.160406708717346191e+00,1.160337924957275391e+00,1.160269141197204590e+00,1.160200357437133789e+00,1.160131692886352539e+00,1.160062909126281738e+00,1.159994125366210938e+00,1.159925460815429688e+00,1.159856677055358887e+00,1.159788012504577637e+00,1.159719347953796387e+00,1.159650683403015137e+00,1.159582018852233887e+00,1.159513354301452637e+00,1.159444689750671387e+00,1.159376025199890137e+00,1.159307360649108887e+00,1.159238815307617188e+00,1.159170150756835938e+00,1.159101486206054688e+00,1.159032940864562988e+00,1.158964395523071289e+00,1.158895730972290039e+00,1.158827185630798340e+00,1.158758640289306641e+00,1.158690094947814941e+00,1.158621549606323242e+00,1.158553004264831543e+00,1.158484458923339844e+00,1.158415913581848145e+00,1.158347487449645996e+00,1.158278942108154297e+00,1.158210515975952148e+00,1.158141970634460449e+00,1.158073425292968750e+00,1.158004999160766602e+00,1.157936573028564453e+00,1.157868027687072754e+00,1.157799601554870605e+00,1.157731175422668457e+00,1.157662749290466309e+00,1.157594323158264160e+00,1.157525897026062012e+00,1.157457470893859863e+00,1.157389044761657715e+00,1.157320737838745117e+00,1.157252311706542969e+00,1.157183885574340820e+00,1.157115578651428223e+00,1.157047152519226074e+00,1.156978845596313477e+00
1.087146878242492676e+00,1.087086558341979980e+00,1.087026238441467285e+00,1.086965918540954590e+00,1.086905479431152344e+00,1.086845159530639648e+00,1.086784839630126953e+00,1.086724638938903809e+00,1.086664319038391113e+00,1.086603999137878418e+00,1.086543679237365723e+00,1.086483359336853027e+00,1.086423039436340332e+00,1.086362719535827637e+00,1.086302518844604492e+00,1.086242318153381348e+00,1.086181998252868652e+00,1.086121797561645508e+00,1.086061477661132812e+00,1.086001276969909668e+00,1.085940957069396973e+00,1.085880875587463379e+00,1.085820555686950684e+00,1.085760354995727539e+00,1.085700154304504395e+00,1.085639953613281250e+00,1.085579752922058105e+00,1.085519552230834961e+00,1.085459470748901367e+00,1.085399270057678223e+00,1.085339069366455078e+00,1.085278987884521484e+00,1.085218787193298340e+00,1.085158586502075195e+00,1.085098505020141602e+00,1.085038423538208008e+00,1.084978222846984863e+00,1.084918141365051270e+00,1.084858059883117676e+00,1.084797859191894531e+00,1.084737777709960938e+00,1.084677696228027344e+00,1.084617614746093750e+00,1.084557533264160156e+00,1.084497451782226562e+00,1.084437370300292969e+00,1.084377408027648926e+00,1.084317326545715332e+00,1.084257245063781738e+00,1.084197282791137695e+00,1.084137320518493652e+00,1.084077239036560059e+00,1.084017276763916016e+00,1.083957314491271973e+00,1.083897233009338379e+00,1.083837270736694336e+00,1.083777308464050293e+00,1.083717346191406250e+00,1.083657383918762207e+00,1.083597421646118164e+00,1.083537459373474121e+00,1.083477497100830078e+00,1.083417534828186035e+00,1.083357572555541992e+00,1.083297729492187500e+00,1.083237767219543457e+00,1.083177924156188965e+00,1.083117961883544922e+00,1.083058118820190430e+00,1.082998156547546387e+00,1.082938313484191895e+00,1.082878470420837402e+00,1.082818508148193359e+00,1.082758665084838867e+00,1.082698822021484375e+00,1.082638978958129883e+00,1.082579135894775391e+00,1.082519292831420898e+00,1.082459449768066406e+00,1.082399606704711914e+00
1.021041631698608398e+00,1.020988345146179199e+00,1.020935177803039551e+00,1.020882010459899902e+00,1.020828723907470703e+00,1.020775556564331055e+00,1.020722270011901855e+00,1.020669102668762207e+00,1.020615816116333008e+00,1.020562648773193359e+00,1.020509481430053711e+00,1.020456314086914062e+00,1.020403146743774414e+00,1.020349979400634766e+00,1.020296812057495117e+00,1.020243525505065918e+00,1.020190477371215820e+00,1.020137310028076172e+00,1.020084142684936523e+00,1.020030975341796875e+00,1.019977807998657227e+00,1.019924759864807129e+00,1.019871592521667480e+00,1.019818544387817383e+00,1.019765377044677734e+00,1.019712328910827637e+00,1.019659161567687988e+00,1.019606113433837891e+00,1.019552946090698242e+00,1.019499897956848145e+00,1.019446849822998047e+00,1.019393801689147949e+00,1.019340634346008301e+00,1.019287586212158203e+00,1.019234538078308105e+00,1.019181489944458008e+00,1.019128441810607910e+00,1.019075393676757812e+00,1.019022345542907715e+00,1.018969297409057617e+00,1.018916368484497070e+00,1.018863320350646973e+00,1.018810272216796875e+00,1.018757343292236328e+00,1.018704295158386230e+00,1.018651247024536133e+00,1.018598318099975586e+00,1.018545269966125488e+00,1.018492341041564941e+00,1.018439412117004395e+00,1.018386363983154297e+00,1.018333435058593750e+00,1.018280506134033203e+00,1.018227577209472656e+00,1.018174648284912109e+00,1.018121719360351562e+00,1.018068790435791016e+00,1.018015861511230469e+00,1.017962932586669922e+00,1.017910003662109375e+00,1.017857074737548828e+00,1.017804265022277832e+00,1.017751336097717285e+00,1.017698407173156738e+00,1.017645597457885742e+00,1.017592668533325195e+00,1.017539739608764648e+00,1.017486929893493652e+00,1.017434120178222656e+00,1.017381191253662109e+00,1.017328381538391113e+00,1.017275571823120117e+00,1.017222642898559570e+00,1.017169833183288574e+00,1.017117023468017578e+00,1.017064213752746582e+00,1.017011404037475586e+00,1.016958594322204590e+00,1.016905784606933594e+00,1.016852974891662598e+00
9.625148177146911621e-01,9.624675512313842773e-01,9.624201655387878418e-01,9.623728990554809570e-01,9.623255133628845215e-01,9.622783064842224121e-01,9.622310400009155273e-01,9.621837139129638672e-01,9.621364474296569824e-01,9.620891213417053223e-01,9.620419144630432129e-01,9.619945883750915527e-01,9.619473814964294434e-01,9.619001746177673340e-01,9.618528485298156738e-01,9.618056416511535645e-01,9.617583155632019043e-01,9.617111682891845703e-01,9.616639614105224609e-01,9.616166353225708008e-01,9.615694880485534668e-01,9.615222215652465820e-01,9.614750146865844727e-01,9.614277482032775879e-01,9.613806009292602539e-01,9.613334536552429199e-01,9.612861871719360352e-01,9.612390398979187012e-01,9.611917734146118164e-01,9.611446857452392578e-01,9.610974192619323730e-01,9.610502719879150391e-01,9.610031843185424805e-01,9.609559178352355957e-01,9.609088301658630371e-01,9.608616232872009277e-01,9.608145356178283691e-01,9.607673287391662598e-01,9.607201814651489258e-01,9.606730937957763672e-01,9.606259465217590332e-01,9.605788588523864746e-01,9.605316519737243652e-01,9.604845643043518066e-01,9.604374170303344727e-01,9.603903293609619141e-01,9.603433012962341309e-01,9.602960944175720215e-01,9.602490663528442383e-01,9.602019190788269043e-01,9.601548910140991211e-01,9.601077437400817871e-01,9.600607156753540039e-01,9.600136876106262207e-01,9.599665403366088867e-01,9.599195122718811035e-01,9.598725438117980957e-01,9.598253965377807617e-01,9.597784280776977539e-01,9.597314000129699707e-01,9.596843123435974121e-01,9.596373438835144043e-01,9.595903158187866211e-01,9.595432281494140625e-01,9.594962596893310547e-01,9.594492912292480469e-01,9.594022035598754883e-01,9.593552350997924805e-01,9.593083262443542480e-01,9.592612385749816895e-01,9.592142701148986816e-01,9.591673612594604492e-01,9.591203331947326660e-01,9.590733647346496582e-01,9.590264558792114258e-01,9.589794278144836426e-01,9.589324593544006348e-01,9.588855504989624023e-01,9.588385224342346191e-01,9.587916731834411621e-01
9.103338718414306641e-01,9.102914929389953613e-01,9.102491736412048340e-01,9.102067947387695312e-01,9.101645350456237793e-01,9.101221561431884766e-01,9.100798964500427246e-01,9.100376367568969727e-01,9.099953174591064453e-01,9.099530577659606934e-01,9.099107384681701660e-01,9.098684787750244141e-01,9.098261594772338867e-01,9.097838997840881348e-01,9.097416996955871582e-01,9.096993803977966309e-01,9.096571207046508789e-01,9.096148014068603516e-01,9.095726013183593750e-01,9.095302820205688477e-01,9.094880819320678711e-01,9.094458818435668945e-01,9.094036221504211426e-01,9.093614220619201660e-01,9.093191027641296387e-01,9.092769026756286621e-01,9.092346429824829102e-01,9.091925024986267090e-01,9.091503024101257324e-01,9.091080427169799805e-01,9.090658426284790039e-01,9.090235829353332520e-01,9.089814424514770508e-01,9.089391827583312988e-01,9.088970422744750977e-01,9.088549017906188965e-01,9.088126420974731445e-01,9.087705016136169434e-01,9.087283015251159668e-01,9.086861610412597656e-01,9.086439013481140137e-01,9.086018204689025879e-01,9.085596799850463867e-01,9.085174798965454102e-01,9.084753394126892090e-01,9.084331393241882324e-01,9.083910584449768066e-01,9.083488583564758301e-01,9.083067774772644043e-01,9.082646965980529785e-01,9.082224965095520020e-01,9.081804156303405762e-01,9.081382155418395996e-01,9.080961346626281738e-01,9.080539941787719727e-01,9.080119132995605469e-01,9.079698324203491211e-01,9.079276919364929199e-01,9.078856110572814941e-01,9.078435897827148438e-01,9.078014492988586426e-01,9.077593684196472168e-01,9.077173471450805664e-01,9.076752066612243652e-01,9.076331853866577148e-01,9.075911641120910645e-01,9.075490236282348633e-01,9.075070023536682129e-01,9.074649810791015625e-01,9.074228405952453613e-01,9.073808789253234863e-01,9.073388576507568359e-01,9.072967767715454102e-01,9.072547554969787598e-01,9.072127342224121094e-01,9.071706533432006836e-01,9.071286916732788086e-01,9.070867300033569336e-01,9.070446491241455078e-01,9.070026278495788574e-01
8.635196089744567871e-01,8.634815216064453125e-01,8.634434342384338379e-01,8.634054064750671387e-01,8.633673191070556641e-01,8.633292913436889648e-01,8.632911443710327148e-01,8.632531166076660156e-01,8.632150292396545410e-01,8.631770014762878418e-01,8.631389737129211426e-01,8.631008863449096680e-01,8.630629181861877441e-01,8.630248308181762695e-01,8.629868030548095703e-01,8.629487156867980957e-01,8.629107475280761719e-01,8.628727197647094727e-01,8.628346323966979980e-01,8.627966642379760742e-01,8.627585768699645996e-01,8.627206087112426758e-01,8.626825809478759766e-01,8.626446127891540527e-01,8.626066446304321289e-01,8.625685572624206543e-01,8.625306487083435059e-01,8.624925613403320312e-01,8.624546527862548828e-01,8.624166846275329590e-01,8.623786568641662598e-01,8.623406887054443359e-01,8.623026609420776367e-01,8.622647523880004883e-01,8.622267246246337891e-01,8.621887564659118652e-01,8.621508479118347168e-01,8.621128201484680176e-01,8.620749115943908691e-01,8.620369434356689453e-01,8.619989752769470215e-01,8.619610071182250977e-01,8.619230985641479492e-01,8.618851900100708008e-01,8.618472218513488770e-01,8.618093132972717285e-01,8.617713451385498047e-01,8.617334365844726562e-01,8.616954684257507324e-01,8.616575598716735840e-01,8.616197109222412109e-01,8.615817427635192871e-01,8.615438938140869141e-01,8.615059256553649902e-01,8.614680171012878418e-01,8.614301085472106934e-01,8.613922595977783203e-01,8.613542914390563965e-01,8.613164424896240234e-01,8.612785935401916504e-01,8.612406253814697266e-01,8.612028360366821289e-01,8.611649870872497559e-01,8.611270189285278320e-01,8.610892295837402344e-01,8.610513806343078613e-01,8.610134720802307129e-01,8.609756231307983398e-01,8.609378337860107422e-01,8.608999252319335938e-01,8.608620762825012207e-01,8.608242869377136230e-01,8.607863783836364746e-01,8.607485890388488770e-01,8.607107996940612793e-01,8.606728911399841309e-01,8.606351017951965332e-01,8.605973124504089355e-01,8.605594635009765625e-01,8.605216741561889648e-01
8.212848305702209473e-01,8.212503790855407715e-01,8.212159276008605957e-01,8.211814761161804199e-01,8.211470842361450195e-01,8.211126327514648438e-01,8.210782408714294434e-01,8.210437297821044922e-01,8.210093379020690918e-01,8.209748864173889160e-01,8.209404945373535156e-01,8.209061026573181152e-01,8.208716511726379395e-01,8.208372592926025391e-01,8.208028078079223633e-01,8.207684159278869629e-01,8.207339644432067871e-01,8.206996321678161621e-01,8.206652402877807617e-01,8.206308484077453613e-01,8.205964565277099609e-01,8.205620050430297852e-01,8.205276727676391602e-01,8.204932808876037598e-01,8.204588890075683594e-01,8.204245567321777344e-01,8.203901648521423340e-01,8.203557729721069336e-01,8.203213810920715332e-01,8.202870488166809082e-01,8.202526569366455078e-01,8.202183246612548828e-01,8.201839923858642578e-01,8.201496005058288574e-01,8.201152682304382324e-01,8.200808763504028320e-01,8.200465440750122070e-01,8.200122117996215820e-01,8.199778795242309570e-01,8.199435472488403320e-01,8.199092149734497070e-01,8.198748826980590820e-01,8.198404908180236816e-01,8.198062181472778320e-01,8.197718858718872070e-01,8.197375535964965820e-01,8.197032809257507324e-01,8.196689486503601074e-01,8.196346759796142578e-01,8.196002840995788574e-01,8.195660114288330078e-01,8.195316791534423828e-01,8.194974064826965332e-01,8.194631338119506836e-01,8.194288015365600586e-01,8.193945288658142090e-01,8.193601965904235840e-01,8.193259239196777344e-01,8.192916512489318848e-01,8.192573785781860352e-01,8.192230463027954102e-01,8.191888332366943359e-01,8.191545605659484863e-01,8.191202878952026367e-01,8.190860152244567871e-01,8.190518021583557129e-01,8.190174698829650879e-01,8.189832568168640137e-01,8.189490437507629395e-01,8.189147710800170898e-01,8.188805580139160156e-01,8.188463449478149414e-01,8.188120126724243164e-01,8.187778592109680176e-01,8.187436461448669434e-01,8.187093138694763184e-01,8.186751604080200195e-01,8.186409473419189453e-01,8.186066746711730957e-01,8.185724616050720215e-01
7.829888463020324707e-01,7.829574942588806152e-01,7.829262018203735352e-01,7.828948497772216797e-01,7.828636169433593750e-01,7.828322649002075195e-01,7.828009724617004395e-01,7.827697396278381348e-01,7.827383875846862793e-01,7.827071547508239746e-01,7.826758027076721191e-01,7.826445698738098145e-01,7.826132178306579590e-01,7.825819849967956543e-01,7.825507521629333496e-01,7.825194001197814941e-01,7.824881672859191895e-01,7.824568748474121094e-01,7.824256420135498047e-01,7.823942899703979492e-01,7.823630571365356445e-01,7.823318243026733398e-01,7.823005318641662598e-01,7.822693586349487305e-01,7.822380661964416504e-01,7.822068333625793457e-01,7.821755409240722656e-01,7.821443080902099609e-01,7.821130752563476562e-01,7.820818424224853516e-01,7.820506095886230469e-01,7.820193171501159668e-01,7.819881439208984375e-01,7.819568514823913574e-01,7.819256782531738281e-01,7.818944454193115234e-01,7.818632125854492188e-01,7.818320393562316895e-01,7.818007469177246094e-01,7.817695736885070801e-01,7.817384004592895508e-01,7.817071676254272461e-01,7.816759347915649414e-01,7.816447019577026367e-01,7.816135287284851074e-01,7.815822958946228027e-01,7.815511226654052734e-01,7.815199494361877441e-01,7.814887166023254395e-01,7.814576029777526855e-01,7.814263701438903809e-01,7.813951969146728516e-01,7.813639640808105469e-01,7.813327908515930176e-01,7.813016772270202637e-01,7.812704443931579590e-01,7.812393307685852051e-01,7.812080979347229004e-01,7.811769843101501465e-01,7.811457514762878418e-01,7.811146378517150879e-01,7.810834646224975586e-01,7.810522913932800293e-01,7.810211777687072754e-01,7.809900045394897461e-01,7.809588313102722168e-01,7.809276580810546875e-01,7.808965444564819336e-01,7.808654308319091797e-01,7.808342576026916504e-01,7.808031439781188965e-01,7.807720303535461426e-01,7.807408571243286133e-01,7.807098031044006348e-01,7.806786894798278809e-01,7.806475162506103516e-01,7.806164026260375977e-01,7.805853486061096191e-01,7.805541753768920898e-01,7.805230617523193359e-01
7.481051087379455566e-01,7.480764985084533691e-01,7.480479478836059570e-01,7.480193972587585449e-01,7.479907870292663574e-01,7.479622364044189453e-01,7.479336261749267578e-01,7.479050755500793457e-01,7.478764653205871582e-01,7.478479146957397461e-01,7.478194236755371094e-01,7.477908134460449219e-01,7.477622628211975098e-01,7.477337121963500977e-01,7.477051615715026855e-01,7.476766109466552734e-01,7.476480603218078613e-01,7.476195096969604492e-01,7.475909590721130371e-01,7.475624084472656250e-01,7.475338578224182129e-01,7.475053668022155762e-01,7.474768161773681641e-01,7.474482655525207520e-01,7.474197745323181152e-01,7.473911643028259277e-01,7.473626732826232910e-01,7.473341226577758789e-01,7.473056316375732422e-01,7.472771406173706055e-01,7.472485899925231934e-01,7.472200989723205566e-01,7.471915483474731445e-01,7.471630573272705078e-01,7.471345067024230957e-01,7.471060156822204590e-01,7.470775246620178223e-01,7.470490336418151855e-01,7.470205426216125488e-01,7.469919919967651367e-01,7.469635009765625000e-01,7.469350099563598633e-01,7.469065189361572266e-01,7.468780875205993652e-01,7.468495368957519531e-01,7.468211054801940918e-01,7.467925548553466797e-01,7.467641234397888184e-01,7.467355728149414062e-01,7.467071413993835449e-01,7.466787099838256836e-01,7.466501593589782715e-01,7.466217279434204102e-01,7.465932369232177734e-01,7.465648055076599121e-01,7.465363144874572754e-01,7.465078234672546387e-01,7.464793920516967773e-01,7.464509010314941406e-01,7.464224696159362793e-01,7.463939785957336426e-01,7.463656067848205566e-01,7.463371157646179199e-01,7.463086843490600586e-01,7.462802529335021973e-01,7.462517619132995605e-01,7.462233901023864746e-01,7.461948990821838379e-01,7.461664676666259766e-01,7.461379766464233398e-01,7.461096048355102539e-01,7.460811734199523926e-01,7.460527420043945312e-01,7.460243105888366699e-01,7.459959387779235840e-01,7.459675073623657227e-01,7.459390759468078613e-01,7.459107041358947754e-01,7.458822727203369141e-01,7.458538413047790527e-01
7.161970734596252441e-01,7.161709070205688477e-01,7.161446809768676758e-01,7.161185145378112793e-01,7.160923480987548828e-01,7.160661220550537109e-01,7.160399556159973145e-01,7.160137295722961426e-01,7.159876227378845215e-01,7.159613966941833496e-01,7.159352302551269531e-01,7.159090638160705566e-01,7.158828377723693848e-01,7.158567309379577637e-01,7.158305048942565918e-01,7.158043980598449707e-01,7.157781720161437988e-01,7.157520055770874023e-01,7.157258987426757812e-01,7.156996726989746094e-01,7.156735658645629883e-01,7.156473398208618164e-01,7.156212329864501953e-01,7.155950665473937988e-01,7.155689001083374023e-01,7.155427932739257812e-01,7.155166268348693848e-01,7.154905200004577637e-01,7.154642939567565918e-01,7.154381871223449707e-01,7.154120206832885742e-01,7.153859138488769531e-01,7.153598070144653320e-01,7.153336405754089355e-01,7.153075337409973145e-01,7.152813673019409180e-01,7.152552604675292969e-01,7.152290940284729004e-01,7.152029871940612793e-01,7.151768803596496582e-01,7.151507735252380371e-01,7.151246666908264160e-01,7.150985002517700195e-01,7.150723934173583984e-01,7.150462865829467773e-01,7.150201797485351562e-01,7.149940729141235352e-01,7.149679660797119141e-01,7.149418592453002930e-01,7.149157524108886719e-01,7.148896455764770508e-01,7.148635983467102051e-01,7.148374319076538086e-01,7.148113846778869629e-01,7.147852778434753418e-01,7.147591710090637207e-01,7.147330641746520996e-01,7.147070169448852539e-01,7.146809101104736328e-01,7.146548032760620117e-01,7.146287560462951660e-01,7.146026492118835449e-01,7.145766019821166992e-01,7.145504951477050781e-01,7.145244479179382324e-01,7.144984006881713867e-01,7.144722938537597656e-01,7.144462466239929199e-01,7.144201397895812988e-01,7.143940925598144531e-01,7.143679857254028320e-01,7.143419384956359863e-01,7.143158316612243652e-01,7.142898440361022949e-01,7.142637968063354492e-01,7.142376899719238281e-01,7.142116427421569824e-01,7.141856551170349121e-01,7.141595482826232910e-01,7.141335606575012207e-01
6.868996620178222656e-01,6.868755221366882324e-01,6.868514418601989746e-01,6.868273019790649414e-01,6.868032813072204590e-01,6.867791414260864258e-01,6.867550611495971680e-01,6.867309808731079102e-01,6.867069005966186523e-01,6.866828203201293945e-01,6.866587400436401367e-01,6.866346597671508789e-01,6.866105794906616211e-01,6.865864992141723633e-01,6.865624785423278809e-01,6.865383386611938477e-01,6.865143179893493652e-01,6.864901781082153320e-01,6.864661574363708496e-01,6.864420771598815918e-01,6.864179968833923340e-01,6.863939762115478516e-01,6.863698959350585938e-01,6.863458156585693359e-01,6.863217353820800781e-01,6.862977147102355957e-01,6.862736940383911133e-01,6.862496137619018555e-01,6.862255930900573730e-01,6.862015128135681152e-01,6.861774921417236328e-01,6.861534118652343750e-01,6.861293911933898926e-01,6.861053705215454102e-01,6.860812902450561523e-01,6.860572695732116699e-01,6.860331892967224121e-01,6.860091686248779297e-01,6.859850883483886719e-01,6.859611272811889648e-01,6.859371066093444824e-01,6.859130263328552246e-01,6.858890056610107422e-01,6.858649849891662598e-01,6.858409643173217773e-01,6.858169436454772949e-01,6.857929229736328125e-01,6.857689023017883301e-01,6.857448816299438477e-01,6.857208609580993652e-01,6.856968402862548828e-01,6.856728792190551758e-01,6.856487989425659180e-01,6.856248378753662109e-01,6.856008172035217285e-01,6.855767965316772461e-01,6.855528354644775391e-01,6.855288147926330566e-01,6.855047941207885742e-01,6.854807734489440918e-01,6.854568123817443848e-01,6.854328513145446777e-01,6.854088306427001953e-01,6.853848695755004883e-01,6.853608489036560059e-01,6.853368282318115234e-01,6.853128075599670410e-01,6.852888464927673340e-01,6.852649450302124023e-01,6.852409243583679199e-01,6.852169632911682129e-01,6.851929426193237305e-01,6.851689815521240234e-01,6.851449608802795410e-01,6.851209998130798340e-01,6.850970387458801270e-01,6.850730776786804199e-01,6.850491166114807129e-01,6.850251555442810059e-01,6.850011944770812988e-01
