5.000000000000000000e+00,5.000000000000000000e+00,5.000000000000000000e+00,5.000000000000000000e+00,5.000000000000000000e+00,5.000000000000000000e+00,5.000000000000000000e+00,5.000000000000000000e+00,5.000000000000000000e+00,5.000000000000000000e+00,5.000000000000000000e+00,5.000000000000000000e+00,5.000000000000000000e+00,5.000000000000000000e+00,5.000000000000000000e+00,5.000000000000000000e+00,5.000000000000000000e+00,5.000000000000000000e+00,5.000000000000000000e+00,5.000000000000000000e+00,5.000000000000000000e+00,5.000000000000000000e+00,5.000000000000000000e+00,5.000000000000000000e+00,5.000000000000000000e+00,5.000000000000000000e+00,5.000000000000000000e+00,5.000000000000000000e+00,5.000000000000000000e+00,5.000000000000000000e+00,5.000000000000000000e+00,5.000000000000000000e+00,5.000000000000000000e+00,5.000000000000000000e+00,5.000000000000000000e+00,5.000000000000000000e+00,5.000000000000000000e+00,5.000000000000000000e+00,2.157180309295654297e+00,2.161616325378417969e+00,2.155143976211547852e+00,2.140249013900756836e+00,2.133948564529418945e+00,2.140764713287353516e+00,2.148163318634033203e+00,2.161408185958862305e+00,2.180972099304199219e+00,2.204164505004882812e+00,2.239407300949096680e+00,2.262411117553710938e+00,5.000000000000000000e+00,5.000000000000000000e+00,5.000000000000000000e+00,5.000000000000000000e+00,5.000000000000000000e+00,5.000000000000000000e+00,4.672088623046875000e+00,4.527097702026367188e+00,4.390834808349609375e+00,4.262535572052001953e+00,4.141520500183105469e+00,4.027187347412109375e+00,3.918997764587402344e+00,3.816468954086303711e+00,3.719167709350585938e+00,3.626704931259155273e+00,3.538727521896362305e+00,3.454917907714843750e+00,3.374985694885253906e+00,3.298668861389160156e+00,3.225727081298828125e+00,3.155941247940063477e+00,3.089111089706420898e+00,3.025052785873413086e+00,2.963597059249877930e+00,2.904588699340820312e+00,2.847884178161621094e+00,2.793343544006347656e+00,2.740847826004028320e+00,2.690288543701171875e+00
5.000000000000000000e+00,5.000000000000000000e+00,5.000000000000000000e+00,5.000000000000000000e+00,5.000000000000000000e+00,5.000000000000000000e+00,5.000000000000000000e+00,5.000000000000000000e+00,5.000000000000000000e+00,5.000000000000000000e+00,5.000000000000000000e+00,5.000000000000000000e+00,5.000000000000000000e+00,5.000000000000000000e+00,5.000000000000000000e+00,5.000000000000000000e+00,5.000000000000000000e+00,5.000000000000000000e+00,5.000000000000000000e+00,5.000000000000000000e+00,5.000000000000000000e+00,5.000000000000000000e+00,5.000000000000000000e+00,5.000000000000000000e+00,5.000000000000000000e+00,5.000000000000000000e+00,5.000000000000000000e+00,5.000000000000000000e+00,5.000000000000000000e+00,5.000000000000000000e+00,5.000000000000000000e+00,5.000000000000000000e+00,5.000000000000000000e+00,5.000000000000000000e+00,5.000000000000000000e+00,5.000000000000000000e+00,5.000000000000000000e+00,5.000000000000000000e+00,2.165275096893310547e+00,2.160570383071899414e+00,2.163877248764038086e+00,2.144929885864257812e+00,2.128420352935791016e+00,2.122851371765136719e+00,2.129687547683715820e+00,2.138928413391113281e+00,2.150928735733032227e+00,2.175139427185058594e+00,2.246561765670776367e+00,2.280019760131835938e+00,5.000000000000000000e+00,5.000000000000000000e+00,5.000000000000000000e+00,5.000000000000000000e+00,5.000000000000000000e+00,4.826795578002929688e+00,4.672202110290527344e+00,4.527204513549804688e+00,4.390935420989990234e+00,4.262629985809326172e+00,4.141609668731689453e+00,4.027271747589111328e+00,3.919077396392822266e+00,3.816544532775878906e+00,3.719239473342895508e+00,3.626773118972778320e+00,3.538792610168457031e+00,3.454979658126831055e+00,3.375045061111450195e+00,3.298725605010986328e+00,3.225781202316284180e+00,3.155993223190307617e+00,3.089160919189453125e+00,3.025100469589233398e+00,2.963632583618164062e+00,2.904608726501464844e+00,2.847889661788940430e+00,2.793343544006347656e+00,2.740847587585449219e+00,2.690288543701171875e+00
5.000000000000000000e+00,5.000000000000000000e+00,5.000000000000000000e+00,5.000000000000000000e+00,5.000000000000000000e+00,5.000000000000000000e+00,5.000000000000000000e+00,5.000000000000000000e+00,5.000000000000000000e+00,5.000000000000000000e+00,5.000000000000000000e+00,5.000000000000000000e+00,5.000000000000000000e+00,5.000000000000000000e+00,5.000000000000000000e+00,5.000000000000000000e+00,5.000000000000000000e+00,5.000000000000000000e+00,5.000000000000000000e+00,5.000000000000000000e+00,5.000000000000000000e+00,5.000000000000000000e+00,5.000000000000000000e+00,5.000000000000000000e+00,5.000000000000000000e+00,5.000000000000000000e+00,5.000000000000000000e+00,5.000000000000000000e+00,5.000000000000000000e+00,5.000000000000000000e+00,5.000000000000000000e+00,5.000000000000000000e+00,5.000000000000000000e+00,5.000000000000000000e+00,5.000000000000000000e+00,5.000000000000000000e+00,5.000000000000000000e+00,5.000000000000000000e+00,2.174440383911132812e+00,2.163915157318115234e+00,2.177517414093017578e+00,2.147553205490112305e+00,2.130921125411987305e+00,2.127480268478393555e+00,2.129270553588867188e+00,2.140144824981689453e+00,2.149191141128540039e+00,2.173790931701660156e+00,2.244809389114379883e+00,2.288302183151245117e+00,5.000000000000000000e+00,5.000000000000000000e+00,5.000000000000000000e+00,5.000000000000000000e+00,4.992098808288574219e+00,4.826916694641113281e+00,4.672315597534179688e+00,4.527311325073242188e+00,4.391035556793212891e+00,4.262724399566650391e+00,4.141699314117431641e+00,4.027356147766113281e+00,3.919157505035400391e+00,3.816620349884033203e+00,3.719311475753784180e+00,3.626841545104980469e+00,3.538857936859130859e+00,3.455042123794555664e+00,3.375104427337646484e+00,3.298782348632812500e+00,3.225835323333740234e+00,3.156031847000122070e+00,3.089181900024414062e+00,3.025104999542236328e+00,2.963632583618164062e+00,2.904608488082885742e+00,2.847889661788940430e+00,2.793343305587768555e+00,2.740847349166870117e+00,2.690288305282592773e+00
5.000000000000000000e+00,5.000000000000000000e+00,5.000000000000000000e+00,5.000000000000000000e+00,5.000000000000000000e+00,5.000000000000000000e+00,5.000000000000000000e+00,5.000000000000000000e+00,5.000000000000000000e+00,5.000000000000000000e+00,5.000000000000000000e+00,5.000000000000000000e+00,5.000000000000000000e+00,5.000000000000000000e+00,5.000000000000000000e+00,5.000000000000000000e+00,5.000000000000000000e+00,5.000000000000000000e+00,5.000000000000000000e+00,5.000000000000000000e+00,5.000000000000000000e+00,5.000000000000000000e+00,5.000000000000000000e+00,5.000000000000000000e+00,5.000000000000000000e+00,5.000000000000000000e+00,5.000000000000000000e+00,5.000000000000000000e+00,5.000000000000000000e+00,5.000000000000000000e+00,5.000000000000000000e+00,5.000000000000000000e+00,5.000000000000000000e+00,5.000000000000000000e+00,5.000000000000000000e+00,5.000000000000000000e+00,5.000000000000000000e+00,5.000000000000000000e+00,2.175254106521606445e+00,2.162559747695922852e+00,2.171063423156738281e+00,2.157208681106567383e+00,2.146489143371582031e+00,2.131419420242309570e+00,2.123786687850952148e+00,2.135698795318603516e+00,2.144353389739990234e+00,2.189970731735229492e+00,2.293145895004272461e+00,2.297863960266113281e+00,5.000000000000000000e+00,5.000000000000000000e+00,5.000000000000000000e+00,5.000000000000000000e+00,4.992228984832763672e+00,4.827037811279296875e+00,4.672429561614990234e+00,4.527417659759521484e+00,4.391135692596435547e+00,4.262818813323974609e+00,4.141788482666015625e+00,4.027440547943115234e+00,3.919237613677978516e+00,3.816695928573608398e+00,3.719383239746093750e+00,3.626909971237182617e+00,3.538922786712646484e+00,3.455103874206542969e+00,3.375146627426147461e+00,3.298804283142089844e+00,3.225838899612426758e+00,3.156031847000122070e+00,3.089181661605834961e+00,3.025104999542236328e+00,2.963632345199584961e+00,2.904608249664306641e+00,2.847889423370361328e+00,2.793343067169189453e+00,2.740859031677246094e+00,2.690311670303344727e+00
5.000000000000000000e+00,5.000000000000000000e+00,5.000000000000000000e+00,5.000000000000000000e+00,5.000000000000000000e+00,5.000000000000000000e+00,5.000000000000000000e+00,5.000000000000000000e+00,5.000000000000000000e+00,5.000000000000000000e+00,5.000000000000000000e+00,5.000000000000000000e+00,5.000000000000000000e+00,5.000000000000000000e+00,5.000000000000000000e+00,5.000000000000000000e+00,5.000000000000000000e+00,5.000000000000000000e+00,5.000000000000000000e+00,5.000000000000000000e+00,5.000000000000000000e+00,5.000000000000000000e+00,5.000000000000000000e+00,5.000000000000000000e+00,5.000000000000000000e+00,5.000000000000000000e+00,5.000000000000000000e+00,5.000000000000000000e+00,5.000000000000000000e+00,5.000000000000000000e+00,5.000000000000000000e+00,5.000000000000000000e+00,5.000000000000000000e+00,5.000000000000000000e+00,5.000000000000000000e+00,5.000000000000000000e+00,5.000000000000000000e+00,5.000000000000000000e+00,2.172076702117919922e+00,2.161161661148071289e+00,2.160671949386596680e+00,2.163415908813476562e+00,2.144495010375976562e+00,2.129911422729492188e+00,2.126590967178344727e+00,2.133605480194091797e+00,2.148432016372680664e+00,2.186795711517333984e+00,2.292982578277587891e+00,2.304164648056030273e+00,5.000000000000000000e+00,5.000000000000000000e+00,5.000000000000000000e+00,5.000000000000000000e+00,4.992358207702636719e+00,4.827159404754638672e+00,4.672543048858642578e+00,4.527524471282958984e+00,4.391235828399658203e+00,4.262913703918457031e+00,4.141877651214599609e+00,4.027524948120117188e+00,3.919317245483398438e+00,3.816771984100341797e+00,3.719455957412719727e+00,3.626956462860107422e+00,3.538946390151977539e+00,3.455106019973754883e+00,3.375146627426147461e+00,3.298804044723510742e+00,3.225838661193847656e+00,3.156031608581542969e+00,3.089181423187255859e+00,3.025104761123657227e+00,2.963632106781005859e+00,2.904622316360473633e+00,2.847916603088378906e+00,2.793382644653320312e+00,2.740897893905639648e+00,2.690349102020263672e+00
5.000000000000000000e+00,5.000000000000000000e+00,5.000000000000000000e+00,5.000000000000000000e+00,5.000000000000000000e+00,5.000000000000000000e+00,5.000000000000000000e+00,5.000000000000000000e+00,5.000000000000000000e+00,5.000000000000000000e+00,5.000000000000000000e+00,5.000000000000000000e+00,5.000000000000000000e+00,5.000000000000000000e+00,5.000000000000000000e+00,5.000000000000000000e+00,5.000000000000000000e+00,5.000000000000000000e+00,5.000000000000000000e+00,5.000000000000000000e+00,5.000000000000000000e+00,5.000000000000000000e+00,5.000000000000000000e+00,5.000000000000000000e+00,5.000000000000000000e+00,5.000000000000000000e+00,5.000000000000000000e+00,5.000000000000000000e+00,5.000000000000000000e+00,5.000000000000000000e+00,5.000000000000000000e+00,5.000000000000000000e+00,5.000000000000000000e+00,5.000000000000000000e+00,5.000000000000000000e+00,5.000000000000000000e+00,5.000000000000000000e+00,5.000000000000000000e+00,2.169096231460571289e+00,2.157156467437744141e+00,2.159322977066040039e+00,2.176311492919921875e+00,2.144313573837280273e+00,2.131788969039916992e+00,2.129116535186767578e+00,2.135252714157104492e+00,2.148968935012817383e+00,2.179741144180297852e+00,2.292767763137817383e+00,2.310861825942993164e+00,5.000000000000000000e+00,5.000000000000000000e+00,5.000000000000000000e+00,5.000000000000000000e+00,4.992487907409667969e+00,4.827280521392822266e+00,4.672656536102294922e+00,4.527630805969238281e+00,4.391336441040039062e+00,4.263008117675781250e+00,4.141966819763183594e+00,4.027606964111328125e+00,3.919368982315063477e+00,3.816796779632568359e+00,3.719455480575561523e+00,3.626956462860107422e+00,3.538945913314819336e+00,3.455105781555175781e+00,3.375146150588989258e+00,3.298803806304931641e+00,3.225838661193847656e+00,3.156032800674438477e+00,3.089198827743530273e+00,3.025136709213256836e+00,2.963677644729614258e+00,2.904666185379028320e+00,2.847958564758300781e+00,2.793423175811767578e+00,2.740936994552612305e+00,2.690386772155761719e+00
5.000000000000000000e+00,5.000000000000000000e+00,5.000000000000000000e+00,5.000000000000000000e+00,5.000000000000000000e+00,5.000000000000000000e+00,5.000000000000000000e+00,5.000000000000000000e+00,5.000000000000000000e+00,5.000000000000000000e+00,5.000000000000000000e+00,5.000000000000000000e+00,5.000000000000000000e+00,5.000000000000000000e+00,5.000000000000000000e+00,5.000000000000000000e+00,5.000000000000000000e+00,5.000000000000000000e+00,5.000000000000000000e+00,5.000000000000000000e+00,5.000000000000000000e+00,5.000000000000000000e+00,5.000000000000000000e+00,5.000000000000000000e+00,5.000000000000000000e+00,5.000000000000000000e+00,5.000000000000000000e+00,5.000000000000000000e+00,5.000000000000000000e+00,5.000000000000000000e+00,5.000000000000000000e+00,5.000000000000000000e+00,5.000000000000000000e+00,5.000000000000000000e+00,5.000000000000000000e+00,5.000000000000000000e+00,5.000000000000000000e+00,5.000000000000000000e+00,2.169507026672363281e+00,2.156780242919921875e+00,2.171890974044799805e+00,2.185184240341186523e+00,2.141942739486694336e+00,2.128525972366333008e+00,2.131208181381225586e+00,2.140202045440673828e+00,2.151646137237548828e+00,2.185956478118896484e+00,2.300078630447387695e+00,2.317227363586425781e+00,5.000000000000000000e+00,5.000000000000000000e+00,5.000000000000000000e+00,5.000000000000000000e+00,4.992617607116699219e+00,4.827401638031005859e+00,4.672770500183105469e+00,4.527737617492675781e+00,4.391430377960205078e+00,4.263066291809082031e+00,4.141992568969726562e+00,4.027606964111328125e+00,3.919368982315063477e+00,3.816796302795410156e+00,3.719455003738403320e+00,3.626956224441528320e+00,3.538945674896240234e+00,3.455105781555175781e+00,3.375149011611938477e+00,3.298824787139892578e+00,3.225876092910766602e+00,3.156084299087524414e+00,3.089248180389404297e+00,3.025184154510498047e+00,2.963723182678222656e+00,2.904709815979003906e+00,2.848000526428222656e+00,2.793463468551635742e+00,2.740975856781005859e+00,2.690424203872680664e+00
5.000000000000000000e+00,5.000000000000000000e+00,5.000000000000000000e+00,5.000000000000000000e+00,5.000000000000000000e+00,5.000000000000000000e+00,5.000000000000000000e+00,5.000000000000000000e+00,5.000000000000000000e+00,5.000000000000000000e+00,5.000000000000000000e+00,5.000000000000000000e+00,5.000000000000000000e+00,5.000000000000000000e+00,5.000000000000000000e+00,5.000000000000000000e+00,5.000000000000000000e+00,5.000000000000000000e+00,5.000000000000000000e+00,5.000000000000000000e+00,5.000000000000000000e+00,5.000000000000000000e+00,5.000000000000000000e+00,5.000000000000000000e+00,5.000000000000000000e+00,5.000000000000000000e+00,5.000000000000000000e+00,5.000000000000000000e+00,5.000000000000000000e+00,5.000000000000000000e+00,5.000000000000000000e+00,5.000000000000000000e+00,5.000000000000000000e+00,5.000000000000000000e+00,5.000000000000000000e+00,5.000000000000000000e+00,5.000000000000000000e+00,5.000000000000000000e+00,2.169481277465820312e+00,2.159886360168457031e+00,2.183895826339721680e+00,2.169971942901611328e+00,2.134332895278930664e+00,2.121647119522094727e+00,2.123392105102539062e+00,2.136601448059082031e+00,2.142248153686523438e+00,2.169762611389160156e+00,2.312327623367309570e+00,2.328163862228393555e+00,5.000000000000000000e+00,5.000000000000000000e+00,5.000000000000000000e+00,5.000000000000000000e+00,4.992747306823730469e+00,4.827511310577392578e+00,4.672836303710937500e+00,4.527765274047851562e+00,4.391430377960205078e+00,4.263065814971923828e+00,4.141992092132568359e+00,4.027606487274169922e+00,3.919368505477905273e+00,3.816795825958251953e+00,3.719455003738403320e+00,3.626961231231689453e+00,3.538971662521362305e+00,3.455150604248046875e+00,3.375208139419555664e+00,3.298881292343139648e+00,3.225930213928222656e+00,3.156136035919189453e+00,3.089297771453857422e+00,3.025231599807739258e+00,2.963768720626831055e+00,2.904753684997558594e+00,2.848042726516723633e+00,2.793503761291503906e+00,2.741014719009399414e+00,2.690461874008178711e+00
5.000000000000000000e+00,5.000000000000000000e+00,5.000000000000000000e+00,5.000000000000000000e+00,5.000000000000000000e+00,5.000000000000000000e+00,5.000000000000000000e+00,5.000000000000000000e+00,5.000000000000000000e+00,5.000000000000000000e+00,5.000000000000000000e+00,5.000000000000000000e+00,5.000000000000000000e+00,5.000000000000000000e+00,5.000000000000000000e+00,5.000000000000000000e+00,5.000000000000000000e+00,5.000000000000000000e+00,5.000000000000000000e+00,5.000000000000000000e+00,5.000000000000000000e+00,5.000000000000000000e+00,5.000000000000000000e+00,5.000000000000000000e+00,5.000000000000000000e+00,5.000000000000000000e+00,5.000000000000000000e+00,5.000000000000000000e+00,5.000000000000000000e+00,5.000000000000000000e+00,5.000000000000000000e+00,5.000000000000000000e+00,5.000000000000000000e+00,5.000000000000000000e+00,5.000000000000000000e+00,5.000000000000000000e+00,5.000000000000000000e+00,5.000000000000000000e+00,2.153554201126098633e+00,2.139076232910156250e+00,2.190371751785278320e+00,2.164706945419311523e+00,2.147861003875732422e+00,2.136146545410156250e+00,2.121122360229492188e+00,2.128423213958740234e+00,2.140331268310546875e+00,2.165119409561157227e+00,2.325304508209228516e+00,2.341533899307250977e+00,5.000000000000000000e+00,5.000000000000000000e+00,5.000000000000000000e+00,5.000000000000000000e+00,4.992776870727539062e+00,4.827511310577392578e+00,4.672835826873779297e+00,4.527764797210693359e+00,4.391429901123046875e+00,4.263065338134765625e+00,4.141992092132568359e+00,4.027606010437011719e+00,3.919376373291015625e+00,3.816828012466430664e+00,3.719508647918701172e+00,3.627029418945312500e+00,3.539036750793457031e+00,3.455212354660034180e+00,3.375267028808593750e+00,3.298937559127807617e+00,3.225984096527099609e+00,3.156187295913696289e+00,3.089347124099731445e+00,3.025279045104980469e+00,2.963814258575439453e+00,2.904797315597534180e+00,2.848084688186645508e+00,2.793544292449951172e+00,2.741053581237792969e+00,2.690499305725097656e+00
5.000000000000000000e+00,5.000000000000000000e+00,5.000000000000000000e+00,5.000000000000000000e+00,5.000000000000000000e+00,5.000000000000000000e+00,5.000000000000000000e+00,5.000000000000000000e+00,5.000000000000000000e+00,5.000000000000000000e+00,5.000000000000000000e+00,5.000000000000000000e+00,5.000000000000000000e+00,5.000000000000000000e+00,5.000000000000000000e+00,5.000000000000000000e+00,5.000000000000000000e+00,5.000000000000000000e+00,5.000000000000000000e+00,5.000000000000000000e+00,5.000000000000000000e+00,5.000000000000000000e+00,5.000000000000000000e+00,5.000000000000000000e+00,5.000000000000000000e+00,5.000000000000000000e+00,5.000000000000000000e+00,5.000000000000000000e+00,5.000000000000000000e+00,5.000000000000000000e+00,5.000000000000000000e+00,5.000000000000000000e+00,5.000000000000000000e+00,5.000000000000000000e+00,5.000000000000000000e+00,5.000000000000000000e+00,5.000000000000000000e+00,5.000000000000000000e+00,2.123480558395385742e+00,2.104623794555664062e+00,2.140303134918212891e+00,2.158410787582397461e+00,2.141812086105346680e+00,2.133785247802734375e+00,2.133226633071899414e+00,2.141277790069580078e+00,2.154374122619628906e+00,2.193206787109375000e+00,2.325853347778320312e+00,2.332833766937255859e+00,5.000000000000000000e+00,5.000000000000000000e+00,5.000000000000000000e+00,5.000000000000000000e+00,4.992775917053222656e+00,4.827510356903076172e+00,4.672835350036621094e+00,4.527764320373535156e+00,4.391429424285888672e+00,4.263077259063720703e+00,4.142032146453857422e+00,4.027671337127685547e+00,3.919456005096435547e+00,3.816903352737426758e+00,3.719580411911010742e+00,3.627097368240356445e+00,3.539101600646972656e+00,3.455274343490600586e+00,3.375326156616210938e+00,3.298994064331054688e+00,3.226037979125976562e+00,3.156239032745361328e+00,3.089396476745605469e+00,3.025326490402221680e+00,2.963859796524047852e+00,2.904841184616088867e+00,2.848126888275146484e+00,2.793584823608398438e+00,2.741092681884765625e+00,2.690536737442016602e+00
5.000000000000000000e+00,5.000000000000000000e+00,5.000000000000000000e+00,5.000000000000000000e+00,5.000000000000000000e+00,5.000000000000000000e+00,5.000000000000000000e+00,5.000000000000000000e+00,5.000000000000000000e+00,5.000000000000000000e+00,5.000000000000000000e+00,5.000000000000000000e+00,5.000000000000000000e+00,5.000000000000000000e+00,5.000000000000000000e+00,5.000000000000000000e+00,5.000000000000000000e+00,5.000000000000000000e+00,5.000000000000000000e+00,5.000000000000000000e+00,5.000000000000000000e+00,5.000000000000000000e+00,5.000000000000000000e+00,5.000000000000000000e+00,5.000000000000000000e+00,5.000000000000000000e+00,5.000000000000000000e+00,5.000000000000000000e+00,5.000000000000000000e+00,5.000000000000000000e+00,5.000000000000000000e+00,5.000000000000000000e+00,5.000000000000000000e+00,5.000000000000000000e+00,5.000000000000000000e+00,5.000000000000000000e+00,5.000000000000000000e+00,5.000000000000000000e+00,2.101594686508178711e+00,2.074873685836791992e+00,2.112385511398315430e+00,2.156073808670043945e+00,2.144100427627563477e+00,2.138607025146484375e+00,2.141166448593139648e+00,2.152568578720092773e+00,2.172451019287109375e+00,2.212442636489868164e+00,2.319099664688110352e+00,2.323440551757812500e+00,5.000000000000000000e+00,5.000000000000000000e+00,5.000000000000000000e+00,5.000000000000000000e+00,4.992775440216064453e+00,4.827510356903076172e+00,4.672852516174316406e+00,4.527814865112304688e+00,4.391509532928466797e+00,4.263171672821044922e+00,4.142121315002441406e+00,4.027755260467529297e+00,3.919535636901855469e+00,3.816978931427001953e+00,3.719652175903320312e+00,3.627165555953979492e+00,3.539166688919067383e+00,3.455336332321166992e+00,3.375385284423828125e+00,3.299050569534301758e+00,3.226092100143432617e+00,3.156290769577026367e+00,3.089445829391479492e+00,3.025373935699462891e+00,2.963905334472656250e+00,2.904884815216064453e+00,2.848168849945068359e+00,2.793625354766845703e+00,2.741131544113159180e+00,2.690574169158935547e+00
5.000000000000000000e+00,5.000000000000000000e+00,5.000000000000000000e+00,5.000000000000000000e+00,5.000000000000000000e+00,5.000000000000000000e+00,5.000000000000000000e+00,5.000000000000000000e+00,5.000000000000000000e+00,5.000000000000000000e+00,5.000000000000000000e+00,5.000000000000000000e+00,5.000000000000000000e+00,5.000000000000000000e+00,5.000000000000000000e+00,5.000000000000000000e+00,5.000000000000000000e+00,5.000000000000000000e+00,5.000000000000000000e+00,5.000000000000000000e+00,5.000000000000000000e+00,5.000000000000000000e+00,5.000000000000000000e+00,5.000000000000000000e+00,5.000000000000000000e+00,5.000000000000000000e+00,5.000000000000000000e+00,5.000000000000000000e+00,5.000000000000000000e+00,5.000000000000000000e+00,5.000000000000000000e+00,5.000000000000000000e+00,5.000000000000000000e+00,5.000000000000000000e+00,5.000000000000000000e+00,5.000000000000000000e+00,5.000000000000000000e+00,5.000000000000000000e+00,2.082595586776733398e+00,2.045779228210449219e+00,2.079428911209106445e+00,2.156903982162475586e+00,2.147063970565795898e+00,2.159991979598999023e+00,2.164477825164794922e+00,2.178101301193237305e+00,2.160928964614868164e+00,2.154228925704956055e+00,2.316670179367065430e+00,2.317088127136230469e+00,5.000000000000000000e+00,5.000000000000000000e+00,5.000000000000000000e+00,5.000000000000000000e+00,4.992840290069580078e+00,4.827610015869140625e+00,4.672966003417968750e+00,4.527921199798583984e+00,4.391609668731689453e+00,4.263265609741210938e+00,4.142210006713867188e+00,4.027839660644531250e+00,3.919615268707275391e+00,3.817054510116577148e+00,3.719723939895629883e+00,3.627233743667602539e+00,3.539231300354003906e+00,3.455398082733154297e+00,3.375444412231445312e+00,3.299107074737548828e+00,3.226145982742309570e+00,3.156342267990112305e+00,3.089495420455932617e+00,3.025421142578125000e+00,2.963950872421264648e+00,2.904928684234619141e+00,2.848211050033569336e+00,2.793665647506713867e+00,2.741170406341552734e+00,2.690611839294433594e+00
5.000000000000000000e+00,5.000000000000000000e+00,5.000000000000000000e+00,5.000000000000000000e+00,5.000000000000000000e+00,5.000000000000000000e+00,5.000000000000000000e+00,5.000000000000000000e+00,5.000000000000000000e+00,5.000000000000000000e+00,5.000000000000000000e+00,5.000000000000000000e+00,5.000000000000000000e+00,5.000000000000000000e+00,5.000000000000000000e+00,5.000000000000000000e+00,5.000000000000000000e+00,5.000000000000000000e+00,5.000000000000000000e+00,5.000000000000000000e+00,5.000000000000000000e+00,5.000000000000000000e+00,5.000000000000000000e+00,5.000000000000000000e+00,5.000000000000000000e+00,5.000000000000000000e+00,5.000000000000000000e+00,5.000000000000000000e+00,5.000000000000000000e+00,5.000000000000000000e+00,5.000000000000000000e+00,5.000000000000000000e+00,5.000000000000000000e+00,5.000000000000000000e+00,5.000000000000000000e+00,5.000000000000000000e+00,5.000000000000000000e+00,5.000000000000000000e+00,2.075880289077758789e+00,2.034320116043090820e+00,2.197380304336547852e+00,2.159726142883300781e+00,2.151678085327148438e+00,2.168276786804199219e+00,2.197845220565795898e+00,2.135854482650756836e+00,2.110450267791748047e+00,2.099997282028198242e+00,2.139942407608032227e+00,2.305191755294799805e+00,5.000000000000000000e+00,5.000000000000000000e+00,5.000000000000000000e+00,5.000000000000000000e+00,4.992969989776611328e+00,4.827731132507324219e+00,4.673079013824462891e+00,4.528027534484863281e+00,4.391709804534912109e+00,4.263360023498535156e+00,4.142299175262451172e+00,4.027923583984375000e+00,3.919695138931274414e+00,3.817130088806152344e+00,3.719795703887939453e+00,3.627301931381225586e+00,3.539296150207519531e+00,3.455460071563720703e+00,3.375503540039062500e+00,3.299163341522216797e+00,3.226200103759765625e+00,3.156394004821777344e+00,3.089544773101806641e+00,3.025468587875366211e+00,2.963996410369873047e+00,2.904972314834594727e+00,2.848253011703491211e+00,2.793706178665161133e+00,2.741209506988525391e+00,2.690649271011352539e+00
5.000000000000000000e+00,5.000000000000000000e+00,5.000000000000000000e+00,5.000000000000000000e+00,5.000000000000000000e+00,5.000000000000000000e+00,5.000000000000000000e+00,5.000000000000000000e+00,5.000000000000000000e+00,5.000000000000000000e+00,5.000000000000000000e+00,5.000000000000000000e+00,5.000000000000000000e+00,5.000000000000000000e+00,5.000000000000000000e+00,5.000000000000000000e+00,5.000000000000000000e+00,5.000000000000000000e+00,5.000000000000000000e+00,5.000000000000000000e+00,5.000000000000000000e+00,5.000000000000000000e+00,5.000000000000000000e+00,5.000000000000000000e+00,5.000000000000000000e+00,5.000000000000000000e+00,5.000000000000000000e+00,5.000000000000000000e+00,5.000000000000000000e+00,5.000000000000000000e+00,5.000000000000000000e+00,5.000000000000000000e+00,5.000000000000000000e+00,5.000000000000000000e+00,5.000000000000000000e+00,5.000000000000000000e+00,5.000000000000000000e+00,5.000000000000000000e+00,5.000000000000000000e+00,1.991937160491943359e+00,1.997886538505554199e+00,2.160140037536621094e+00,2.154927253723144531e+00,2.167392253875732422e+00,2.190948247909545898e+00,2.118787288665771484e+00,2.094009399414062500e+00,2.077788829803466797e+00,2.108406305313110352e+00,2.293185710906982422e+00,5.000000000000000000e+00,5.000000000000000000e+00,5.000000000000000000e+00,5.000000000000000000e+00,4.993099212646484375e+00,4.827851772308349609e+00,4.673192024230957031e+00,4.528133869171142578e+00,4.391809463500976562e+00,4.263453960418701172e+00,4.142387866973876953e+00,4.028007984161376953e+00,3.919774770736694336e+00,3.817205667495727539e+00,3.719867467880249023e+00,3.627370119094848633e+00,3.539361000061035156e+00,3.455521583557128906e+00,3.375562429428100586e+00,3.299219846725463867e+00,3.226253986358642578e+00,3.156445741653442383e+00,3.089594364166259766e+00,3.025516033172607422e+00,2.964041709899902344e+00,2.905016183853149414e+00,2.848295211791992188e+00,2.793746709823608398e+00,2.741248369216918945e+00,2.690686702728271484e+00
5.000000000000000000e+00,5.000000000000000000e+00,5.000000000000000000e+00,5.000000000000000000e+00,5.000000000000000000e+00,5.000000000000000000e+00,5.000000000000000000e+00,5.000000000000000000e+00,5.000000000000000000e+00,5.000000000000000000e+00,5.000000000000000000e+00,5.000000000000000000e+00,5.000000000000000000e+00,5.000000000000000000e+00,5.000000000000000000e+00,5.000000000000000000e+00,5.000000000000000000e+00,5.000000000000000000e+00,5.000000000000000000e+00,5.000000000000000000e+00,5.000000000000000000e+00,5.000000000000000000e+00,5.000000000000000000e+00,5.000000000000000000e+00,5.000000000000000000e+00,5.000000000000000000e+00,5.000000000000000000e+00,5.000000000000000000e+00,5.000000000000000000e+00,5.000000000000000000e+00,5.000000000000000000e+00,5.000000000000000000e+00,5.000000000000000000e+00,5.000000000000000000e+00,5.000000000000000000e+00,5.000000000000000000e+00,5.000000000000000000e+00,5.000000000000000000e+00,5.000000000000000000e+00,1.980742692947387695e+00,2.203732013702392578e+00,2.167369127273559570e+00,2.159129142761230469e+00,2.168165683746337891e+00,2.218759775161743164e+00,2.119250059127807617e+00,2.080104351043701172e+00,2.065030097961425781e+00,2.080184698104858398e+00,2.303006887435913086e+00,5.000000000000000000e+00,5.000000000000000000e+00,5.000000000000000000e+00,5.000000000000000000e+00,4.993228435516357422e+00,4.827972888946533203e+00,4.673305034637451172e+00,4.528240203857421875e+00,4.391909599304199219e+00,4.263548374176025391e+00,4.142477035522460938e+00,4.028091907501220703e+00,3.919854402542114258e+00,3.817281246185302734e+00,3.719939231872558594e+00,3.627438306808471680e+00,3.539426088333129883e+00,3.455583572387695312e+00,3.375621557235717773e+00,3.299276351928710938e+00,3.226307868957519531e+00,3.156497240066528320e+00,3.089643955230712891e+00,3.025563716888427734e+00,2.964087247848510742e+00,2.905059576034545898e+00,2.848337173461914062e+00,2.793787240982055664e+00,2.741287469863891602e+00,2.690724372863769531e+00
5.000000000000000000e+00,5.000000000000000000e+00,5.000000000000000000e+00,5.000000000000000000e+00,5.000000000000000000e+00,5.000000000000000000e+00,5.000000000000000000e+00,5.000000000000000000e+00,5.000000000000000000e+00,5.000000000000000000e+00,5.000000000000000000e+00,5.000000000000000000e+00,5.000000000000000000e+00,5.000000000000000000e+00,5.000000000000000000e+00,5.000000000000000000e+00,5.000000000000000000e+00,5.000000000000000000e+00,5.000000000000000000e+00,5.000000000000000000e+00,5.000000000000000000e+00,5.000000000000000000e+00,5.000000000000000000e+00,5.000000000000000000e+00,5.000000000000000000e+00,5.000000000000000000e+00,5.000000000000000000e+00,5.000000000000000000e+00,5.000000000000000000e+00,5.000000000000000000e+00,5.000000000000000000e+00,5.000000000000000000e+00,5.000000000000000000e+00,5.000000000000000000e+00,5.000000000000000000e+00,5.000000000000000000e+00,5.000000000000000000e+00,5.000000000000000000e+00,2.024264097213745117e+00,1.951565027236938477e+00,1.927944183349609375e+00,2.177227020263671875e+00,2.168136119842529297e+00,2.176376581192016602e+00,5.000000000000000000e+00,2.118764400482177734e+00,2.063534259796142578e+00,2.050391912460327148e+00,2.054582118988037109e+00,2.279952287673950195e+00,5.000000000000000000e+00,5.000000000000000000e+00,5.000000000000000000e+00,5.000000000000000000e+00,4.993357181549072266e+00,4.828093528747558594e+00,4.673418521881103516e+00,4.528346538543701172e+00,4.392009735107421875e+00,4.263642787933349609e+00,4.142565727233886719e+00,4.028175830841064453e+00,3.919934034347534180e+00,3.817356824874877930e+00,3.720010995864868164e+00,3.627506732940673828e+00,3.539490938186645508e+00,3.455645561218261719e+00,3.375680446624755859e+00,3.299332857131958008e+00,3.226361989974975586e+00,3.156548976898193359e+00,3.089693307876586914e+00,3.025611162185668945e+00,2.964132785797119141e+00,2.905103445053100586e+00,2.848379373550415039e+00,2.793827533721923828e+00,2.741326332092285156e+00,2.690761804580688477e+00
5.000000000000000000e+00,5.000000000000000000e+00,5.000000000000000000e+00,5.000000000000000000e+00,5.000000000000000000e+00,5.000000000000000000e+00,5.000000000000000000e+00,5.000000000000000000e+00,5.000000000000000000e+00,5.000000000000000000e+00,5.000000000000000000e+00,5.000000000000000000e+00,5.000000000000000000e+00,5.000000000000000000e+00,5.000000000000000000e+00,5.000000000000000000e+00,5.000000000000000000e+00,5.000000000000000000e+00,5.000000000000000000e+00,5.000000000000000000e+00,5.000000000000000000e+00,5.000000000000000000e+00,5.000000000000000000e+00,5.000000000000000000e+00,5.000000000000000000e+00,5.000000000000000000e+00,5.000000000000000000e+00,5.000000000000000000e+00,5.000000000000000000e+00,5.000000000000000000e+00,5.000000000000000000e+00,5.000000000000000000e+00,5.000000000000000000e+00,5.000000000000000000e+00,5.000000000000000000e+00,5.000000000000000000e+00,5.000000000000000000e+00,5.000000000000000000e+00,5.000000000000000000e+00,5.000000000000000000e+00,2.234483242034912109e+00,2.189263820648193359e+00,2.179934501647949219e+00,2.190912246704101562e+00,5.000000000000000000e+00,2.118278741836547852e+00,2.049446344375610352e+00,2.035572767257690430e+00,2.023410797119140625e+00,2.067375659942626953e+00,5.000000000000000000e+00,5.000000000000000000e+00,5.000000000000000000e+00,5.000000000000000000e+00,4.993491649627685547e+00,4.828217506408691406e+00,4.673533916473388672e+00,4.528453826904296875e+00,4.392109870910644531e+00,4.263736724853515625e+00,4.142654895782470703e+00,4.028260231018066406e+00,3.920013189315795898e+00,3.817432403564453125e+00,3.720082759857177734e+00,3.627574920654296875e+00,3.539556026458740234e+00,3.455707311630249023e+00,3.375739574432373047e+00,3.299388885498046875e+00,3.226415872573852539e+00,3.156600713729858398e+00,3.089742898941040039e+00,3.025658607482910156e+00,2.964178323745727539e+00,2.905147314071655273e+00,2.848421096801757812e+00,2.793868064880371094e+00,2.741365432739257812e+00,2.690799474716186523e+00
5.000000000000000000e+00,5.000000000000000000e+00,5.000000000000000000e+00,5.000000000000000000e+00,5.000000000000000000e+00,5.000000000000000000e+00,5.000000000000000000e+00,5.000000000000000000e+00,5.000000000000000000e+00,5.000000000000000000e+00,5.000000000000000000e+00,5.000000000000000000e+00,5.000000000000000000e+00,5.000000000000000000e+00,5.000000000000000000e+00,5.000000000000000000e+00,5.000000000000000000e+00,5.000000000000000000e+00,5.000000000000000000e+00,5.000000000000000000e+00,5.000000000000000000e+00,5.000000000000000000e+00,5.000000000000000000e+00,5.000000000000000000e+00,5.000000000000000000e+00,5.000000000000000000e+00,5.000000000000000000e+00,5.000000000000000000e+00,5.000000000000000000e+00,5.000000000000000000e+00,5.000000000000000000e+00,5.000000000000000000e+00,5.000000000000000000e+00,5.000000000000000000e+00,5.000000000000000000e+00,5.000000000000000000e+00,5.000000000000000000e+00,5.000000000000000000e+00,5.000000000000000000e+00,5.000000000000000000e+00,2.260134458541870117e+00,2.202600002288818359e+00,2.191861867904663086e+00,2.206301927566528320e+00,5.000000000000000000e+00,2.146891832351684570e+00,2.045916557312011719e+00,2.018197774887084961e+00,2.009278535842895508e+00,2.036460399627685547e+00,5.000000000000000000e+00,5.000000000000000000e+00,5.000000000000000000e+00,5.000000000000000000e+00,4.993628978729248047e+00,4.828346252441406250e+00,4.673654556274414062e+00,4.528567314147949219e+00,4.392216205596923828e+00,4.263836860656738281e+00,4.142748355865478516e+00,4.028347969055175781e+00,3.920096158981323242e+00,3.817509651184082031e+00,3.720155715942382812e+00,3.627643823623657227e+00,3.539621353149414062e+00,3.455769300460815430e+00,3.375798463821411133e+00,3.299445390701293945e+00,3.226469993591308594e+00,3.156652450561523438e+00,3.089792490005493164e+00,3.025706052780151367e+00,2.964223861694335938e+00,2.905190944671630859e+00,2.848463058471679688e+00,2.793908596038818359e+00,2.741404294967651367e+00,2.690836906433105469e+00
5.000000000000000000e+00,5.000000000000000000e+00,5.000000000000000000e+00,5.000000000000000000e+00,5.000000000000000000e+00,5.000000000000000000e+00,5.000000000000000000e+00,5.000000000000000000e+00,5.000000000000000000e+00,5.000000000000000000e+00,5.000000000000000000e+00,5.000000000000000000e+00,5.000000000000000000e+00,5.000000000000000000e+00,5.000000000000000000e+00,5.000000000000000000e+00,5.000000000000000000e+00,5.000000000000000000e+00,5.000000000000000000e+00,5.000000000000000000e+00,5.000000000000000000e+00,5.000000000000000000e+00,5.000000000000000000e+00,5.000000000000000000e+00,5.000000000000000000e+00,5.000000000000000000e+00,5.000000000000000000e+00,5.000000000000000000e+00,5.000000000000000000e+00,5.000000000000000000e+00,5.000000000000000000e+00,5.000000000000000000e+00,5.000000000000000000e+00,5.000000000000000000e+00,5.000000000000000000e+00,5.000000000000000000e+00,5.000000000000000000e+00,5.000000000000000000e+00,5.000000000000000000e+00,5.000000000000000000e+00,2.310403585433959961e+00,2.216099739074707031e+00,2.204437494277954102e+00,2.219257354736328125e+00,5.000000000000000000e+00,5.000000000000000000e+00,2.042398691177368164e+00,1.998638153076171875e+00,1.991371989250183105e+00,2.006264209747314453e+00,2.283670902252197266e+00,5.000000000000000000e+00,5.000000000000000000e+00,5.000000000000000000e+00,4.993766784667968750e+00,4.828474998474121094e+00,4.673775196075439453e+00,4.528680324554443359e+00,4.392323017120361328e+00,4.263936996459960938e+00,4.142843246459960938e+00,4.028437614440917969e+00,3.920181035995483398e+00,3.817590475082397461e+00,3.720232486724853516e+00,3.627716541290283203e+00,3.539690494537353516e+00,3.455835103988647461e+00,3.375860691070556641e+00,3.299504280090332031e+00,3.226525783538818359e+00,3.156705379486083984e+00,3.089842796325683594e+00,3.025753974914550781e+00,2.964269876480102539e+00,2.905234813690185547e+00,2.848505258560180664e+00,2.793948888778686523e+00,2.741443395614624023e+00,2.690874576568603516e+00
5.000000000000000000e+00,5.000000000000000000e+00,5.000000000000000000e+00,5.000000000000000000e+00,5.000000000000000000e+00,5.000000000000000000e+00,5.000000000000000000e+00,5.000000000000000000e+00,5.000000000000000000e+00,5.000000000000000000e+00,5.000000000000000000e+00,5.000000000000000000e+00,5.000000000000000000e+00,5.000000000000000000e+00,5.000000000000000000e+00,5.000000000000000000e+00,5.000000000000000000e+00,5.000000000000000000e+00,5.000000000000000000e+00,5.000000000000000000e+00,5.000000000000000000e+00,5.000000000000000000e+00,5.000000000000000000e+00,5.000000000000000000e+00,5.000000000000000000e+00,5.000000000000000000e+00,5.000000000000000000e+00,5.000000000000000000e+00,5.000000000000000000e+00,5.000000000000000000e+00,5.000000000000000000e+00,5.000000000000000000e+00,5.000000000000000000e+00,5.000000000000000000e+00,5.000000000000000000e+00,5.000000000000000000e+00,5.000000000000000000e+00,5.000000000000000000e+00,5.000000000000000000e+00,5.000000000000000000e+00,5.000000000000000000e+00,2.226754665374755859e+00,2.214660406112670898e+00,2.232535600662231445e+00,5.000000000000000000e+00,5.000000000000000000e+00,2.038535833358764648e+00,1.991260409355163574e+00,1.979454278945922852e+00,1.979803919792175293e+00,5.000000000000000000e+00,5.000000000000000000e+00,5.000000000000000000e+00,5.000000000000000000e+00,4.993904113769531250e+00,4.828603744506835938e+00,4.673895835876464844e+00,4.528793811798095703e+00,4.392429351806640625e+00,4.264037609100341797e+00,4.142937660217285156e+00,4.028527259826660156e+00,3.920265674591064453e+00,3.817670822143554688e+00,3.720308780670166016e+00,3.627789497375488281e+00,3.539759397506713867e+00,3.455901145935058594e+00,3.375923871994018555e+00,3.299564838409423828e+00,3.226583242416381836e+00,3.156760454177856445e+00,3.089895725250244141e+00,3.025804519653320312e+00,2.964318275451660156e+00,2.905281305313110352e+00,2.848549604415893555e+00,2.793991088867187500e+00,2.741483688354492188e+00,2.690913200378417969e+00
5.000000000000000000e+00,5.000000000000000000e+00,5.000000000000000000e+00,5.000000000000000000e+00,5.000000000000000000e+00,5.000000000000000000e+00,5.000000000000000000e+00,5.000000000000000000e+00,5.000000000000000000e+00,5.000000000000000000e+00,5.000000000000000000e+00,5.000000000000000000e+00,5.000000000000000000e+00,5.000000000000000000e+00,5.000000000000000000e+00,5.000000000000000000e+00,5.000000000000000000e+00,5.000000000000000000e+00,5.000000000000000000e+00,5.000000000000000000e+00,5.000000000000000000e+00,5.000000000000000000e+00,5.000000000000000000e+00,5.000000000000000000e+00,5.000000000000000000e+00,5.000000000000000000e+00,5.000000000000000000e+00,5.000000000000000000e+00,5.000000000000000000e+00,5.000000000000000000e+00,5.000000000000000000e+00,5.000000000000000000e+00,5.000000000000000000e+00,5.000000000000000000e+00,5.000000000000000000e+00,5.000000000000000000e+00,5.000000000000000000e+00,5.000000000000000000e+00,5.000000000000000000e+00,5.000000000000000000e+00,5.000000000000000000e+00,2.242233037948608398e+00,2.223988533020019531e+00,2.244795322418212891e+00,5.000000000000000000e+00,5.000000000000000000e+00,2.037403106689453125e+00,1.994955420494079590e+00,1.981769919395446777e+00,1.982605457305908203e+00,5.000000000000000000e+00,5.000000000000000000e+00,5.000000000000000000e+00,5.000000000000000000e+00,4.994041919708251953e+00,4.828732967376708984e+00,4.674016475677490234e+00,4.528907299041748047e+00,4.392536163330078125e+00,4.264137744903564453e+00,4.143032550811767578e+00,4.028616905212402344e+00,3.920350790023803711e+00,3.817751169204711914e+00,3.720385074615478516e+00,3.627861976623535156e+00,3.539829015731811523e+00,3.455966949462890625e+00,3.375986814498901367e+00,3.299624681472778320e+00,3.226640939712524414e+00,3.156815290451049805e+00,3.089948415756225586e+00,3.025855302810668945e+00,2.964366674423217773e+00,2.905327796936035156e+00,2.848594427108764648e+00,2.794034481048583984e+00,2.741524934768676758e+00,2.690953016281127930e+00
5.000000000000000000e+00,5.000000000000000000e+00,5.000000000000000000e+00,5.000000000000000000e+00,5.000000000000000000e+00,5.000000000000000000e+00,5.000000000000000000e+00,5.000000000000000000e+00,5.000000000000000000e+00,5.000000000000000000e+00,5.000000000000000000e+00,5.000000000000000000e+00,5.000000000000000000e+00,5.000000000000000000e+00,5.000000000000000000e+00,5.000000000000000000e+00,5.000000000000000000e+00,5.000000000000000000e+00,5.000000000000000000e+00,5.000000000000000000e+00,5.000000000000000000e+00,5.000000000000000000e+00,5.000000000000000000e+00,5.000000000000000000e+00,5.000000000000000000e+00,5.000000000000000000e+00,5.000000000000000000e+00,5.000000000000000000e+00,5.000000000000000000e+00,5.000000000000000000e+00,5.000000000000000000e+00,5.000000000000000000e+00,5.000000000000000000e+00,5.000000000000000000e+00,5.000000000000000000e+00,5.000000000000000000e+00,5.000000000000000000e+00,5.000000000000000000e+00,5.000000000000000000e+00,5.000000000000000000e+00,5.000000000000000000e+00,2.263364315032958984e+00,2.233395814895629883e+00,2.254542350769042969e+00,5.000000000000000000e+00,5.000000000000000000e+00,5.000000000000000000e+00,2.005773305892944336e+00,1.987344503402709961e+00,1.998336076736450195e+00,5.000000000000000000e+00,5.000000000000000000e+00,5.000000000000000000e+00,5.000000000000000000e+00,4.994180202484130859e+00,4.828861236572265625e+00,4.674137115478515625e+00,4.529020309448242188e+00,4.392642498016357422e+00,4.264238357543945312e+00,4.143127918243408203e+00,4.028706550598144531e+00,3.920435667037963867e+00,3.817831993103027344e+00,3.720461368560791016e+00,3.627934455871582031e+00,3.539898157119750977e+00,3.456032991409301758e+00,3.376049518585205078e+00,3.299684762954711914e+00,3.226698160171508789e+00,3.156870603561401367e+00,3.090000867843627930e+00,3.025905847549438477e+00,2.964415311813354492e+00,2.905374526977539062e+00,2.848639249801635742e+00,2.794077396392822266e+00,2.741566658020019531e+00,2.690993070602416992e+00
5.000000000000000000e+00,5.000000000000000000e+00,5.000000000000000000e+00,5.000000000000000000e+00,5.000000000000000000e+00,5.000000000000000000e+00,5.000000000000000000e+00,5.000000000000000000e+00,5.000000000000000000e+00,5.000000000000000000e+00,5.000000000000000000e+00,5.000000000000000000e+00,5.000000000000000000e+00,5.000000000000000000e+00,5.000000000000000000e+00,5.000000000000000000e+00,5.000000000000000000e+00,5.000000000000000000e+00,5.000000000000000000e+00,5.000000000000000000e+00,5.000000000000000000e+00,5.000000000000000000e+00,5.000000000000000000e+00,5.000000000000000000e+00,5.000000000000000000e+00,5.000000000000000000e+00,5.000000000000000000e+00,5.000000000000000000e+00,5.000000000000000000e+00,5.000000000000000000e+00,5.000000000000000000e+00,5.000000000000000000e+00,5.000000000000000000e+00,5.000000000000000000e+00,5.000000000000000000e+00,5.000000000000000000e+00,5.000000000000000000e+00,5.000000000000000000e+00,5.000000000000000000e+00,5.000000000000000000e+00,5.000000000000000000e+00,2.295874118804931641e+00,2.245334863662719727e+00,2.266858577728271484e+00,5.000000000000000000e+00,5.000000000000000000e+00,5.000000000000000000e+00,2.013199329376220703e+00,1.995577335357666016e+00,2.006188869476318359e+00,5.000000000000000000e+00,5.000000000000000000e+00,5.000000000000000000e+00,5.000000000000000000e+00,4.994317531585693359e+00,4.828990459442138672e+00,4.674257755279541016e+00,4.529133796691894531e+00,4.392749309539794922e+00,4.264338970184326172e+00,4.143222332000732422e+00,4.028796195983886719e+00,3.920520305633544922e+00,3.817912340164184570e+00,3.720538139343261719e+00,3.628007411956787109e+00,3.539967060089111328e+00,3.456099033355712891e+00,3.376112699508666992e+00,3.299744844436645508e+00,3.226755619049072266e+00,3.156925678253173828e+00,3.090053796768188477e+00,3.025956153869628906e+00,2.964463949203491211e+00,2.905421257019042969e+00,2.848684072494506836e+00,2.794120550155639648e+00,2.741608142852783203e+00,2.691033124923706055e+00
5.000000000000000000e+00,5.000000000000000000e+00,5.000000000000000000e+00,5.000000000000000000e+00,5.000000000000000000e+00,5.000000000000000000e+00,5.000000000000000000e+00,5.000000000000000000e+00,5.000000000000000000e+00,5.000000000000000000e+00,5.000000000000000000e+00,5.000000000000000000e+00,5.000000000000000000e+00,5.000000000000000000e+00,5.000000000000000000e+00,5.000000000000000000e+00,5.000000000000000000e+00,5.000000000000000000e+00,5.000000000000000000e+00,5.000000000000000000e+00,5.000000000000000000e+00,5.000000000000000000e+00,5.000000000000000000e+00,5.000000000000000000e+00,5.000000000000000000e+00,5.000000000000000000e+00,5.000000000000000000e+00,5.000000000000000000e+00,5.000000000000000000e+00,5.000000000000000000e+00,5.000000000000000000e+00,5.000000000000000000e+00,5.000000000000000000e+00,5.000000000000000000e+00,5.000000000000000000e+00,5.000000000000000000e+00,5.000000000000000000e+00,5.000000000000000000e+00,5.000000000000000000e+00,5.000000000000000000e+00,5.000000000000000000e+00,2.309329032897949219e+00,2.275237560272216797e+00,2.308585882186889648e+00,5.000000000000000000e+00,5.000000000000000000e+00,5.000000000000000000e+00,2.020847320556640625e+00,2.005733966827392578e+00,2.008411884307861328e+00,5.000000000000000000e+00,5.000000000000000000e+00,5.000000000000000000e+00,5.000000000000000000e+00,4.994455337524414062e+00,4.829119205474853516e+00,4.674378395080566406e+00,4.529246807098388672e+00,4.392855644226074219e+00,4.264439105987548828e+00,4.143317222595214844e+00,4.028885841369628906e+00,3.920605421066284180e+00,3.817992687225341797e+00,3.720614433288574219e+00,3.628080129623413086e+00,3.540036678314208984e+00,3.456164836883544922e+00,3.376175642013549805e+00,3.299805164337158203e+00,3.226813316345214844e+00,3.156980514526367188e+00,3.090106487274169922e+00,3.026006937026977539e+00,2.964512348175048828e+00,2.905467748641967773e+00,2.848728895187377930e+00,2.794163703918457031e+00,2.741649627685546875e+00,2.691073179244995117e+00
5.000000000000000000e+00,5.000000000000000000e+00,5.000000000000000000e+00,5.000000000000000000e+00,5.000000000000000000e+00,5.000000000000000000e+00,5.000000000000000000e+00,5.000000000000000000e+00,5.000000000000000000e+00,5.000000000000000000e+00,5.000000000000000000e+00,5.000000000000000000e+00,5.000000000000000000e+00,5.000000000000000000e+00,5.000000000000000000e+00,5.000000000000000000e+00,5.000000000000000000e+00,5.000000000000000000e+00,5.000000000000000000e+00,5.000000000000000000e+00,5.000000000000000000e+00,5.000000000000000000e+00,5.000000000000000000e+00,5.000000000000000000e+00,5.000000000000000000e+00,5.000000000000000000e+00,5.000000000000000000e+00,5.000000000000000000e+00,5.000000000000000000e+00,5.000000000000000000e+00,5.000000000000000000e+00,5.000000000000000000e+00,5.000000000000000000e+00,5.000000000000000000e+00,5.000000000000000000e+00,5.000000000000000000e+00,5.000000000000000000e+00,5.000000000000000000e+00,5.000000000000000000e+00,5.000000000000000000e+00,5.000000000000000000e+00,2.335754632949829102e+00,2.315583944320678711e+00,5.000000000000000000e+00,5.000000000000000000e+00,5.000000000000000000e+00,5.000000000000000000e+00,2.020948886871337891e+00,2.001667737960815430e+00,1.996213912963867188e+00,5.000000000000000000e+00,5.000000000000000000e+00,5.000000000000000000e+00,5.000000000000000000e+00,4.994593143463134766e+00,4.829247951507568359e+00,4.674499511718750000e+00,4.529360294342041016e+00,4.392962455749511719e+00,4.264539718627929688e+00,4.143412113189697266e+00,4.028975486755371094e+00,3.920690298080444336e+00,3.818073511123657227e+00,3.720690727233886719e+00,3.628152608871459961e+00,3.540105581283569336e+00,3.456231117248535156e+00,3.376238346099853516e+00,3.299865245819091797e+00,3.226870775222778320e+00,3.157035827636718750e+00,3.090159177780151367e+00,3.026057481765747070e+00,2.964560985565185547e+00,2.905514478683471680e+00,2.848773717880249023e+00,2.794206857681274414e+00,2.741691350936889648e+00,2.691112995147705078e+00
5.000000000000000000e+00,5.000000000000000000e+00,5.000000000000000000e+00,5.000000000000000000e+00,5.000000000000000000e+00,5.000000000000000000e+00,5.000000000000000000e+00,5.000000000000000000e+00,5.000000000000000000e+00,5.000000000000000000e+00,5.000000000000000000e+00,5.000000000000000000e+00,5.000000000000000000e+00,5.000000000000000000e+00,5.000000000000000000e+00,5.000000000000000000e+00,5.000000000000000000e+00,5.000000000000000000e+00,5.000000000000000000e+00,5.000000000000000000e+00,5.000000000000000000e+00,5.000000000000000000e+00,5.000000000000000000e+00,5.000000000000000000e+00,5.000000000000000000e+00,5.000000000000000000e+00,5.000000000000000000e+00,5.000000000000000000e+00,5.000000000000000000e+00,5.000000000000000000e+00,5.000000000000000000e+00,5.000000000000000000e+00,5.000000000000000000e+00,5.000000000000000000e+00,5.000000000000000000e+00,5.000000000000000000e+00,5.000000000000000000e+00,5.000000000000000000e+00,5.000000000000000000e+00,5.000000000000000000e+00,5.000000000000000000e+00,2.361686468124389648e+00,2.355111122131347656e+00,5.000000000000000000e+00,5.000000000000000000e+00,5.000000000000000000e+00,5.000000000000000000e+00,2.021210432052612305e+00,1.997199058532714844e+00,1.984150409698486328e+00,5.000000000000000000e+00,5.000000000000000000e+00,5.000000000000000000e+00,5.000000000000000000e+00,4.994730949401855469e+00,4.829376697540283203e+00,4.674619674682617188e+00,4.529473781585693359e+00,4.393068790435791016e+00,4.264640331268310547e+00,4.143507003784179688e+00,4.029065132141113281e+00,3.920774936676025391e+00,3.818153858184814453e+00,3.720767498016357422e+00,3.628225564956665039e+00,3.540174722671508789e+00,3.456296920776367188e+00,3.376301527023315430e+00,3.299925327301025391e+00,3.226928234100341797e+00,3.157090663909912109e+00,3.090212106704711914e+00,3.026108026504516602e+00,2.964609384536743164e+00,2.905560970306396484e+00,2.848818540573120117e+00,2.794250011444091797e+00,2.741732597351074219e+00,2.691153049468994141e+00
5.000000000000000000e+00,5.000000000000000000e+00,5.000000000000000000e+00,5.000000000000000000e+00,5.000000000000000000e+00,5.000000000000000000e+00,5.000000000000000000e+00,5.000000000000000000e+00,5.000000000000000000e+00,5.000000000000000000e+00,5.000000000000000000e+00,5.000000000000000000e+00,5.000000000000000000e+00,5.000000000000000000e+00,5.000000000000000000e+00,5.000000000000000000e+00,5.000000000000000000e+00,5.000000000000000000e+00,5.000000000000000000e+00,5.000000000000000000e+00,5.000000000000000000e+00,5.000000000000000000e+00,5.000000000000000000e+00,5.000000000000000000e+00,5.000000000000000000e+00,5.000000000000000000e+00,5.000000000000000000e+00,5.000000000000000000e+00,5.000000000000000000e+00,5.000000000000000000e+00,5.000000000000000000e+00,5.000000000000000000e+00,5.000000000000000000e+00,5.000000000000000000e+00,5.000000000000000000e+00,5.000000000000000000e+00,5.000000000000000000e+00,5.000000000000000000e+00,5.000000000000000000e+00,5.000000000000000000e+00,5.000000000000000000e+00,2.380771636962890625e+00,2.374549150466918945e+00,5.000000000000000000e+00,5.000000000000000000e+00,5.000000000000000000e+00,5.000000000000000000e+00,2.021472215652465820e+00,1.991922616958618164e+00,1.978874921798706055e+00,5.000000000000000000e+00,5.000000000000000000e+00,5.000000000000000000e+00,5.000000000000000000e+00,4.994868755340576172e+00,4.829505443572998047e+00,4.674740791320800781e+00,4.529586791992187500e+00,4.393175601959228516e+00,4.264740467071533203e+00,4.143601894378662109e+00,4.029154777526855469e+00,3.920860290527343750e+00,3.818234205245971680e+00,3.720843791961669922e+00,3.628298282623291016e+00,3.540244340896606445e+00,3.456362724304199219e+00,3.376364469528198242e+00,3.299985647201538086e+00,3.226985692977905273e+00,3.157145738601684570e+00,3.090264797210693359e+00,3.026158809661865234e+00,2.964658021926879883e+00,2.905607461929321289e+00,2.848863363265991211e+00,2.794293165206909180e+00,2.741774082183837891e+00,2.691193103790283203e+00
5.000000000000000000e+00,5.000000000000000000e+00,5.000000000000000000e+00,5.000000000000000000e+00,5.000000000000000000e+00,5.000000000000000000e+00,5.000000000000000000e+00,5.000000000000000000e+00,5.000000000000000000e+00,5.000000000000000000e+00,5.000000000000000000e+00,5.000000000000000000e+00,5.000000000000000000e+00,5.000000000000000000e+00,5.000000000000000000e+00,5.000000000000000000e+00,5.000000000000000000e+00,5.000000000000000000e+00,5.000000000000000000e+00,5.000000000000000000e+00,5.000000000000000000e+00,5.000000000000000000e+00,5.000000000000000000e+00,5.000000000000000000e+00,5.000000000000000000e+00,5.000000000000000000e+00,5.000000000000000000e+00,5.000000000000000000e+00,5.000000000000000000e+00,5.000000000000000000e+00,5.000000000000000000e+00,5.000000000000000000e+00,5.000000000000000000e+00,5.000000000000000000e+00,5.000000000000000000e+00,5.000000000000000000e+00,5.000000000000000000e+00,5.000000000000000000e+00,5.000000000000000000e+00,5.000000000000000000e+00,5.000000000000000000e+00,2.402657032012939453e+00,2.394159078598022461e+00,5.000000000000000000e+00,5.000000000000000000e+00,5.000000000000000000e+00,5.000000000000000000e+00,2.022626399993896484e+00,1.987022519111633301e+00,1.974412441253662109e+00,5.000000000000000000e+00,5.000000000000000000e+00,5.000000000000000000e+00,5.000000000000000000e+00,4.995006561279296875e+00,4.829634189605712891e+00,4.674861431121826172e+00,4.529700279235839844e+00,4.393282413482666016e+00,4.264841079711914062e+00,4.143696308135986328e+00,4.029244422912597656e+00,3.920944929122924805e+00,3.818315029144287109e+00,3.720920085906982422e+00,3.628370761871337891e+00,3.540313243865966797e+00,3.456429004669189453e+00,3.376427412033081055e+00,3.300045728683471680e+00,3.227043390274047852e+00,3.157200813293457031e+00,3.090317487716674805e+00,3.026209115982055664e+00,2.964706659317016602e+00,2.905654191970825195e+00,2.848908185958862305e+00,2.794336318969726562e+00,2.741815805435180664e+00,2.691232919692993164e+00
5.000000000000000000e+00,5.000000000000000000e+00,5.000000000000000000e+00,5.000000000000000000e+00,5.000000000000000000e+00,5.000000000000000000e+00,5.000000000000000000e+00,5.000000000000000000e+00,5.000000000000000000e+00,5.000000000000000000e+00,5.000000000000000000e+00,5.000000000000000000e+00,5.000000000000000000e+00,5.000000000000000000e+00,5.000000000000000000e+00,5.000000000000000000e+00,5.000000000000000000e+00,5.000000000000000000e+00,5.000000000000000000e+00,5.000000000000000000e+00,5.000000000000000000e+00,5.000000000000000000e+00,5.000000000000000000e+00,5.000000000000000000e+00,5.000000000000000000e+00,5.000000000000000000e+00,5.000000000000000000e+00,5.000000000000000000e+00,5.000000000000000000e+00,5.000000000000000000e+00,5.000000000000000000e+00,5.000000000000000000e+00,5.000000000000000000e+00,5.000000000000000000e+00,5.000000000000000000e+00,5.000000000000000000e+00,5.000000000000000000e+00,5.000000000000000000e+00,5.000000000000000000e+00,5.000000000000000000e+00,5.000000000000000000e+00,2.427335500717163086e+00,2.413586378097534180e+00,5.000000000000000000e+00,5.000000000000000000e+00,5.000000000000000000e+00,5.000000000000000000e+00,2.026995658874511719e+00,1.982865095138549805e+00,1.970307588577270508e+00,5.000000000000000000e+00,5.000000000000000000e+00,5.000000000000000000e+00,5.000000000000000000e+00,4.995144367218017578e+00,4.829763412475585938e+00,4.674982070922851562e+00,4.529813766479492188e+00,4.393388748168945312e+00,4.264941692352294922e+00,4.143791198730468750e+00,4.029334068298339844e+00,3.921029806137084961e+00,3.818395376205444336e+00,3.720996856689453125e+00,3.628443241119384766e+00,3.540382385253906250e+00,3.456494808197021484e+00,3.376490592956542969e+00,3.300105810165405273e+00,3.227100849151611328e+00,3.157255887985229492e+00,3.090370416641235352e+00,3.026259660720825195e+00,2.964755058288574219e+00,2.905700922012329102e+00,2.848953247070312500e+00,2.794379234313964844e+00,2.741857290267944336e+00,2.691273212432861328e+00
5.000000000000000000e+00,5.000000000000000000e+00,5.000000000000000000e+00,5.000000000000000000e+00,5.000000000000000000e+00,5.000000000000000000e+00,5.000000000000000000e+00,5.000000000000000000e+00,5.000000000000000000e+00,5.000000000000000000e+00,5.000000000000000000e+00,5.000000000000000000e+00,5.000000000000000000e+00,5.000000000000000000e+00,5.000000000000000000e+00,5.000000000000000000e+00,5.000000000000000000e+00,5.000000000000000000e+00,5.000000000000000000e+00,5.000000000000000000e+00,5.000000000000000000e+00,5.000000000000000000e+00,5.000000000000000000e+00,5.000000000000000000e+00,5.000000000000000000e+00,5.000000000000000000e+00,5.000000000000000000e+00,5.000000000000000000e+00,5.000000000000000000e+00,5.000000000000000000e+00,5.000000000000000000e+00,5.000000000000000000e+00,5.000000000000000000e+00,5.000000000000000000e+00,5.000000000000000000e+00,5.000000000000000000e+00,5.000000000000000000e+00,5.000000000000000000e+00,5.000000000000000000e+00,5.000000000000000000e+00,5.000000000000000000e+00,2.454381942749023438e+00,2.434938669204711914e+00,5.000000000000000000e+00,5.000000000000000000e+00,5.000000000000000000e+00,5.000000000000000000e+00,5.000000000000000000e+00,1.980429291725158691e+00,1.966219663619995117e+00,5.000000000000000000e+00,5.000000000000000000e+00,5.000000000000000000e+00,5.000000000000000000e+00,4.995282173156738281e+00,4.829891681671142578e+00,4.675102710723876953e+00,4.529926776885986328e+00,4.393495559692382812e+00,4.265041828155517578e+00,4.143886089324951172e+00,4.029423713684082031e+00,3.921114921569824219e+00,3.818475723266601562e+00,3.721073150634765625e+00,3.628516435623168945e+00,3.540452003479003906e+00,3.456560611724853516e+00,3.376553297042846680e+00,3.300166130065917969e+00,3.227158069610595703e+00,3.157310724258422852e+00,3.090423107147216797e+00,3.026310443878173828e+00,2.964803695678710938e+00,2.905747413635253906e+00,2.848997831344604492e+00,2.794422626495361328e+00,2.741898775100708008e+00,2.691313028335571289e+00
4.871942043304443359e+00,4.870741367340087891e+00,4.869540691375732422e+00,4.868340969085693359e+00,4.867141723632812500e+00,4.865942955017089844e+00,4.864744663238525391e+00,4.863547801971435547e+00,4.862350463867187500e+00,4.861154556274414062e+00,4.859958648681640625e+00,4.858763694763183594e+00,4.857568740844726562e+00,4.856375217437744141e+00,4.855181694030761719e+00,4.853989124298095703e+00,4.852796554565429688e+00,4.851605415344238281e+00,4.850414276123046875e+00,4.849224090576171875e+00,4.848033905029296875e+00,4.846844673156738281e+00,4.845655918121337891e+00,4.844468116760253906e+00,4.843280315399169922e+00,4.842093467712402344e+00,4.840907573699951172e+00,4.839721679687500000e+00,4.838536262512207031e+00,4.837351799011230469e+00,4.836167812347412109e+00,4.834984302520751953e+00,4.833801269531250000e+00,4.832619190216064453e+00,4.831437587738037109e+00,4.830255985260009766e+00,4.829075813293457031e+00,4.827895641326904297e+00,4.826716423034667969e+00,4.825537204742431641e+00,4.824359416961669922e+00,2.482074260711669922e+00,2.458405017852783203e+00,4.820827960968017578e+00,4.819652080535888672e+00,4.818476676940917969e+00,4.817301750183105469e+00,4.816127300262451172e+00,1.980499029159545898e+00,1.968032836914062500e+00,4.812608242034912109e+00,4.811436176300048828e+00,4.810265064239501953e+00,4.809093952178955078e+00,4.807923793792724609e+00,4.806754112243652344e+00,4.675223350524902344e+00,4.530040264129638672e+00,4.393601894378662109e+00,4.265142440795898438e+00,4.143980979919433594e+00,4.029513359069824219e+00,3.921199798583984375e+00,3.818556785583496094e+00,3.721149444580078125e+00,3.628588914871215820e+00,3.540521144866943359e+00,3.456626892089843750e+00,3.376616239547729492e+00,3.300226211547851562e+00,3.227216005325317383e+00,3.157366037368774414e+00,3.090475797653198242e+00,3.026360988616943359e+00,2.964852333068847656e+00,2.905793905258178711e+00,2.849042654037475586e+00,2.794465541839599609e+00,2.741940498352050781e+00,2.691353082656860352e+00
3.776297569274902344e+00,3.775576114654541016e+00,3.774854421615600586e+00,3.774133443832397461e+00,3.773412704467773438e+00,3.772692441940307617e+00,3.771971702575683594e+00,3.771251916885375977e+00,3.770532369613647461e+00,3.769813060760498047e+00,3.769093513488769531e+00,3.768374919891357422e+00,3.767656326293945312e+00,3.766938209533691406e+00,3.766219854354858398e+00,3.765502214431762695e+00,3.764784812927246094e+00,3.764067649841308594e+00,3.763350486755371094e+00,3.762633800506591797e+00,3.761917591094970703e+00,3.761201620101928711e+00,3.760485410690307617e+00,3.759769916534423828e+00,3.759054660797119141e+00,3.758339881896972656e+00,3.757624864578247070e+00,3.756910324096679688e+00,3.756196260452270508e+00,3.755482435226440430e+00,3.754768371582031250e+00,3.754055023193359375e+00,3.753342151641845703e+00,3.752629280090332031e+00,3.751916408538818359e+00,3.751204252243041992e+00,3.750492334365844727e+00,3.749780654907226562e+00,3.749068737030029297e+00,3.748357534408569336e+00,3.747646808624267578e+00,2.517100095748901367e+00,2.491459131240844727e+00,3.745515346527099609e+00,3.744805574417114258e+00,3.744096040725708008e+00,3.743386268615722656e+00,3.742677450180053711e+00,2.001669883728027344e+00,1.977101206779479980e+00,3.740551710128784180e+00,3.739843845367431641e+00,3.739136219024658203e+00,3.738428831100463867e+00,3.737721204757690430e+00,3.737014293670654297e+00,3.736307859420776367e+00,3.735601663589477539e+00,3.734894990921020508e+00,3.734189271926879883e+00,3.733483791351318359e+00,3.732778549194335938e+00,3.732073307037353516e+00,3.731368541717529297e+00,3.721226215362548828e+00,3.628661394119262695e+00,3.540590286254882812e+00,3.456692695617675781e+00,3.376679420471191406e+00,3.300286054611206055e+00,3.227273225784301758e+00,3.157421112060546875e+00,3.090528726577758789e+00,3.026411533355712891e+00,2.964900732040405273e+00,2.905840873718261719e+00,2.849087715148925781e+00,2.794508695602416992e+00,2.741981744766235352e+00,2.691393136978149414e+00
3.082972049713134766e+00,3.082490921020507812e+00,3.082010030746459961e+00,3.081529378890991211e+00,3.081048965454101562e+00,3.080568552017211914e+00,3.080088376998901367e+00,3.079608201980590820e+00,3.079128503799438477e+00,3.078648328781127930e+00,3.078168869018554688e+00,3.077689409255981445e+00,3.077210187911987305e+00,3.076730728149414062e+00,3.076251745223999023e+00,3.075773000717163086e+00,3.075294256210327148e+00,3.074815750122070312e+00,3.074337244033813477e+00,3.073858976364135742e+00,3.073380947113037109e+00,3.072902917861938477e+00,3.072424888610839844e+00,3.071947336196899414e+00,3.071469783782958984e+00,3.070992469787597656e+00,3.070515155792236328e+00,3.070038080215454102e+00,3.069561243057250977e+00,3.069084405899047852e+00,3.068607568740844727e+00,3.068131208419799805e+00,3.067654848098754883e+00,3.067178726196289062e+00,3.066702365875244141e+00,3.066226482391357422e+00,3.065751075744628906e+00,3.065275430679321289e+00,3.064799785614013672e+00,3.064324378967285156e+00,3.063849449157714844e+00,2.498016357421875000e+00,2.455027341842651367e+00,3.062424659729003906e+00,3.061950206756591797e+00,3.061475753784179688e+00,3.061001300811767578e+00,3.060527324676513672e+00,1.990335702896118164e+00,1.946852803230285645e+00,3.059105634689331055e+00,3.058632135391235352e+00,3.058158636093139648e+00,3.057685613632202148e+00,3.057212114334106445e+00,3.056739330291748047e+00,3.056266546249389648e+00,3.055794000625610352e+00,3.055321216583251953e+00,3.054848909378051758e+00,3.054376602172851562e+00,3.053904533386230469e+00,3.053432464599609375e+00,3.052960634231567383e+00,3.052489042282104492e+00,3.052017688751220703e+00,3.051546096801757812e+00,3.051074981689453125e+00,3.050603866577148438e+00,3.050132989883422852e+00,3.049662113189697266e+00,3.049191474914550781e+00,3.048721075057983398e+00,3.026462316513061523e+00,2.964949369430541992e+00,2.905887365341186523e+00,2.849132299423217773e+00,2.794552087783813477e+00,2.742023229598999023e+00,2.691433191299438477e+00
2.604743003845214844e+00,2.604399442672729492e+00,2.604056358337402344e+00,2.603713274002075195e+00,2.603370189666748047e+00,2.603027105331420898e+00,2.602684259414672852e+00,2.602341413497924805e+00,2.601998805999755859e+00,2.601655960083007812e+00,2.601313591003417969e+00,2.600971221923828125e+00,2.600628852844238281e+00,2.600286483764648438e+00,2.599944353103637695e+00,2.599602222442626953e+00,2.599260330200195312e+00,2.598918199539184570e+00,2.598576545715332031e+00,2.598234891891479492e+00,2.597893238067626953e+00,2.597551584243774414e+00,2.597210168838500977e+00,2.596868991851806641e+00,2.596527814865112305e+00,2.596186399459838867e+00,2.595845222473144531e+00,2.595504283905029297e+00,2.595163583755493164e+00,2.594822645187377930e+00,2.594481945037841797e+00,2.594141244888305664e+00,2.593800783157348633e+00,2.593460083007812500e+00,2.593119859695434570e+00,2.592779636383056641e+00,2.592439413070678711e+00,2.592099189758300781e+00,2.591759204864501953e+00,2.591419458389282227e+00,2.591079711914062500e+00,2.452123880386352539e+00,2.417960643768310547e+00,2.395048379898071289e+00,2.589721202850341797e+00,2.589381694793701172e+00,2.589042425155639648e+00,2.588703155517578125e+00,1.991174101829528809e+00,1.888920426368713379e+00,1.818700790405273438e+00,1.820912003517150879e+00,2.587008476257324219e+00,2.586669683456420898e+00,2.586331129074096680e+00,2.585992813110351562e+00,2.585654258728027344e+00,2.585315942764282227e+00,2.584977626800537109e+00,2.584639549255371094e+00,2.584301710128784180e+00,2.583963632583618164e+00,2.583625555038452148e+00,2.583287954330444336e+00,2.582950353622436523e+00,2.582612752914428711e+00,2.582274913787841797e+00,2.581937551498413086e+00,2.581600189208984375e+00,2.581263065338134766e+00,2.580925703048706055e+00,2.580588817596435547e+00,2.580251693725585938e+00,2.579914808273315430e+00,2.579577922821044922e+00,2.579241275787353516e+00,2.578904628753662109e+00,2.578568220138549805e+00,2.578231573104858398e+00,2.577895164489746094e+00
2.254955291748046875e+00,2.254698038101196289e+00,2.254440784454345703e+00,2.254183769226074219e+00,2.253926515579223633e+00,2.253669261932373047e+00,2.253412485122680664e+00,2.253155469894409180e+00,2.252898454666137695e+00,2.252641677856445312e+00,2.252384901046752930e+00,2.252128124237060547e+00,2.251871347427368164e+00,2.251614809036254883e+00,2.251358270645141602e+00,2.251101732254028320e+00,2.250845193862915039e+00,2.250588893890380859e+00,2.250332593917846680e+00,2.250076293945312500e+00,2.249819993972778320e+00,2.249563932418823242e+00,2.249307870864868164e+00,2.249051809310913086e+00,2.248795747756958008e+00,2.248539924621582031e+00,2.248284101486206055e+00,2.248028278350830078e+00,2.247772693634033203e+00,2.247516870498657227e+00,2.247261285781860352e+00,2.247005701065063477e+00,2.246750354766845703e+00,2.246494770050048828e+00,2.246239423751831055e+00,2.245984077453613281e+00,2.245728731155395508e+00,2.245473384857177734e+00,2.245218276977539062e+00,2.244963169097900391e+00,2.244708299636840820e+00,2.244453191757202148e+00,2.244198322296142578e+00,2.243943452835083008e+00,2.243688583374023438e+00,2.243433713912963867e+00,2.243179082870483398e+00,2.242924451828002930e+00,1.998423695564270020e+00,1.965706110000610352e+00,2.242160797119140625e+00,2.241906404495239258e+00,2.241652250289916992e+00,2.241397857666015625e+00,2.241143465042114258e+00,2.240889310836791992e+00,2.240635395050048828e+00,2.240381240844726562e+00,2.240127086639404297e+00,2.239873170852661133e+00,2.239619493484497070e+00,2.239365339279174805e+00,2.239111661911010742e+00,2.238857984542846680e+00,2.238604307174682617e+00,2.238350629806518555e+00,2.238097190856933594e+00,2.237843751907348633e+00,2.237590312957763672e+00,2.237336874008178711e+00,2.237083673477172852e+00,2.236830234527587891e+00,2.236577272415161133e+00,2.236323833465576172e+00,2.236070871353149414e+00,2.235817909240722656e+00,2.235564947128295898e+00,2.235311985015869141e+00,2.235059022903442383e+00,2.234806299209594727e+00
1.987988233566284180e+00,1.987788796424865723e+00,1.987589120864868164e+00,1.987389445304870605e+00,1.987190008163452148e+00,1.986990451812744141e+00,1.986791133880615234e+00,1.986591696739196777e+00,1.986391782760620117e+00,1.986192107200622559e+00,1.985992550849914551e+00,1.985792994499206543e+00,1.985593438148498535e+00,1.985394001007080078e+00,1.985194444656372070e+00,1.984995126724243164e+00,1.984795451164245605e+00,1.984596133232116699e+00,1.984396815299987793e+00,1.984197616577148438e+00,1.983998417854309082e+00,1.983799219131469727e+00,1.983600139617919922e+00,1.983400940895080566e+00,1.983201742172241211e+00,1.983002662658691406e+00,1.982803702354431152e+00,1.982604861259460449e+00,1.982405900955200195e+00,1.982207059860229492e+00,1.982008218765258789e+00,1.981809496879577637e+00,1.981610536575317383e+00,1.981411814689636230e+00,1.981213212013244629e+00,1.981014609336853027e+00,1.980816006660461426e+00,1.980617403984069824e+00,1.980418920516967773e+00,1.980220556259155273e+00,1.980021834373474121e+00,1.979823470115661621e+00,1.979625105857849121e+00,1.979426860809326172e+00,1.979228615760803223e+00,1.979030370712280273e+00,1.978832244873046875e+00,1.978633999824523926e+00,1.978435754776000977e+00,1.978237628936767578e+00,1.978039622306823730e+00,1.977841615676879883e+00,1.977643728256225586e+00,1.977445840835571289e+00,1.977247953414916992e+00,1.977050185203552246e+00,1.976852178573608398e+00,1.976654410362243652e+00,1.976456642150878906e+00,1.976258993148803711e+00,1.976061463356018066e+00,1.975863814353942871e+00,1.975666284561157227e+00,1.975468754768371582e+00,1.975271105766296387e+00,1.975073695182800293e+00,1.974876284599304199e+00,1.974678874015808105e+00,1.974481582641601562e+00,1.974284291267395020e+00,1.974087119102478027e+00,1.973889946937561035e+00,1.973692774772644043e+00,1.973495483398437500e+00,1.973298311233520508e+00,1.973101377487182617e+00,1.972904324531555176e+00,1.972707390785217285e+00,1.972510457038879395e+00,1.972313642501831055e+00
1.777542471885681152e+00,1.777382969856262207e+00,1.777223348617553711e+00,1.777063965797424316e+00,1.776904344558715820e+00,1.776744723320007324e+00,1.776585340499877930e+00,1.776425838470458984e+00,1.776266336441040039e+00,1.776107072830200195e+00,1.775947690010070801e+00,1.775788307189941406e+00,1.775629043579101562e+00,1.775469779968261719e+00,1.775310635566711426e+00,1.775151133537292480e+00,1.774991750717163086e+00,1.774832248687744141e+00,1.774672865867614746e+00,1.774513483047485352e+00,1.774353981018066406e+00,1.774194717407226562e+00,1.774035453796386719e+00,1.773876190185546875e+00,1.773716926574707031e+00,1.773557782173156738e+00,1.773398637771606445e+00,1.773239493370056152e+00,1.773080229759216309e+00,1.772921085357666016e+00,1.772762060165405273e+00,1.772603034973144531e+00,1.772444009780883789e+00,1.772285103797912598e+00,1.772126078605651855e+00,1.771967172622680664e+00,1.771808147430419922e+00,1.771649360656738281e+00,1.771490454673767090e+00,1.771331667900085449e+00,1.771172881126403809e+00,1.771014213562011719e+00,1.770855426788330078e+00,1.770696759223937988e+00,1.770537972450256348e+00,1.770379304885864258e+00,1.770220756530761719e+00,1.770062208175659180e+00,1.769903659820556641e+00,1.769745111465454102e+00,1.769586682319641113e+00,1.769428253173828125e+00,1.769269585609436035e+00,1.769111156463623047e+00,1.768952846527099609e+00,1.768794536590576172e+00,1.768636226654052734e+00,1.768477916717529297e+00,1.768319606781005859e+00,1.768161416053771973e+00,1.768002986907958984e+00,1.767844915390014648e+00,1.767686724662780762e+00,1.767528653144836426e+00,1.767370581626892090e+00,1.767212510108947754e+00,1.767054438591003418e+00,1.766896486282348633e+00,1.766738295555114746e+00,1.766580343246459961e+00,1.766422510147094727e+00,1.766264557838439941e+00,1.766106724739074707e+00,1.765948891639709473e+00,1.765791058540344238e+00,1.765633344650268555e+00,1.765475392341613770e+00,1.765317678451538086e+00,1.765160083770751953e+00,1.765002369880676270e+00
1.607386827468872070e+00,1.607256293296813965e+00,1.607125759124755859e+00,1.606995344161987305e+00,1.606864809989929199e+00,1.606734395027160645e+00,1.606603980064392090e+00,1.606473565101623535e+00,1.606343269348144531e+00,1.606212854385375977e+00,1.606082439422607422e+00,1.605952262878417969e+00,1.605821967124938965e+00,1.605691552162170410e+00,1.605561375617980957e+00,1.605431199073791504e+00,1.605300903320312500e+00,1.605170845985412598e+00,1.605040550231933594e+00,1.604910373687744141e+00,1.604780316352844238e+00,1.604650139808654785e+00,1.604520201683044434e+00,1.604389786720275879e+00,1.604259490966796875e+00,1.604129314422607422e+00,1.603999137878417969e+00,1.603868961334228516e+00,1.603738784790039062e+00,1.603608608245849609e+00,1.603478431701660156e+00,1.603348255157470703e+00,1.603218197822570801e+00,1.603088140487670898e+00,1.602958083152770996e+00,1.602828025817871094e+00,1.602698087692260742e+00,1.602568030357360840e+00,1.602438092231750488e+00,1.602308034896850586e+00,1.602178096771240234e+00,1.602048277854919434e+00,1.601918339729309082e+00,1.601788520812988281e+00,1.601658701896667480e+00,1.601528882980346680e+00,1.601399064064025879e+00,1.601269245147705078e+00,1.601139426231384277e+00,1.601009726524353027e+00,1.600880026817321777e+00,1.600750327110290527e+00,1.600620746612548828e+00,1.600491046905517578e+00,1.600361466407775879e+00,1.600231766700744629e+00,1.600102186203002930e+00,1.599972486495971680e+00,1.599843025207519531e+00,1.599713444709777832e+00,1.599583983421325684e+00,1.599454522132873535e+00,1.599325060844421387e+00,1.599195718765258789e+00,1.599066138267517090e+00,1.598936676979064941e+00,1.598807334899902344e+00,1.598677992820739746e+00,1.598548650741577148e+00,1.598419427871704102e+00,1.598290085792541504e+00,1.598160862922668457e+00,1.598031520843505859e+00,1.597902297973632812e+00,1.597773075103759766e+00,1.597643852233886719e+00,1.597514748573303223e+00,1.597385644912719727e+00,1.597256422042846680e+00,1.597127437591552734e+00
1.466961503028869629e+00,1.466852784156799316e+00,1.466743946075439453e+00,1.466635346412658691e+00,1.466526627540588379e+00,1.466418147087097168e+00,1.466309428215026855e+00,1.466200709342956543e+00,1.466092228889465332e+00,1.465983629226684570e+00,1.465875029563903809e+00,1.465766549110412598e+00,1.465657949447631836e+00,1.465549349784851074e+00,1.465440869331359863e+00,1.465332388877868652e+00,1.465224027633666992e+00,1.465115427970886230e+00,1.465006947517395020e+00,1.464898586273193359e+00,1.464790225028991699e+00,1.464681744575500488e+00,1.464573383331298828e+00,1.464465022087097168e+00,1.464356660842895508e+00,1.464248418807983398e+00,1.464140057563781738e+00,1.464031815528869629e+00,1.463923454284667969e+00,1.463815212249755859e+00,1.463706851005554199e+00,1.463598489761352539e+00,1.463490009307861328e+00,1.463381648063659668e+00,1.463273286819458008e+00,1.463164806365966797e+00,1.463056564331054688e+00,1.462948203086853027e+00,1.462839961051940918e+00,1.462731599807739258e+00,1.462623357772827148e+00,1.462515115737915039e+00,1.462406873703002930e+00,1.462298512458801270e+00,1.462190389633178711e+00,1.462082147598266602e+00,1.461974024772644043e+00,1.461865901947021484e+00,1.461757779121398926e+00,1.461649656295776367e+00,1.461541533470153809e+00,1.461433291435241699e+00,1.461325168609619141e+00,1.461217164993286133e+00,1.461109161376953125e+00,1.461001157760620117e+00,1.460893154144287109e+00,1.460785150527954102e+00,1.460677146911621094e+00,1.460569024085998535e+00,1.460461139678955078e+00,1.460353136062622070e+00,1.460245251655578613e+00,1.460137367248535156e+00,1.460029482841491699e+00,1.459921598434448242e+00,1.459813714027404785e+00,1.459705829620361328e+00,1.459597945213317871e+00,1.459490180015563965e+00,1.459382414817810059e+00,1.459274649620056152e+00,1.459166884422302246e+00,1.459059119224548340e+00,1.458951473236083984e+00,1.458843588829040527e+00,1.458735942840576172e+00,1.458628177642822266e+00,1.458520531654357910e+00,1.458412885665893555e+00
1.349100589752197266e+00,1.349008679389953613e+00,1.348916769027709961e+00,1.348824858665466309e+00,1.348732829093933105e+00,1.348641037940979004e+00,1.348549127578735352e+00,1.348457217216491699e+00,1.348365426063537598e+00,1.348273515701293945e+00,1.348181605339050293e+00,1.348089933395385742e+00,1.347998023033142090e+00,1.347906351089477539e+00,1.347814440727233887e+00,1.347722649574279785e+00,1.347630977630615234e+00,1.347539186477661133e+00,1.347447395324707031e+00,1.347355842590332031e+00,1.347264051437377930e+00,1.347172260284423828e+00,1.347080707550048828e+00,1.346989035606384277e+00,1.346897363662719727e+00,1.346805691719055176e+00,1.346714019775390625e+00,1.346622467041015625e+00,1.346530795097351074e+00,1.346439123153686523e+00,1.346347689628601074e+00,1.346256017684936523e+00,1.346164464950561523e+00,1.346072912216186523e+00,1.345981359481811523e+00,1.345889925956726074e+00,1.345798373222351074e+00,1.345706820487976074e+00,1.345615267753601074e+00,1.345523595809936523e+00,1.345431923866271973e+00,1.345340371131896973e+00,1.345248818397521973e+00,1.345157265663146973e+00,1.345065712928771973e+00,1.344974160194396973e+00,1.344882488250732422e+00,1.344790935516357422e+00,1.344699382781982422e+00,1.344607949256896973e+00,1.344516396522521973e+00,1.344424962997436523e+00,1.344333529472351074e+00,1.344242095947265625e+00,1.344150543212890625e+00,1.344059109687805176e+00,1.343967676162719727e+00,1.343876242637634277e+00,1.343784928321838379e+00,1.343693494796752930e+00,1.343602180480957031e+00,1.343510866165161133e+00,1.343419432640075684e+00,1.343327999114990234e+00,1.343236684799194336e+00,1.343145489692687988e+00,1.343054175376892090e+00,1.342962861061096191e+00,1.342871665954589844e+00,1.342780351638793945e+00,1.342689156532287598e+00,1.342597842216491699e+00,1.342506527900695801e+00,1.342415332794189453e+00,1.342324137687683105e+00,1.342233061790466309e+00,1.342141866683959961e+00,1.342050671577453613e+00,1.341959595680236816e+00,1.341868281364440918e+00
1.248770117759704590e+00,1.248691320419311523e+00,1.248612523078918457e+00,1.248533725738525391e+00,1.248454928398132324e+00,1.248376250267028809e+00,1.248297572135925293e+00,1.248218894004821777e+00,1.248140096664428711e+00,1.248061418533325195e+00,1.247982740402221680e+00,1.247904062271118164e+00,1.247825264930725098e+00,1.247746706008911133e+00,1.247668027877807617e+00,1.247589349746704102e+00,1.247510790824890137e+00,1.247432112693786621e+00,1.247353434562683105e+00,1.247274875640869141e+00,1.247196316719055176e+00,1.247117757797241211e+00,1.247039198875427246e+00,1.246960520744323730e+00,1.246882081031799316e+00,1.246803522109985352e+00,1.246724963188171387e+00,1.246646404266357422e+00,1.246567964553833008e+00,1.246489405632019043e+00,1.246410965919494629e+00,1.246332406997680664e+00,1.246253967285156250e+00,1.246175527572631836e+00,1.246096968650817871e+00,1.246018648147583008e+00,1.245940208435058594e+00,1.245861649513244629e+00,1.245783329010009766e+00,1.245704889297485352e+00,1.245626449584960938e+00,1.245548129081726074e+00,1.245469689369201660e+00,1.245391488075256348e+00,1.245313048362731934e+00,1.245234608650207520e+00,1.245156168937683105e+00,1.245077729225158691e+00,1.244999289512634277e+00,1.244920849800109863e+00,1.244842410087585449e+00,1.244763970375061035e+00,1.244685530662536621e+00,1.244607090950012207e+00,1.244528770446777344e+00,1.244450330734252930e+00,1.244372010231018066e+00,1.244293689727783203e+00,1.244215250015258789e+00,1.244136929512023926e+00,1.244058609008789062e+00,1.243980288505554199e+00,1.243901968002319336e+00,1.243823647499084473e+00,1.243745326995849609e+00,1.243667125701904297e+00,1.243588805198669434e+00,1.243510484695434570e+00,1.243432283401489258e+00,1.243353962898254395e+00,1.243275761604309082e+00,1.243197560310363770e+00,1.243119359016418457e+00,1.243041157722473145e+00,1.242962956428527832e+00,1.242884755134582520e+00,1.242806553840637207e+00,1.242728352546691895e+00,1.242650270462036133e+00,1.242572069168090820e+00
1.162329435348510742e+00,1.162261128425598145e+00,1.162192940711975098e+00,1.162124633789062500e+00,1.162056565284729004e+00,1.161988258361816406e+00,1.161920070648193359e+00,1.161851882934570312e+00,1.161783576011657715e+00,1.161715388298034668e+00,1.161647319793701172e+00,1.161579132080078125e+00,1.161510944366455078e+00,1.161442756652832031e+00,1.161374568939208984e+00,1.161306500434875488e+00,1.161238312721252441e+00,1.161170244216918945e+00,1.161102175712585449e+00,1.161033987998962402e+00,1.160965800285339355e+00,1.160897850990295410e+00,1.160829663276672363e+00,1.160761594772338867e+00,1.160693526268005371e+00,1.160625457763671875e+00,1.160557508468627930e+00,1.160489439964294434e+00,1.160421371459960938e+00,1.160353302955627441e+00,1.160285353660583496e+00,1.160217285156250000e+00,1.160149335861206055e+00,1.160081267356872559e+00,1.160013198852539062e+00,1.159945368766784668e+00,1.159877300262451172e+00,1.159809350967407227e+00,1.159741401672363281e+00,1.159673452377319336e+00,1.159605503082275391e+00,1.159537553787231445e+00,1.159469604492187500e+00,1.159401774406433105e+00,1.159333825111389160e+00,1.159265875816345215e+00,1.159198045730590820e+00,1.159130096435546875e+00,1.159062266349792480e+00,1.158994436264038086e+00,1.158926486968994141e+00,1.158858656883239746e+00,1.158790826797485352e+00,1.158722877502441406e+00,1.158654928207397461e+00,1.158586978912353516e+00,1.158519029617309570e+00,1.158451199531555176e+00,1.158383250236511230e+00,1.158315420150756836e+00,1.158247470855712891e+00,1.158179640769958496e+00,1.158111691474914551e+00,1.158043742179870605e+00,1.157975912094116211e+00,1.157908082008361816e+00,1.157840251922607422e+00,1.157772421836853027e+00,1.157704591751098633e+00,1.157636761665344238e+00,1.157568812370300293e+00,1.157501101493835449e+00,1.157433271408081055e+00,1.157365441322326660e+00,1.157297730445861816e+00,1.157229900360107422e+00,1.157162189483642578e+00,1.157094359397888184e+00,1.157026529312133789e+00,1.156958818435668945e+00
1.087080955505371094e+00,1.087021350860595703e+00,1.086961627006530762e+00,1.086901903152465820e+00,1.086842179298400879e+00,1.086782574653625488e+00,1.086722850799560547e+00,1.086663246154785156e+00,1.086603522300720215e+00,1.086543917655944824e+00,1.086484313011169434e+00,1.086424589157104492e+00,1.086364984512329102e+00,1.086305379867553711e+00,1.086245775222778320e+00,1.086186170578002930e+00,1.086126565933227539e+00,1.086066961288452148e+00,1.086007356643676758e+00,1.085947751998901367e+00,1.085888147354125977e+00,1.085828661918640137e+00,1.085769057273864746e+00,1.085709571838378906e+00,1.085649967193603516e+00,1.085590362548828125e+00,1.085530877113342285e+00,1.085471272468566895e+00,1.085411787033081055e+00,1.085352301597595215e+00,1.085292816162109375e+00,1.085233211517333984e+00,1.085173726081848145e+00,1.085114240646362305e+00,1.085054874420166016e+00,1.084995269775390625e+00,1.084935784339904785e+00,1.084876418113708496e+00,1.084816932678222656e+00,1.084757447242736816e+00,1.084697961807250977e+00,1.084638595581054688e+00,1.084579110145568848e+00,1.084519743919372559e+00,1.084460258483886719e+00,1.084400892257690430e+00,1.084341406822204590e+00,1.084282040596008301e+00,1.084222674369812012e+00,1.084163308143615723e+00,1.084103822708129883e+00,1.084044575691223145e+00,1.083985090255737305e+00,1.083925724029541016e+00,1.083866477012634277e+00,1.083807110786437988e+00,1.083747744560241699e+00,1.083688378334045410e+00,1.083629012107849121e+00,1.083569765090942383e+00,1.083510398864746094e+00,1.083451032638549805e+00,1.083391666412353516e+00,1.083332180976867676e+00,1.083272814750671387e+00,1.083213448524475098e+00,1.083154082298278809e+00,1.083094716072082520e+00,1.083035349845886230e+00,1.082975983619689941e+00,1.082916617393493652e+00,1.082857251167297363e+00,1.082797884941101074e+00,1.082738518714904785e+00,1.082679152488708496e+00,1.082619905471801758e+00,1.082560539245605469e+00,1.082501292228698730e+00,1.082441926002502441e+00,1.082382678985595703e+00
1.020983219146728516e+00,1.020930528640747070e+00,1.020877838134765625e+00,1.020825147628784180e+00,1.020772576332092285e+00,1.020719885826110840e+00,1.020667314529418945e+00,1.020614624023437500e+00,1.020562052726745605e+00,1.020509481430053711e+00,1.020456790924072266e+00,1.020404219627380371e+00,1.020351648330688477e+00,1.020298957824707031e+00,1.020246386528015137e+00,1.020193815231323242e+00,1.020141243934631348e+00,1.020088672637939453e+00,1.020036101341247559e+00,1.019983530044555664e+00,1.019930958747863770e+00,1.019878387451171875e+00,1.019825816154479980e+00,1.019773364067077637e+00,1.019720792770385742e+00,1.019668221473693848e+00,1.019615769386291504e+00,1.019563198089599609e+00,1.019510626792907715e+00,1.019458174705505371e+00,1.019405603408813477e+00,1.019353151321411133e+00,1.019300699234008789e+00,1.019248127937316895e+00,1.019195675849914551e+00,1.019143223762512207e+00,1.019090771675109863e+00,1.019038319587707520e+00,1.018985867500305176e+00,1.018933296203613281e+00,1.018880963325500488e+00,1.018828511238098145e+00,1.018776059150695801e+00,1.018723607063293457e+00,1.018671154975891113e+00,1.018618702888488770e+00,1.018566370010375977e+00,1.018513917922973633e+00,1.018461465835571289e+00,1.018409132957458496e+00,1.018356680870056152e+00,1.018304347991943359e+00,1.018251895904541016e+00,1.018199563026428223e+00,1.018147110939025879e+00,1.018094778060913086e+00,1.018042445182800293e+00,1.017990112304687500e+00,1.017937660217285156e+00,1.017885327339172363e+00,1.017832994461059570e+00,1.017780661582946777e+00,1.017728328704833984e+00,1.017675995826721191e+00,1.017623662948608398e+00,1.017571330070495605e+00,1.017518997192382812e+00,1.017466783523559570e+00,1.017414450645446777e+00,1.017361998558044434e+00,1.017309665679931641e+00,1.017257332801818848e+00,1.017204880714416504e+00,1.017152547836303711e+00,1.017100214958190918e+00,1.017047882080078125e+00,1.016995549201965332e+00,1.016943097114562988e+00,1.016890764236450195e+00,1.016838431358337402e+00
9.624626040458679199e-01,9.624158740043640137e-01,9.623690247535705566e-01,9.623222351074218750e-01,9.622753858566284180e-01,9.622285962104797363e-01,9.621819257736206055e-01,9.621351361274719238e-01,9.620883464813232422e-01,9.620415568351745605e-01,9.619947671890258789e-01,9.619480371475219727e-01,9.619013667106628418e-01,9.618545770645141602e-01,9.618078470230102539e-01,9.617610573768615723e-01,9.617143273353576660e-01,9.616677165031433105e-01,9.616209864616394043e-01,9.615741968154907227e-01,9.615274667739868164e-01,9.614807367324829102e-01,9.614340662956237793e-01,9.613874554634094238e-01,9.613407254219055176e-01,9.612939953804016113e-01,9.612473249435424805e-01,9.612005949020385742e-01,9.611540436744689941e-01,9.611073136329650879e-01,9.610606431961059570e-01,9.610139727592468262e-01,9.609673023223876953e-01,9.609206318855285645e-01,9.608740210533142090e-01,9.608274102210998535e-01,9.607807397842407227e-01,9.607340693473815918e-01,9.606873989105224609e-01,9.606409072875976562e-01,9.605942368507385254e-01,9.605476260185241699e-01,9.605009555816650391e-01,9.604543447494506836e-01,9.604077339172363281e-01,9.603611826896667480e-01,9.603145718574523926e-01,9.602679610252380371e-01,9.602213501930236816e-01,9.601747989654541016e-01,9.601283073425292969e-01,9.600816965103149414e-01,9.600350856781005859e-01,9.599885344505310059e-01,9.599419236183166504e-01,9.598953723907470703e-01,9.598488807678222656e-01,9.598023295402526855e-01,9.597557783126831055e-01,9.597092270851135254e-01,9.596626758575439453e-01,9.596162438392639160e-01,9.595696926116943359e-01,9.595231413841247559e-01,9.594765901565551758e-01,9.594300985336303711e-01,9.593835473060607910e-01,9.593371748924255371e-01,9.592906236648559570e-01,9.592441320419311523e-01,9.591976404190063477e-01,9.591510891914367676e-01,9.591045975685119629e-01,9.590582251548767090e-01,9.590117335319519043e-01,9.589652419090270996e-01,9.589188098907470703e-01,9.588721990585327148e-01,9.588257074356079102e-01,9.587791562080383301e-01
9.102869033813476562e-01,9.102450609207153320e-01,9.102031588554382324e-01,9.101613163948059082e-01,9.101194143295288086e-01,9.100775718688964844e-01,9.100357890129089355e-01,9.099939465522766113e-01,9.099521040916442871e-01,9.099102020263671875e-01,9.098683595657348633e-01,9.098266363143920898e-01,9.097847938537597656e-01,9.097429513931274414e-01,9.097011089324951172e-01,9.096593260765075684e-01,9.096174836158752441e-01,9.095757603645324707e-01,9.095339775085449219e-01,9.094921350479125977e-01,9.094503521919250488e-01,9.094085097312927246e-01,9.093668460845947266e-01,9.093250036239624023e-01,9.092832207679748535e-01,9.092414379119873047e-01,9.091996550559997559e-01,9.091578722000122070e-01,9.091162085533142090e-01,9.090744256973266602e-01,9.090326428413391113e-01,9.089909195899963379e-01,9.089491367340087891e-01,9.089074730873107910e-01,9.088657498359680176e-01,9.088239669799804688e-01,9.087822437286376953e-01,9.087404608726501465e-01,9.086987376213073730e-01,9.086571335792541504e-01,9.086154103279113770e-01,9.085736870765686035e-01,9.085319638252258301e-01,9.084902405738830566e-01,9.084485769271850586e-01,9.084069132804870605e-01,9.083651900291442871e-01,9.083234667778015137e-01,9.082818031311035156e-01,9.082400798797607422e-01,9.081984758377075195e-01,9.081568121910095215e-01,9.081151485443115234e-01,9.080734252929687500e-01,9.080317616462707520e-01,9.079900979995727539e-01,9.079484939575195312e-01,9.079068303108215332e-01,9.078651666641235352e-01,9.078235626220703125e-01,9.077818989753723145e-01,9.077402949333190918e-01,9.076986908912658691e-01,9.076570272445678711e-01,9.076154232025146484e-01,9.075737595558166504e-01,9.075321555137634277e-01,9.074906110763549805e-01,9.074490070343017578e-01,9.074073433876037598e-01,9.073657393455505371e-01,9.073241353034973145e-01,9.072826504707336426e-01,9.072410464286804199e-01,9.071994423866271973e-01,9.071578383445739746e-01,9.071162343025207520e-01,9.070746302604675293e-01,9.070331454277038574e-01,9.069916009902954102e-01
8.634772300720214844e-01,8.634395599365234375e-01,8.634018898010253906e-01,8.633642196655273438e-01,8.633265495300292969e-01,8.632889389991760254e-01,8.632512688636779785e-01,8.632135987281799316e-01,8.631759285926818848e-01,8.631382584571838379e-01,8.631006479263305664e-01,8.630630970001220703e-01,8.630254268646240234e-01,8.629877567291259766e-01,8.629501461982727051e-01,8.629124760627746582e-01,8.628749251365661621e-01,8.628373146057128906e-01,8.627997040748596191e-01,8.627620935440063477e-01,8.627244234085083008e-01,8.626868128776550293e-01,8.626493215560913086e-01,8.626117110252380371e-01,8.625741004943847656e-01,8.625364899635314941e-01,8.624988794326782227e-01,8.624613881111145020e-01,8.624237775802612305e-01,8.623861670494079590e-01,8.623485565185546875e-01,8.623110055923461914e-01,8.622733950614929199e-01,8.622359037399291992e-01,8.621983528137207031e-01,8.621608018875122070e-01,8.621231913566589355e-01,8.620856404304504395e-01,8.620480895042419434e-01,8.620105981826782227e-01,8.619730472564697266e-01,8.619354963302612305e-01,8.618979454040527344e-01,8.618603944778442383e-01,8.618229627609252930e-01,8.617854118347167969e-01,8.617478609085083008e-01,8.617103099822998047e-01,8.616728186607360840e-01,8.616352677345275879e-01,8.615978360176086426e-01,8.615603446960449219e-01,8.615227937698364258e-01,8.614853024482727051e-01,8.614478111267089844e-01,8.614103794097900391e-01,8.613728284835815430e-01,8.613353371620178223e-01,8.612978458404541016e-01,8.612603545188903809e-01,8.612228631973266602e-01,8.611854910850524902e-01,8.611479997634887695e-01,8.611105084419250488e-01,8.610730171203613281e-01,8.610355854034423828e-01,8.609981536865234375e-01,8.609607219696044922e-01,8.609232306480407715e-01,8.608857989311218262e-01,8.608483076095581055e-01,8.608108758926391602e-01,8.607735037803649902e-01,8.607360720634460449e-01,8.606985807418823242e-01,8.606611490249633789e-01,8.606237173080444336e-01,8.605864048004150391e-01,8.605489730834960938e-01,8.605115413665771484e-01
