3.098575830459594727e+00,3.176909446716308594e+00,3.259306669235229492e+00,3.346088886260986328e+00,3.437615394592285156e+00,3.534289836883544922e+00,3.636559009552001953e+00,3.744922876358032227e+00,3.859943628311157227e+00,3.982253313064575195e+00,4.112568378448486328e+00,4.251700878143310547e+00,4.400576591491699219e+00,4.560256481170654297e+00,4.731961727142333984e+00,4.917102336883544922e+00,5.000000000000000000e+00,5.000000000000000000e+00,5.000000000000000000e+00,5.000000000000000000e+00,5.000000000000000000e+00,5.000000000000000000e+00,5.000000000000000000e+00,5.000000000000000000e+00,5.000000000000000000e+00,5.000000000000000000e+00,5.000000000000000000e+00,5.000000000000000000e+00,5.000000000000000000e+00,5.000000000000000000e+00,5.000000000000000000e+00,5.000000000000000000e+00,5.000000000000000000e+00,5.000000000000000000e+00,5.000000000000000000e+00,5.000000000000000000e+00,5.000000000000000000e+00,5.000000000000000000e+00,5.000000000000000000e+00,5.000000000000000000e+00,5.000000000000000000e+00,5.000000000000000000e+00,5.000000000000000000e+00,5.000000000000000000e+00,5.000000000000000000e+00,5.000000000000000000e+00,5.000000000000000000e+00,5.000000000000000000e+00,5.000000000000000000e+00,5.000000000000000000e+00,5.000000000000000000e+00,5.000000000000000000e+00,5.000000000000000000e+00,5.000000000000000000e+00,5.000000000000000000e+00,5.000000000000000000e+00,5.000000000000000000e+00,5.000000000000000000e+00,5.000000000000000000e+00,5.000000000000000000e+00,5.000000000000000000e+00,5.000000000000000000e+00,5.000000000000000000e+00,5.000000000000000000e+00,5.000000000000000000e+00,5.000000000000000000e+00,5.000000000000000000e+00,5.000000000000000000e+00,5.000000000000000000e+00,5.000000000000000000e+00,4.852583408355712891e+00,4.693215370178222656e+00,4.543951988220214844e+00,4.403890132904052734e+00,4.272204875946044922e+00,4.148166179656982422e+00,4.031126976013183594e+00,3.920511245727539062e+00,3.815804004669189453e+00,3.716543674468994141e+00
3.098510503768920898e+00,3.176840543746948242e+00,3.259234189987182617e+00,3.346015214920043945e+00,3.437541007995605469e+00,3.534211397171020508e+00,3.636475801467895508e+00,3.744834899902343750e+00,3.859849929809570312e+00,3.982154130935668945e+00,4.112462043762207031e+00,4.251586914062500000e+00,4.400454998016357422e+00,4.560125827789306641e+00,4.731820583343505859e+00,4.916950225830078125e+00,5.000000000000000000e+00,5.000000000000000000e+00,5.000000000000000000e+00,5.000000000000000000e+00,5.000000000000000000e+00,5.000000000000000000e+00,5.000000000000000000e+00,5.000000000000000000e+00,5.000000000000000000e+00,5.000000000000000000e+00,5.000000000000000000e+00,5.000000000000000000e+00,5.000000000000000000e+00,5.000000000000000000e+00,5.000000000000000000e+00,5.000000000000000000e+00,5.000000000000000000e+00,5.000000000000000000e+00,5.000000000000000000e+00,5.000000000000000000e+00,5.000000000000000000e+00,5.000000000000000000e+00,5.000000000000000000e+00,5.000000000000000000e+00,5.000000000000000000e+00,5.000000000000000000e+00,5.000000000000000000e+00,5.000000000000000000e+00,5.000000000000000000e+00,5.000000000000000000e+00,5.000000000000000000e+00,5.000000000000000000e+00,5.000000000000000000e+00,5.000000000000000000e+00,5.000000000000000000e+00,5.000000000000000000e+00,5.000000000000000000e+00,5.000000000000000000e+00,5.000000000000000000e+00,5.000000000000000000e+00,5.000000000000000000e+00,5.000000000000000000e+00,5.000000000000000000e+00,5.000000000000000000e+00,5.000000000000000000e+00,5.000000000000000000e+00,5.000000000000000000e+00,5.000000000000000000e+00,5.000000000000000000e+00,5.000000000000000000e+00,5.000000000000000000e+00,5.000000000000000000e+00,5.000000000000000000e+00,5.000000000000000000e+00,4.852758884429931641e+00,4.693346977233886719e+00,4.544075965881347656e+00,4.404006481170654297e+00,4.272314548492431641e+00,4.148269176483154297e+00,4.031224250793457031e+00,3.920603275299072266e+00,3.815890789031982422e+00,3.716626405715942383e+00
3.098444938659667969e+00,3.176771640777587891e+00,3.259161710739135742e+00,3.345938682556152344e+00,3.437463521957397461e+00,3.534132719039916992e+00,3.636392831802368164e+00,3.744746685028076172e+00,3.859756231307983398e+00,3.982054471969604492e+00,4.112355709075927734e+00,4.251473426818847656e+00,4.400332927703857422e+00,4.559995174407958984e+00,4.731679916381835938e+00,4.916798114776611328e+00,5.000000000000000000e+00,5.000000000000000000e+00,5.000000000000000000e+00,5.000000000000000000e+00,5.000000000000000000e+00,5.000000000000000000e+00,5.000000000000000000e+00,5.000000000000000000e+00,5.000000000000000000e+00,5.000000000000000000e+00,5.000000000000000000e+00,5.000000000000000000e+00,5.000000000000000000e+00,5.000000000000000000e+00,5.000000000000000000e+00,5.000000000000000000e+00,5.000000000000000000e+00,5.000000000000000000e+00,5.000000000000000000e+00,5.000000000000000000e+00,5.000000000000000000e+00,5.000000000000000000e+00,5.000000000000000000e+00,5.000000000000000000e+00,5.000000000000000000e+00,5.000000000000000000e+00,5.000000000000000000e+00,5.000000000000000000e+00,5.000000000000000000e+00,5.000000000000000000e+00,5.000000000000000000e+00,5.000000000000000000e+00,5.000000000000000000e+00,5.000000000000000000e+00,5.000000000000000000e+00,5.000000000000000000e+00,5.000000000000000000e+00,5.000000000000000000e+00,5.000000000000000000e+00,5.000000000000000000e+00,5.000000000000000000e+00,5.000000000000000000e+00,5.000000000000000000e+00,5.000000000000000000e+00,5.000000000000000000e+00,5.000000000000000000e+00,5.000000000000000000e+00,5.000000000000000000e+00,5.000000000000000000e+00,5.000000000000000000e+00,5.000000000000000000e+00,5.000000000000000000e+00,5.000000000000000000e+00,5.000000000000000000e+00,4.852900028228759766e+00,4.693479061126708984e+00,4.544198989868164062e+00,4.404122352600097656e+00,4.272423267364501953e+00,4.148372173309326172e+00,4.031321525573730469e+00,3.920695304870605469e+00,3.815978050231933594e+00,3.716709136962890625e+00
3.098379373550415039e+00,3.176702976226806641e+00,3.259089231491088867e+00,3.345862388610839844e+00,3.437382936477661133e+00,3.534050464630126953e+00,3.636309623718261719e+00,3.744658470153808594e+00,3.859662532806396484e+00,3.981954813003540039e+00,4.112249374389648438e+00,4.251359939575195312e+00,4.400211334228515625e+00,4.559864521026611328e+00,4.731539249420166016e+00,4.916646480560302734e+00,5.000000000000000000e+00,5.000000000000000000e+00,5.000000000000000000e+00,5.000000000000000000e+00,5.000000000000000000e+00,5.000000000000000000e+00,5.000000000000000000e+00,5.000000000000000000e+00,5.000000000000000000e+00,5.000000000000000000e+00,5.000000000000000000e+00,5.000000000000000000e+00,5.000000000000000000e+00,5.000000000000000000e+00,5.000000000000000000e+00,5.000000000000000000e+00,5.000000000000000000e+00,5.000000000000000000e+00,5.000000000000000000e+00,5.000000000000000000e+00,5.000000000000000000e+00,5.000000000000000000e+00,5.000000000000000000e+00,5.000000000000000000e+00,5.000000000000000000e+00,5.000000000000000000e+00,5.000000000000000000e+00,5.000000000000000000e+00,5.000000000000000000e+00,5.000000000000000000e+00,5.000000000000000000e+00,5.000000000000000000e+00,5.000000000000000000e+00,5.000000000000000000e+00,5.000000000000000000e+00,5.000000000000000000e+00,5.000000000000000000e+00,5.000000000000000000e+00,5.000000000000000000e+00,5.000000000000000000e+00,5.000000000000000000e+00,5.000000000000000000e+00,5.000000000000000000e+00,5.000000000000000000e+00,5.000000000000000000e+00,5.000000000000000000e+00,5.000000000000000000e+00,5.000000000000000000e+00,5.000000000000000000e+00,5.000000000000000000e+00,5.000000000000000000e+00,5.000000000000000000e+00,5.000000000000000000e+00,5.000000000000000000e+00,4.853041172027587891e+00,4.693611145019531250e+00,4.544322967529296875e+00,4.404238700866699219e+00,4.272532939910888672e+00,4.148475170135498047e+00,4.031418800354003906e+00,3.920786857604980469e+00,3.816065311431884766e+00,3.716791391372680664e+00
3.098313808441162109e+00,3.176634073257446289e+00,3.259016752243041992e+00,3.345786094665527344e+00,3.437302350997924805e+00,3.533965349197387695e+00,3.636222839355468750e+00,3.744570255279541016e+00,3.859568834304809570e+00,3.981854915618896484e+00,4.112143039703369141e+00,4.251246452331542969e+00,4.400089740753173828e+00,4.559733867645263672e+00,4.731398582458496094e+00,4.916494846343994141e+00,5.000000000000000000e+00,5.000000000000000000e+00,5.000000000000000000e+00,5.000000000000000000e+00,5.000000000000000000e+00,5.000000000000000000e+00,5.000000000000000000e+00,5.000000000000000000e+00,5.000000000000000000e+00,5.000000000000000000e+00,5.000000000000000000e+00,5.000000000000000000e+00,5.000000000000000000e+00,5.000000000000000000e+00,5.000000000000000000e+00,5.000000000000000000e+00,5.000000000000000000e+00,5.000000000000000000e+00,5.000000000000000000e+00,5.000000000000000000e+00,5.000000000000000000e+00,5.000000000000000000e+00,5.000000000000000000e+00,5.000000000000000000e+00,5.000000000000000000e+00,5.000000000000000000e+00,5.000000000000000000e+00,5.000000000000000000e+00,5.000000000000000000e+00,5.000000000000000000e+00,5.000000000000000000e+00,5.000000000000000000e+00,5.000000000000000000e+00,5.000000000000000000e+00,5.000000000000000000e+00,5.000000000000000000e+00,5.000000000000000000e+00,5.000000000000000000e+00,5.000000000000000000e+00,5.000000000000000000e+00,5.000000000000000000e+00,5.000000000000000000e+00,5.000000000000000000e+00,5.000000000000000000e+00,5.000000000000000000e+00,5.000000000000000000e+00,5.000000000000000000e+00,5.000000000000000000e+00,5.000000000000000000e+00,5.000000000000000000e+00,5.000000000000000000e+00,5.000000000000000000e+00,5.000000000000000000e+00,5.000000000000000000e+00,4.853181838989257812e+00,4.693742752075195312e+00,4.544446468353271484e+00,4.404354572296142578e+00,4.272642135620117188e+00,4.148578166961669922e+00,4.031516075134277344e+00,3.920878648757934570e+00,3.816148996353149414e+00,3.716868877410888672e+00
3.098248243331909180e+00,3.176565170288085938e+00,3.258944272994995117e+00,3.345709562301635742e+00,3.437221527099609375e+00,3.533879995346069336e+00,3.636132717132568359e+00,3.744478464126586914e+00,3.859475612640380859e+00,3.981755256652832031e+00,4.112036705017089844e+00,4.251132488250732422e+00,4.399967670440673828e+00,4.559603214263916016e+00,4.731257915496826172e+00,4.916342735290527344e+00,5.000000000000000000e+00,5.000000000000000000e+00,5.000000000000000000e+00,5.000000000000000000e+00,5.000000000000000000e+00,5.000000000000000000e+00,5.000000000000000000e+00,5.000000000000000000e+00,5.000000000000000000e+00,5.000000000000000000e+00,5.000000000000000000e+00,5.000000000000000000e+00,5.000000000000000000e+00,5.000000000000000000e+00,5.000000000000000000e+00,5.000000000000000000e+00,5.000000000000000000e+00,5.000000000000000000e+00,5.000000000000000000e+00,5.000000000000000000e+00,5.000000000000000000e+00,5.000000000000000000e+00,5.000000000000000000e+00,5.000000000000000000e+00,5.000000000000000000e+00,5.000000000000000000e+00,5.000000000000000000e+00,5.000000000000000000e+00,5.000000000000000000e+00,5.000000000000000000e+00,5.000000000000000000e+00,5.000000000000000000e+00,5.000000000000000000e+00,5.000000000000000000e+00,5.000000000000000000e+00,5.000000000000000000e+00,5.000000000000000000e+00,5.000000000000000000e+00,5.000000000000000000e+00,5.000000000000000000e+00,5.000000000000000000e+00,5.000000000000000000e+00,5.000000000000000000e+00,5.000000000000000000e+00,5.000000000000000000e+00,5.000000000000000000e+00,5.000000000000000000e+00,5.000000000000000000e+00,5.000000000000000000e+00,5.000000000000000000e+00,5.000000000000000000e+00,5.000000000000000000e+00,5.000000000000000000e+00,5.000000000000000000e+00,4.853322982788085938e+00,4.693874359130859375e+00,4.544569969177246094e+00,4.404470920562744141e+00,4.272751331329345703e+00,4.148678302764892578e+00,4.031607151031494141e+00,3.920962810516357422e+00,3.816228866577148438e+00,3.716944694519042969e+00
3.098182916641235352e+00,3.176496267318725586e+00,3.258871793746948242e+00,3.345633268356323242e+00,3.437140941619873047e+00,3.533794879913330078e+00,3.636042356491088867e+00,3.744382619857788086e+00,3.859377861022949219e+00,3.981655597686767578e+00,4.111930847167968750e+00,4.251019001007080078e+00,4.399846076965332031e+00,4.559472560882568359e+00,4.731116771697998047e+00,4.916190624237060547e+00,5.000000000000000000e+00,5.000000000000000000e+00,5.000000000000000000e+00,5.000000000000000000e+00,5.000000000000000000e+00,5.000000000000000000e+00,5.000000000000000000e+00,5.000000000000000000e+00,5.000000000000000000e+00,5.000000000000000000e+00,5.000000000000000000e+00,5.000000000000000000e+00,5.000000000000000000e+00,5.000000000000000000e+00,5.000000000000000000e+00,5.000000000000000000e+00,5.000000000000000000e+00,5.000000000000000000e+00,5.000000000000000000e+00,5.000000000000000000e+00,5.000000000000000000e+00,5.000000000000000000e+00,5.000000000000000000e+00,5.000000000000000000e+00,5.000000000000000000e+00,5.000000000000000000e+00,5.000000000000000000e+00,5.000000000000000000e+00,5.000000000000000000e+00,5.000000000000000000e+00,5.000000000000000000e+00,5.000000000000000000e+00,5.000000000000000000e+00,5.000000000000000000e+00,5.000000000000000000e+00,5.000000000000000000e+00,5.000000000000000000e+00,5.000000000000000000e+00,5.000000000000000000e+00,5.000000000000000000e+00,5.000000000000000000e+00,5.000000000000000000e+00,5.000000000000000000e+00,5.000000000000000000e+00,5.000000000000000000e+00,5.000000000000000000e+00,5.000000000000000000e+00,5.000000000000000000e+00,5.000000000000000000e+00,5.000000000000000000e+00,5.000000000000000000e+00,5.000000000000000000e+00,5.000000000000000000e+00,5.000000000000000000e+00,4.853463649749755859e+00,4.694006443023681641e+00,4.544691085815429688e+00,4.404581069946289062e+00,4.272851467132568359e+00,4.148772716522216797e+00,4.031696319580078125e+00,3.921047210693359375e+00,3.816308736801147461e+00,3.717020273208618164e+00
3.098117351531982422e+00,3.176427364349365234e+00,3.258799314498901367e+00,3.345556735992431641e+00,3.437060356140136719e+00,3.533709526062011719e+00,3.635952234268188477e+00,3.744287014007568359e+00,3.859276294708251953e+00,3.981551647186279297e+00,4.111824512481689453e+00,4.250905513763427734e+00,4.399724483489990234e+00,4.559341907501220703e+00,4.730976104736328125e+00,4.916038513183593750e+00,5.000000000000000000e+00,5.000000000000000000e+00,5.000000000000000000e+00,5.000000000000000000e+00,5.000000000000000000e+00,5.000000000000000000e+00,5.000000000000000000e+00,5.000000000000000000e+00,5.000000000000000000e+00,5.000000000000000000e+00,5.000000000000000000e+00,5.000000000000000000e+00,5.000000000000000000e+00,5.000000000000000000e+00,5.000000000000000000e+00,5.000000000000000000e+00,5.000000000000000000e+00,5.000000000000000000e+00,5.000000000000000000e+00,5.000000000000000000e+00,5.000000000000000000e+00,5.000000000000000000e+00,5.000000000000000000e+00,5.000000000000000000e+00,5.000000000000000000e+00,5.000000000000000000e+00,5.000000000000000000e+00,5.000000000000000000e+00,5.000000000000000000e+00,5.000000000000000000e+00,5.000000000000000000e+00,5.000000000000000000e+00,5.000000000000000000e+00,5.000000000000000000e+00,4.448326587677001953e+00,5.000000000000000000e+00,5.000000000000000000e+00,5.000000000000000000e+00,5.000000000000000000e+00,5.000000000000000000e+00,5.000000000000000000e+00,5.000000000000000000e+00,5.000000000000000000e+00,5.000000000000000000e+00,5.000000000000000000e+00,5.000000000000000000e+00,5.000000000000000000e+00,5.000000000000000000e+00,5.000000000000000000e+00,5.000000000000000000e+00,5.000000000000000000e+00,5.000000000000000000e+00,5.000000000000000000e+00,5.000000000000000000e+00,4.853598117828369141e+00,4.694128513336181641e+00,4.544804096221923828e+00,4.404687404632568359e+00,4.272951602935791016e+00,4.148866653442382812e+00,4.031785488128662109e+00,3.921131610870361328e+00,3.816388607025146484e+00,3.717096090316772461e+00
3.098051786422729492e+00,3.176358461380004883e+00,3.258726835250854492e+00,3.345480442047119141e+00,3.436979770660400391e+00,3.533624410629272461e+00,3.635861873626708984e+00,3.744191408157348633e+00,3.859174728393554688e+00,3.981443405151367188e+00,4.111713886260986328e+00,4.250791549682617188e+00,4.399602890014648438e+00,4.559210777282714844e+00,4.730835914611816406e+00,4.915886878967285156e+00,5.000000000000000000e+00,5.000000000000000000e+00,5.000000000000000000e+00,5.000000000000000000e+00,5.000000000000000000e+00,5.000000000000000000e+00,5.000000000000000000e+00,5.000000000000000000e+00,5.000000000000000000e+00,5.000000000000000000e+00,5.000000000000000000e+00,5.000000000000000000e+00,5.000000000000000000e+00,5.000000000000000000e+00,5.000000000000000000e+00,5.000000000000000000e+00,5.000000000000000000e+00,5.000000000000000000e+00,5.000000000000000000e+00,5.000000000000000000e+00,5.000000000000000000e+00,5.000000000000000000e+00,5.000000000000000000e+00,5.000000000000000000e+00,5.000000000000000000e+00,5.000000000000000000e+00,5.000000000000000000e+00,5.000000000000000000e+00,5.000000000000000000e+00,5.000000000000000000e+00,5.000000000000000000e+00,5.000000000000000000e+00,5.000000000000000000e+00,4.561803817749023438e+00,4.448190212249755859e+00,5.000000000000000000e+00,5.000000000000000000e+00,5.000000000000000000e+00,5.000000000000000000e+00,5.000000000000000000e+00,5.000000000000000000e+00,5.000000000000000000e+00,5.000000000000000000e+00,5.000000000000000000e+00,5.000000000000000000e+00,5.000000000000000000e+00,5.000000000000000000e+00,5.000000000000000000e+00,5.000000000000000000e+00,5.000000000000000000e+00,5.000000000000000000e+00,5.000000000000000000e+00,5.000000000000000000e+00,5.000000000000000000e+00,4.853727340698242188e+00,4.694249153137207031e+00,4.544917583465576172e+00,4.404793739318847656e+00,4.273051738739013672e+00,4.148961067199707031e+00,4.031874656677246094e+00,3.921215772628784180e+00,3.816468477249145508e+00,3.717171907424926758e+00
3.097986221313476562e+00,3.176289796829223633e+00,3.258654356002807617e+00,3.345404148101806641e+00,3.436899185180664062e+00,3.533539056777954102e+00,3.635771751403808594e+00,3.744095563888549805e+00,3.859073162078857422e+00,3.981335401535034180e+00,4.111598491668701172e+00,4.250673770904541016e+00,4.399481296539306641e+00,4.559080123901367188e+00,4.730695247650146484e+00,4.915734767913818359e+00,5.000000000000000000e+00,5.000000000000000000e+00,5.000000000000000000e+00,5.000000000000000000e+00,5.000000000000000000e+00,5.000000000000000000e+00,5.000000000000000000e+00,5.000000000000000000e+00,5.000000000000000000e+00,5.000000000000000000e+00,5.000000000000000000e+00,5.000000000000000000e+00,5.000000000000000000e+00,5.000000000000000000e+00,5.000000000000000000e+00,5.000000000000000000e+00,5.000000000000000000e+00,5.000000000000000000e+00,5.000000000000000000e+00,5.000000000000000000e+00,5.000000000000000000e+00,5.000000000000000000e+00,5.000000000000000000e+00,5.000000000000000000e+00,5.000000000000000000e+00,5.000000000000000000e+00,5.000000000000000000e+00,5.000000000000000000e+00,5.000000000000000000e+00,5.000000000000000000e+00,5.000000000000000000e+00,5.000000000000000000e+00,5.000000000000000000e+00,5.000000000000000000e+00,4.530817031860351562e+00,5.000000000000000000e+00,5.000000000000000000e+00,5.000000000000000000e+00,5.000000000000000000e+00,5.000000000000000000e+00,5.000000000000000000e+00,5.000000000000000000e+00,5.000000000000000000e+00,5.000000000000000000e+00,5.000000000000000000e+00,5.000000000000000000e+00,5.000000000000000000e+00,5.000000000000000000e+00,5.000000000000000000e+00,5.000000000000000000e+00,5.000000000000000000e+00,5.000000000000000000e+00,5.000000000000000000e+00,5.000000000000000000e+00,4.853856563568115234e+00,4.694369792938232422e+00,4.545030593872070312e+00,4.404900074005126953e+00,4.273151874542236328e+00,4.149055480957031250e+00,4.031963825225830078e+00,3.921300172805786133e+00,3.816548347473144531e+00,3.717247247695922852e+00
3.097920894622802734e+00,3.176220893859863281e+00,3.258581876754760742e+00,3.345327615737915039e+00,3.436818599700927734e+00,3.533453941345214844e+00,3.635681629180908203e+00,3.743999958038330078e+00,3.858971357345581055e+00,3.981227159500122070e+00,4.111483097076416016e+00,4.250550270080566406e+00,4.399354934692382812e+00,4.558949470520019531e+00,4.730554103851318359e+00,4.915582656860351562e+00,5.000000000000000000e+00,5.000000000000000000e+00,5.000000000000000000e+00,5.000000000000000000e+00,5.000000000000000000e+00,5.000000000000000000e+00,5.000000000000000000e+00,5.000000000000000000e+00,5.000000000000000000e+00,5.000000000000000000e+00,5.000000000000000000e+00,5.000000000000000000e+00,5.000000000000000000e+00,5.000000000000000000e+00,5.000000000000000000e+00,5.000000000000000000e+00,5.000000000000000000e+00,5.000000000000000000e+00,5.000000000000000000e+00,5.000000000000000000e+00,5.000000000000000000e+00,5.000000000000000000e+00,5.000000000000000000e+00,5.000000000000000000e+00,5.000000000000000000e+00,5.000000000000000000e+00,5.000000000000000000e+00,5.000000000000000000e+00,5.000000000000000000e+00,5.000000000000000000e+00,5.000000000000000000e+00,4.539847850799560547e+00,4.519162178039550781e+00,4.492491722106933594e+00,4.495306968688964844e+00,4.486968040466308594e+00,4.512884140014648438e+00,5.000000000000000000e+00,5.000000000000000000e+00,5.000000000000000000e+00,5.000000000000000000e+00,5.000000000000000000e+00,5.000000000000000000e+00,5.000000000000000000e+00,5.000000000000000000e+00,5.000000000000000000e+00,5.000000000000000000e+00,5.000000000000000000e+00,5.000000000000000000e+00,5.000000000000000000e+00,5.000000000000000000e+00,5.000000000000000000e+00,5.000000000000000000e+00,5.000000000000000000e+00,4.853985786437988281e+00,4.694490909576416016e+00,4.545144081115722656e+00,4.405006408691406250e+00,4.273252010345458984e+00,4.149149894714355469e+00,4.032052993774414062e+00,3.921384572982788086e+00,3.816628217697143555e+00,3.717323064804077148e+00
3.097855329513549805e+00,3.176152229309082031e+00,3.258509397506713867e+00,3.345251560211181641e+00,3.436738014221191406e+00,3.533369064331054688e+00,3.635591268539428711e+00,3.743904829025268555e+00,3.858869791030883789e+00,3.981119394302368164e+00,4.111368179321289062e+00,4.250427246093750000e+00,4.399223327636718750e+00,4.558814525604248047e+00,4.730413436889648438e+00,4.915431022644042969e+00,5.000000000000000000e+00,5.000000000000000000e+00,5.000000000000000000e+00,5.000000000000000000e+00,5.000000000000000000e+00,5.000000000000000000e+00,5.000000000000000000e+00,5.000000000000000000e+00,5.000000000000000000e+00,5.000000000000000000e+00,5.000000000000000000e+00,5.000000000000000000e+00,5.000000000000000000e+00,5.000000000000000000e+00,5.000000000000000000e+00,5.000000000000000000e+00,5.000000000000000000e+00,5.000000000000000000e+00,5.000000000000000000e+00,5.000000000000000000e+00,5.000000000000000000e+00,5.000000000000000000e+00,5.000000000000000000e+00,5.000000000000000000e+00,5.000000000000000000e+00,5.000000000000000000e+00,5.000000000000000000e+00,5.000000000000000000e+00,5.000000000000000000e+00,5.000000000000000000e+00,5.000000000000000000e+00,4.523110866546630859e+00,4.498534202575683594e+00,4.448293209075927734e+00,4.434694290161132812e+00,4.439406394958496094e+00,4.503707408905029297e+00,4.547590255737304688e+00,5.000000000000000000e+00,5.000000000000000000e+00,5.000000000000000000e+00,5.000000000000000000e+00,5.000000000000000000e+00,5.000000000000000000e+00,5.000000000000000000e+00,5.000000000000000000e+00,5.000000000000000000e+00,5.000000000000000000e+00,5.000000000000000000e+00,5.000000000000000000e+00,5.000000000000000000e+00,5.000000000000000000e+00,5.000000000000000000e+00,5.000000000000000000e+00,4.854115009307861328e+00,4.694611549377441406e+00,4.545257568359375000e+00,4.405112743377685547e+00,4.273352146148681641e+00,4.149244308471679688e+00,4.032142162322998047e+00,3.921468734741210938e+00,3.816708087921142578e+00,3.717398881912231445e+00
3.097761154174804688e+00,3.176069974899291992e+00,3.258436918258666992e+00,3.345175266265869141e+00,3.436657428741455078e+00,3.533283948898315430e+00,3.635501146316528320e+00,3.743808984756469727e+00,3.858768224716186523e+00,3.981011390686035156e+00,4.111252784729003906e+00,4.250304222106933594e+00,4.399091243743896484e+00,4.558672904968261719e+00,4.730268001556396484e+00,4.915278911590576172e+00,5.000000000000000000e+00,5.000000000000000000e+00,5.000000000000000000e+00,5.000000000000000000e+00,5.000000000000000000e+00,5.000000000000000000e+00,5.000000000000000000e+00,5.000000000000000000e+00,5.000000000000000000e+00,5.000000000000000000e+00,5.000000000000000000e+00,5.000000000000000000e+00,5.000000000000000000e+00,5.000000000000000000e+00,5.000000000000000000e+00,5.000000000000000000e+00,5.000000000000000000e+00,5.000000000000000000e+00,5.000000000000000000e+00,5.000000000000000000e+00,5.000000000000000000e+00,5.000000000000000000e+00,5.000000000000000000e+00,5.000000000000000000e+00,5.000000000000000000e+00,5.000000000000000000e+00,5.000000000000000000e+00,5.000000000000000000e+00,5.000000000000000000e+00,5.000000000000000000e+00,5.000000000000000000e+00,4.545492649078369141e+00,4.531496047973632812e+00,4.463874816894531250e+00,4.435914993286132812e+00,4.448853015899658203e+00,4.555772304534912109e+00,4.568060874938964844e+00,5.000000000000000000e+00,5.000000000000000000e+00,5.000000000000000000e+00,5.000000000000000000e+00,5.000000000000000000e+00,5.000000000000000000e+00,5.000000000000000000e+00,5.000000000000000000e+00,5.000000000000000000e+00,5.000000000000000000e+00,5.000000000000000000e+00,5.000000000000000000e+00,5.000000000000000000e+00,5.000000000000000000e+00,5.000000000000000000e+00,5.000000000000000000e+00,4.854244232177734375e+00,4.694732666015625000e+00,4.545370101928710938e+00,4.405219078063964844e+00,4.273452281951904297e+00,4.149338722229003906e+00,4.032231330871582031e+00,3.921552658081054688e+00,3.816787958145141602e+00,3.717474699020385742e+00
3.097661733627319336e+00,3.175965070724487305e+00,3.258330106735229492e+00,3.345080614089965820e+00,3.436577081680297852e+00,3.533198595046997070e+00,3.635411024093627930e+00,3.743713378906250000e+00,3.858666658401489258e+00,3.980903148651123047e+00,4.111137390136718750e+00,4.250180721282958984e+00,4.398959159851074219e+00,4.558530807495117188e+00,4.730115413665771484e+00,4.915122509002685547e+00,5.000000000000000000e+00,5.000000000000000000e+00,5.000000000000000000e+00,5.000000000000000000e+00,5.000000000000000000e+00,5.000000000000000000e+00,5.000000000000000000e+00,5.000000000000000000e+00,5.000000000000000000e+00,5.000000000000000000e+00,5.000000000000000000e+00,5.000000000000000000e+00,5.000000000000000000e+00,5.000000000000000000e+00,5.000000000000000000e+00,5.000000000000000000e+00,5.000000000000000000e+00,5.000000000000000000e+00,5.000000000000000000e+00,5.000000000000000000e+00,5.000000000000000000e+00,5.000000000000000000e+00,5.000000000000000000e+00,5.000000000000000000e+00,5.000000000000000000e+00,5.000000000000000000e+00,5.000000000000000000e+00,5.000000000000000000e+00,5.000000000000000000e+00,5.000000000000000000e+00,5.000000000000000000e+00,4.542878627777099609e+00,4.525328636169433594e+00,4.461105823516845703e+00,4.436013698577880859e+00,4.445031166076660156e+00,4.563006877899169922e+00,4.580154895782470703e+00,5.000000000000000000e+00,5.000000000000000000e+00,5.000000000000000000e+00,5.000000000000000000e+00,5.000000000000000000e+00,5.000000000000000000e+00,5.000000000000000000e+00,5.000000000000000000e+00,5.000000000000000000e+00,5.000000000000000000e+00,5.000000000000000000e+00,5.000000000000000000e+00,5.000000000000000000e+00,5.000000000000000000e+00,5.000000000000000000e+00,5.000000000000000000e+00,4.854373455047607422e+00,4.694853305816650391e+00,4.545483589172363281e+00,4.405325412750244141e+00,4.273552417755126953e+00,4.149433135986328125e+00,4.032320499420166016e+00,3.921637058258056641e+00,3.816867828369140625e+00,3.717550516128540039e+00
3.097562313079833984e+00,3.175860404968261719e+00,3.258219957351684570e+00,3.344964504241943359e+00,3.436454534530639648e+00,3.533089637756347656e+00,3.635317564010620117e+00,3.743617773056030273e+00,3.858564853668212891e+00,3.980794906616210938e+00,4.111021995544433594e+00,4.250057697296142578e+00,4.398827075958251953e+00,4.558389186859130859e+00,4.729962825775146484e+00,4.914957523345947266e+00,5.000000000000000000e+00,5.000000000000000000e+00,5.000000000000000000e+00,5.000000000000000000e+00,5.000000000000000000e+00,5.000000000000000000e+00,5.000000000000000000e+00,5.000000000000000000e+00,5.000000000000000000e+00,5.000000000000000000e+00,5.000000000000000000e+00,5.000000000000000000e+00,5.000000000000000000e+00,5.000000000000000000e+00,5.000000000000000000e+00,5.000000000000000000e+00,5.000000000000000000e+00,5.000000000000000000e+00,5.000000000000000000e+00,5.000000000000000000e+00,5.000000000000000000e+00,5.000000000000000000e+00,5.000000000000000000e+00,5.000000000000000000e+00,5.000000000000000000e+00,5.000000000000000000e+00,5.000000000000000000e+00,5.000000000000000000e+00,5.000000000000000000e+00,5.000000000000000000e+00,5.000000000000000000e+00,4.545755863189697266e+00,4.548723697662353516e+00,4.450314521789550781e+00,4.436743736267089844e+00,4.437178134918212891e+00,4.590749263763427734e+00,4.601215839385986328e+00,5.000000000000000000e+00,5.000000000000000000e+00,5.000000000000000000e+00,5.000000000000000000e+00,5.000000000000000000e+00,5.000000000000000000e+00,5.000000000000000000e+00,5.000000000000000000e+00,5.000000000000000000e+00,5.000000000000000000e+00,5.000000000000000000e+00,5.000000000000000000e+00,5.000000000000000000e+00,5.000000000000000000e+00,5.000000000000000000e+00,5.000000000000000000e+00,4.854502677917480469e+00,4.694973945617675781e+00,4.545597076416015625e+00,4.405431747436523438e+00,4.273652553558349609e+00,4.149527549743652344e+00,4.032409667968750000e+00,3.921721220016479492e+00,3.816947698593139648e+00,3.717626094818115234e+00
3.097492933273315430e+00,3.175770998001098633e+00,3.258109807968139648e+00,3.344848394393920898e+00,3.436331748962402344e+00,3.532960176467895508e+00,3.635180234909057617e+00,3.743491649627685547e+00,3.858455419540405273e+00,3.980686902999877930e+00,4.110906600952148438e+00,4.249934196472167969e+00,4.398694992065429688e+00,4.558247089385986328e+00,4.729810237884521484e+00,4.914792537689208984e+00,5.000000000000000000e+00,5.000000000000000000e+00,5.000000000000000000e+00,5.000000000000000000e+00,5.000000000000000000e+00,5.000000000000000000e+00,5.000000000000000000e+00,5.000000000000000000e+00,5.000000000000000000e+00,5.000000000000000000e+00,5.000000000000000000e+00,5.000000000000000000e+00,5.000000000000000000e+00,5.000000000000000000e+00,5.000000000000000000e+00,5.000000000000000000e+00,5.000000000000000000e+00,5.000000000000000000e+00,5.000000000000000000e+00,5.000000000000000000e+00,5.000000000000000000e+00,5.000000000000000000e+00,5.000000000000000000e+00,5.000000000000000000e+00,5.000000000000000000e+00,5.000000000000000000e+00,5.000000000000000000e+00,5.000000000000000000e+00,5.000000000000000000e+00,5.000000000000000000e+00,5.000000000000000000e+00,4.508709907531738281e+00,4.528896331787109375e+00,4.459233283996582031e+00,4.435613632202148438e+00,4.453582763671875000e+00,4.581700801849365234e+00,4.574966907501220703e+00,5.000000000000000000e+00,5.000000000000000000e+00,5.000000000000000000e+00,5.000000000000000000e+00,5.000000000000000000e+00,5.000000000000000000e+00,5.000000000000000000e+00,5.000000000000000000e+00,5.000000000000000000e+00,5.000000000000000000e+00,5.000000000000000000e+00,5.000000000000000000e+00,5.000000000000000000e+00,5.000000000000000000e+00,5.000000000000000000e+00,5.000000000000000000e+00,4.854631423950195312e+00,4.695095062255859375e+00,4.545710086822509766e+00,4.405538082122802734e+00,4.273752689361572266e+00,4.149621963500976562e+00,4.032498836517333984e+00,3.921805620193481445e+00,3.817027568817138672e+00,3.717701911926269531e+00
3.097427606582641602e+00,3.175702333450317383e+00,3.258035898208618164e+00,3.344752073287963867e+00,3.436210870742797852e+00,3.532830715179443359e+00,3.635043144226074219e+00,3.743346214294433594e+00,3.858300924301147461e+00,3.980540037155151367e+00,4.110777854919433594e+00,4.249811172485351562e+00,4.398562908172607422e+00,4.558105468750000000e+00,4.729657649993896484e+00,4.914628028869628906e+00,5.000000000000000000e+00,5.000000000000000000e+00,5.000000000000000000e+00,5.000000000000000000e+00,5.000000000000000000e+00,5.000000000000000000e+00,5.000000000000000000e+00,5.000000000000000000e+00,5.000000000000000000e+00,5.000000000000000000e+00,5.000000000000000000e+00,5.000000000000000000e+00,5.000000000000000000e+00,5.000000000000000000e+00,5.000000000000000000e+00,5.000000000000000000e+00,5.000000000000000000e+00,5.000000000000000000e+00,5.000000000000000000e+00,5.000000000000000000e+00,5.000000000000000000e+00,5.000000000000000000e+00,5.000000000000000000e+00,5.000000000000000000e+00,5.000000000000000000e+00,5.000000000000000000e+00,5.000000000000000000e+00,5.000000000000000000e+00,5.000000000000000000e+00,5.000000000000000000e+00,5.000000000000000000e+00,4.467257022857666016e+00,4.520549774169921875e+00,4.466030597686767578e+00,4.472394943237304688e+00,4.410923957824707031e+00,5.000000000000000000e+00,4.547044754028320312e+00,5.000000000000000000e+00,5.000000000000000000e+00,5.000000000000000000e+00,5.000000000000000000e+00,5.000000000000000000e+00,5.000000000000000000e+00,5.000000000000000000e+00,5.000000000000000000e+00,5.000000000000000000e+00,5.000000000000000000e+00,5.000000000000000000e+00,5.000000000000000000e+00,5.000000000000000000e+00,5.000000000000000000e+00,5.000000000000000000e+00,5.000000000000000000e+00,4.854760646820068359e+00,4.695215702056884766e+00,4.545823574066162109e+00,4.405644893646240234e+00,4.273852825164794922e+00,4.149716377258300781e+00,4.032588005065917969e+00,3.921890020370483398e+00,3.817107677459716797e+00,3.717777729034423828e+00
3.097362041473388672e+00,3.175633430480957031e+00,3.257963418960571289e+00,3.344675779342651367e+00,3.436130285263061523e+00,3.532726526260375977e+00,3.634911060333251953e+00,3.743200540542602539e+00,3.858146667480468750e+00,3.980375051498413086e+00,4.110602378845214844e+00,4.249638557434082031e+00,4.398409843444824219e+00,4.557963848114013672e+00,4.729504585266113281e+00,4.914463043212890625e+00,5.000000000000000000e+00,5.000000000000000000e+00,5.000000000000000000e+00,5.000000000000000000e+00,5.000000000000000000e+00,5.000000000000000000e+00,5.000000000000000000e+00,5.000000000000000000e+00,5.000000000000000000e+00,5.000000000000000000e+00,5.000000000000000000e+00,5.000000000000000000e+00,5.000000000000000000e+00,5.000000000000000000e+00,5.000000000000000000e+00,5.000000000000000000e+00,5.000000000000000000e+00,5.000000000000000000e+00,5.000000000000000000e+00,5.000000000000000000e+00,5.000000000000000000e+00,5.000000000000000000e+00,5.000000000000000000e+00,5.000000000000000000e+00,5.000000000000000000e+00,5.000000000000000000e+00,5.000000000000000000e+00,5.000000000000000000e+00,5.000000000000000000e+00,5.000000000000000000e+00,5.000000000000000000e+00,4.431803226470947266e+00,4.517788887023925781e+00,4.460402011871337891e+00,4.469893932342529297e+00,4.369216918945312500e+00,4.387440681457519531e+00,4.536419391632080078e+00,5.000000000000000000e+00,5.000000000000000000e+00,5.000000000000000000e+00,5.000000000000000000e+00,5.000000000000000000e+00,5.000000000000000000e+00,5.000000000000000000e+00,5.000000000000000000e+00,5.000000000000000000e+00,5.000000000000000000e+00,5.000000000000000000e+00,5.000000000000000000e+00,5.000000000000000000e+00,5.000000000000000000e+00,5.000000000000000000e+00,5.000000000000000000e+00,4.854890346527099609e+00,4.695336818695068359e+00,4.545937061309814453e+00,4.405751228332519531e+00,4.273952484130859375e+00,4.149810791015625000e+00,4.032677173614501953e+00,3.921974420547485352e+00,3.817187547683715820e+00,3.717853546142578125e+00
3.097296476364135742e+00,3.175564527511596680e+00,3.257890939712524414e+00,3.344599485397338867e+00,3.436049699783325195e+00,3.532641410827636719e+00,3.634820938110351562e+00,3.743087291717529297e+00,3.858001470565795898e+00,3.980210781097412109e+00,4.110426902770996094e+00,4.249451160430908203e+00,4.398209095001220703e+00,4.557759761810302734e+00,4.729321479797363281e+00,4.914298057556152344e+00,5.000000000000000000e+00,5.000000000000000000e+00,5.000000000000000000e+00,5.000000000000000000e+00,5.000000000000000000e+00,5.000000000000000000e+00,5.000000000000000000e+00,5.000000000000000000e+00,5.000000000000000000e+00,5.000000000000000000e+00,5.000000000000000000e+00,5.000000000000000000e+00,5.000000000000000000e+00,5.000000000000000000e+00,5.000000000000000000e+00,5.000000000000000000e+00,5.000000000000000000e+00,5.000000000000000000e+00,5.000000000000000000e+00,5.000000000000000000e+00,5.000000000000000000e+00,5.000000000000000000e+00,5.000000000000000000e+00,5.000000000000000000e+00,5.000000000000000000e+00,5.000000000000000000e+00,5.000000000000000000e+00,5.000000000000000000e+00,5.000000000000000000e+00,5.000000000000000000e+00,5.000000000000000000e+00,4.379578113555908203e+00,4.541599750518798828e+00,4.472589492797851562e+00,5.000000000000000000e+00,4.337008476257324219e+00,4.343977928161621094e+00,4.494560718536376953e+00,5.000000000000000000e+00,5.000000000000000000e+00,5.000000000000000000e+00,5.000000000000000000e+00,5.000000000000000000e+00,5.000000000000000000e+00,5.000000000000000000e+00,5.000000000000000000e+00,5.000000000000000000e+00,5.000000000000000000e+00,5.000000000000000000e+00,5.000000000000000000e+00,5.000000000000000000e+00,5.000000000000000000e+00,5.000000000000000000e+00,5.000000000000000000e+00,4.855019569396972656e+00,4.695457458496093750e+00,4.546050071716308594e+00,4.405857086181640625e+00,4.274052619934082031e+00,4.149905204772949219e+00,4.032766342163085938e+00,3.922058820724487305e+00,3.817267417907714844e+00,3.717929840087890625e+00
3.097231149673461914e+00,3.175495862960815430e+00,3.257818460464477539e+00,3.344522953033447266e+00,3.435969352722167969e+00,3.532556295394897461e+00,3.634730815887451172e+00,3.742991685867309570e+00,3.857899904251098633e+00,3.980087041854858398e+00,4.110266685485839844e+00,4.249263763427734375e+00,4.398008346557617188e+00,4.557543754577636719e+00,4.729089736938476562e+00,4.914054393768310547e+00,5.000000000000000000e+00,5.000000000000000000e+00,5.000000000000000000e+00,5.000000000000000000e+00,5.000000000000000000e+00,5.000000000000000000e+00,5.000000000000000000e+00,5.000000000000000000e+00,5.000000000000000000e+00,5.000000000000000000e+00,5.000000000000000000e+00,5.000000000000000000e+00,5.000000000000000000e+00,5.000000000000000000e+00,5.000000000000000000e+00,5.000000000000000000e+00,5.000000000000000000e+00,5.000000000000000000e+00,5.000000000000000000e+00,5.000000000000000000e+00,5.000000000000000000e+00,5.000000000000000000e+00,5.000000000000000000e+00,5.000000000000000000e+00,5.000000000000000000e+00,5.000000000000000000e+00,5.000000000000000000e+00,5.000000000000000000e+00,5.000000000000000000e+00,5.000000000000000000e+00,5.000000000000000000e+00,5.000000000000000000e+00,5.000000000000000000e+00,4.489234447479248047e+00,5.000000000000000000e+00,4.299925327301025391e+00,4.286171436309814453e+00,5.000000000000000000e+00,5.000000000000000000e+00,5.000000000000000000e+00,5.000000000000000000e+00,5.000000000000000000e+00,5.000000000000000000e+00,5.000000000000000000e+00,5.000000000000000000e+00,5.000000000000000000e+00,5.000000000000000000e+00,5.000000000000000000e+00,5.000000000000000000e+00,5.000000000000000000e+00,5.000000000000000000e+00,5.000000000000000000e+00,5.000000000000000000e+00,5.000000000000000000e+00,4.855148792266845703e+00,4.695578575134277344e+00,4.546163558959960938e+00,4.405963897705078125e+00,4.274153232574462891e+00,4.149999618530273438e+00,4.032855510711669922e+00,3.922145843505859375e+00,3.817352533340454102e+00,3.718013048171997070e+00
3.097165584564208984e+00,3.175426959991455078e+00,3.257745981216430664e+00,3.344446659088134766e+00,3.435888767242431641e+00,3.532471179962158203e+00,3.634640693664550781e+00,3.742896080017089844e+00,3.857798337936401367e+00,3.979979038238525391e+00,4.110151767730712891e+00,4.249126911163330078e+00,4.397830009460449219e+00,4.557328701019287109e+00,4.728857517242431641e+00,4.913803577423095703e+00,5.000000000000000000e+00,5.000000000000000000e+00,5.000000000000000000e+00,5.000000000000000000e+00,5.000000000000000000e+00,5.000000000000000000e+00,5.000000000000000000e+00,5.000000000000000000e+00,5.000000000000000000e+00,5.000000000000000000e+00,5.000000000000000000e+00,5.000000000000000000e+00,5.000000000000000000e+00,5.000000000000000000e+00,5.000000000000000000e+00,5.000000000000000000e+00,5.000000000000000000e+00,5.000000000000000000e+00,5.000000000000000000e+00,5.000000000000000000e+00,5.000000000000000000e+00,5.000000000000000000e+00,5.000000000000000000e+00,5.000000000000000000e+00,5.000000000000000000e+00,5.000000000000000000e+00,5.000000000000000000e+00,5.000000000000000000e+00,5.000000000000000000e+00,5.000000000000000000e+00,5.000000000000000000e+00,5.000000000000000000e+00,5.000000000000000000e+00,4.501527786254882812e+00,4.578888416290283203e+00,4.282227993011474609e+00,4.249607086181640625e+00,5.000000000000000000e+00,5.000000000000000000e+00,5.000000000000000000e+00,5.000000000000000000e+00,5.000000000000000000e+00,5.000000000000000000e+00,5.000000000000000000e+00,5.000000000000000000e+00,5.000000000000000000e+00,5.000000000000000000e+00,5.000000000000000000e+00,5.000000000000000000e+00,5.000000000000000000e+00,5.000000000000000000e+00,5.000000000000000000e+00,5.000000000000000000e+00,5.000000000000000000e+00,4.855278015136718750e+00,4.695699214935302734e+00,4.546276569366455078e+00,4.406070232391357422e+00,4.274255275726318359e+00,4.150099277496337891e+00,4.032952308654785156e+00,3.922237873077392578e+00,3.817439794540405273e+00,3.718095779418945312e+00
3.097100257873535156e+00,3.175358295440673828e+00,3.257673740386962891e+00,3.344370365142822266e+00,3.435808181762695312e+00,3.532386064529418945e+00,3.634550571441650391e+00,3.742800474166870117e+00,3.857696771621704102e+00,3.979871034622192383e+00,4.110036373138427734e+00,4.249003887176513672e+00,4.397697925567626953e+00,4.557176589965820312e+00,4.728657245635986328e+00,4.913552761077880859e+00,5.000000000000000000e+00,5.000000000000000000e+00,5.000000000000000000e+00,5.000000000000000000e+00,5.000000000000000000e+00,5.000000000000000000e+00,5.000000000000000000e+00,5.000000000000000000e+00,5.000000000000000000e+00,5.000000000000000000e+00,5.000000000000000000e+00,5.000000000000000000e+00,5.000000000000000000e+00,5.000000000000000000e+00,5.000000000000000000e+00,5.000000000000000000e+00,5.000000000000000000e+00,5.000000000000000000e+00,5.000000000000000000e+00,5.000000000000000000e+00,5.000000000000000000e+00,5.000000000000000000e+00,5.000000000000000000e+00,5.000000000000000000e+00,5.000000000000000000e+00,5.000000000000000000e+00,5.000000000000000000e+00,5.000000000000000000e+00,5.000000000000000000e+00,5.000000000000000000e+00,5.000000000000000000e+00,5.000000000000000000e+00,5.000000000000000000e+00,4.517662048339843750e+00,4.582622528076171875e+00,4.310322761535644531e+00,4.284971714019775391e+00,5.000000000000000000e+00,5.000000000000000000e+00,5.000000000000000000e+00,5.000000000000000000e+00,5.000000000000000000e+00,5.000000000000000000e+00,5.000000000000000000e+00,5.000000000000000000e+00,5.000000000000000000e+00,5.000000000000000000e+00,5.000000000000000000e+00,5.000000000000000000e+00,5.000000000000000000e+00,5.000000000000000000e+00,5.000000000000000000e+00,5.000000000000000000e+00,5.000000000000000000e+00,4.855407238006591797e+00,4.695820808410644531e+00,4.546394824981689453e+00,4.406185150146484375e+00,4.274364948272705078e+00,4.150202751159667969e+00,4.033050060272216797e+00,3.922330617904663086e+00,3.817527532577514648e+00,3.718178987503051758e+00
3.097034692764282227e+00,3.175289392471313477e+00,3.257601261138916016e+00,3.344294071197509766e+00,3.435727596282958984e+00,3.532300949096679688e+00,3.634460449218750000e+00,3.742704868316650391e+00,3.857595205307006836e+00,3.979762792587280273e+00,4.109920978546142578e+00,4.248880386352539062e+00,4.397566318511962891e+00,4.557034969329833984e+00,4.728504180908203125e+00,4.913383007049560547e+00,5.000000000000000000e+00,5.000000000000000000e+00,5.000000000000000000e+00,5.000000000000000000e+00,5.000000000000000000e+00,5.000000000000000000e+00,5.000000000000000000e+00,5.000000000000000000e+00,5.000000000000000000e+00,5.000000000000000000e+00,5.000000000000000000e+00,5.000000000000000000e+00,5.000000000000000000e+00,5.000000000000000000e+00,5.000000000000000000e+00,5.000000000000000000e+00,5.000000000000000000e+00,5.000000000000000000e+00,5.000000000000000000e+00,5.000000000000000000e+00,5.000000000000000000e+00,5.000000000000000000e+00,5.000000000000000000e+00,5.000000000000000000e+00,5.000000000000000000e+00,5.000000000000000000e+00,5.000000000000000000e+00,5.000000000000000000e+00,5.000000000000000000e+00,5.000000000000000000e+00,5.000000000000000000e+00,5.000000000000000000e+00,5.000000000000000000e+00,4.578426837921142578e+00,5.000000000000000000e+00,4.332326412200927734e+00,4.309771060943603516e+00,5.000000000000000000e+00,5.000000000000000000e+00,5.000000000000000000e+00,5.000000000000000000e+00,5.000000000000000000e+00,5.000000000000000000e+00,5.000000000000000000e+00,5.000000000000000000e+00,5.000000000000000000e+00,5.000000000000000000e+00,5.000000000000000000e+00,5.000000000000000000e+00,5.000000000000000000e+00,5.000000000000000000e+00,5.000000000000000000e+00,5.000000000000000000e+00,5.000000000000000000e+00,4.855545043945312500e+00,4.695953369140625000e+00,4.546518802642822266e+00,4.406301975250244141e+00,4.274474620819091797e+00,4.150306224822998047e+00,4.033148288726806641e+00,3.922423124313354492e+00,3.817615270614624023e+00,3.718262195587158203e+00
3.096969366073608398e+00,3.175220489501953125e+00,3.257528781890869141e+00,3.344217777252197266e+00,3.435647010803222656e+00,3.532215595245361328e+00,3.634370326995849609e+00,3.742609262466430664e+00,3.857493638992309570e+00,3.979654788970947266e+00,4.109805583953857422e+00,4.248757362365722656e+00,4.397434234619140625e+00,4.556893348693847656e+00,4.728351593017578125e+00,4.913218021392822266e+00,5.000000000000000000e+00,5.000000000000000000e+00,5.000000000000000000e+00,5.000000000000000000e+00,5.000000000000000000e+00,5.000000000000000000e+00,5.000000000000000000e+00,5.000000000000000000e+00,5.000000000000000000e+00,5.000000000000000000e+00,5.000000000000000000e+00,5.000000000000000000e+00,5.000000000000000000e+00,5.000000000000000000e+00,5.000000000000000000e+00,5.000000000000000000e+00,5.000000000000000000e+00,5.000000000000000000e+00,5.000000000000000000e+00,5.000000000000000000e+00,5.000000000000000000e+00,5.000000000000000000e+00,5.000000000000000000e+00,5.000000000000000000e+00,5.000000000000000000e+00,5.000000000000000000e+00,5.000000000000000000e+00,5.000000000000000000e+00,5.000000000000000000e+00,5.000000000000000000e+00,5.000000000000000000e+00,5.000000000000000000e+00,5.000000000000000000e+00,4.622582912445068359e+00,5.000000000000000000e+00,4.341387748718261719e+00,4.310070514678955078e+00,5.000000000000000000e+00,5.000000000000000000e+00,5.000000000000000000e+00,5.000000000000000000e+00,5.000000000000000000e+00,5.000000000000000000e+00,5.000000000000000000e+00,5.000000000000000000e+00,5.000000000000000000e+00,5.000000000000000000e+00,5.000000000000000000e+00,5.000000000000000000e+00,5.000000000000000000e+00,5.000000000000000000e+00,5.000000000000000000e+00,5.000000000000000000e+00,5.000000000000000000e+00,4.855686664581298828e+00,4.696085929870605469e+00,4.546643257141113281e+00,4.406418323516845703e+00,4.274584770202636719e+00,4.150409698486328125e+00,4.033245563507080078e+00,3.922515392303466797e+00,3.817702531814575195e+00,3.718345165252685547e+00
3.096903800964355469e+00,3.175151824951171875e+00,3.257456302642822266e+00,3.344141483306884766e+00,3.435566425323486328e+00,3.532130479812622070e+00,3.634279966354370117e+00,3.742513656616210938e+00,3.857392072677612305e+00,3.979546785354614258e+00,4.109690666198730469e+00,4.248634338378906250e+00,4.397302150726318359e+00,4.556751251220703125e+00,4.728199005126953125e+00,4.913053512573242188e+00,5.000000000000000000e+00,5.000000000000000000e+00,5.000000000000000000e+00,5.000000000000000000e+00,5.000000000000000000e+00,5.000000000000000000e+00,5.000000000000000000e+00,5.000000000000000000e+00,5.000000000000000000e+00,5.000000000000000000e+00,5.000000000000000000e+00,5.000000000000000000e+00,5.000000000000000000e+00,5.000000000000000000e+00,5.000000000000000000e+00,5.000000000000000000e+00,5.000000000000000000e+00,5.000000000000000000e+00,5.000000000000000000e+00,5.000000000000000000e+00,5.000000000000000000e+00,5.000000000000000000e+00,5.000000000000000000e+00,5.000000000000000000e+00,5.000000000000000000e+00,5.000000000000000000e+00,5.000000000000000000e+00,5.000000000000000000e+00,5.000000000000000000e+00,5.000000000000000000e+00,5.000000000000000000e+00,5.000000000000000000e+00,5.000000000000000000e+00,4.656042098999023438e+00,5.000000000000000000e+00,4.355906009674072266e+00,4.324809074401855469e+00,5.000000000000000000e+00,5.000000000000000000e+00,5.000000000000000000e+00,5.000000000000000000e+00,5.000000000000000000e+00,5.000000000000000000e+00,5.000000000000000000e+00,5.000000000000000000e+00,5.000000000000000000e+00,5.000000000000000000e+00,5.000000000000000000e+00,5.000000000000000000e+00,5.000000000000000000e+00,5.000000000000000000e+00,5.000000000000000000e+00,5.000000000000000000e+00,5.000000000000000000e+00,4.855828285217285156e+00,4.696218490600585938e+00,4.546767711639404297e+00,4.406535148620605469e+00,4.274694442749023438e+00,4.150513172149658203e+00,4.033343315124511719e+00,3.922607898712158203e+00,3.817790269851684570e+00,3.718428373336791992e+00
3.096838235855102539e+00,3.175082921981811523e+00,3.257384061813354492e+00,3.344065189361572266e+00,3.435485839843750000e+00,3.532045364379882812e+00,3.634189844131469727e+00,3.742418289184570312e+00,3.857290506362915039e+00,3.979438543319702148e+00,4.109575271606445312e+00,4.248510837554931641e+00,4.397170066833496094e+00,4.556609630584716797e+00,4.728046894073486328e+00,4.912888526916503906e+00,5.000000000000000000e+00,5.000000000000000000e+00,5.000000000000000000e+00,5.000000000000000000e+00,5.000000000000000000e+00,5.000000000000000000e+00,5.000000000000000000e+00,5.000000000000000000e+00,5.000000000000000000e+00,5.000000000000000000e+00,5.000000000000000000e+00,5.000000000000000000e+00,5.000000000000000000e+00,5.000000000000000000e+00,5.000000000000000000e+00,5.000000000000000000e+00,5.000000000000000000e+00,5.000000000000000000e+00,5.000000000000000000e+00,5.000000000000000000e+00,5.000000000000000000e+00,5.000000000000000000e+00,5.000000000000000000e+00,5.000000000000000000e+00,5.000000000000000000e+00,5.000000000000000000e+00,5.000000000000000000e+00,5.000000000000000000e+00,5.000000000000000000e+00,5.000000000000000000e+00,5.000000000000000000e+00,5.000000000000000000e+00,5.000000000000000000e+00,4.705965042114257812e+00,5.000000000000000000e+00,4.376042842864990234e+00,4.343040466308593750e+00,5.000000000000000000e+00,5.000000000000000000e+00,5.000000000000000000e+00,5.000000000000000000e+00,5.000000000000000000e+00,5.000000000000000000e+00,5.000000000000000000e+00,5.000000000000000000e+00,5.000000000000000000e+00,5.000000000000000000e+00,5.000000000000000000e+00,5.000000000000000000e+00,5.000000000000000000e+00,5.000000000000000000e+00,5.000000000000000000e+00,5.000000000000000000e+00,5.000000000000000000e+00,4.855969905853271484e+00,4.696351051330566406e+00,4.546892166137695312e+00,4.406651973724365234e+00,4.274804115295410156e+00,4.150617122650146484e+00,4.033441543579101562e+00,3.922700643539428711e+00,3.817878007888793945e+00,3.718511581420898438e+00
3.096772909164428711e+00,3.175014257431030273e+00,3.257311582565307617e+00,3.343988656997680664e+00,3.435405254364013672e+00,3.531960248947143555e+00,3.634099721908569336e+00,3.742322683334350586e+00,3.857188940048217773e+00,3.979330539703369141e+00,4.109459877014160156e+00,4.248387813568115234e+00,4.397038459777832031e+00,4.556468009948730469e+00,4.727894306182861328e+00,4.912724018096923828e+00,5.000000000000000000e+00,5.000000000000000000e+00,5.000000000000000000e+00,5.000000000000000000e+00,5.000000000000000000e+00,5.000000000000000000e+00,5.000000000000000000e+00,5.000000000000000000e+00,5.000000000000000000e+00,5.000000000000000000e+00,5.000000000000000000e+00,5.000000000000000000e+00,5.000000000000000000e+00,5.000000000000000000e+00,5.000000000000000000e+00,5.000000000000000000e+00,5.000000000000000000e+00,5.000000000000000000e+00,5.000000000000000000e+00,5.000000000000000000e+00,5.000000000000000000e+00,5.000000000000000000e+00,5.000000000000000000e+00,5.000000000000000000e+00,5.000000000000000000e+00,5.000000000000000000e+00,5.000000000000000000e+00,5.000000000000000000e+00,5.000000000000000000e+00,5.000000000000000000e+00,5.000000000000000000e+00,5.000000000000000000e+00,5.000000000000000000e+00,5.000000000000000000e+00,5.000000000000000000e+00,5.000000000000000000e+00,5.000000000000000000e+00,5.000000000000000000e+00,5.000000000000000000e+00,5.000000000000000000e+00,5.000000000000000000e+00,5.000000000000000000e+00,5.000000000000000000e+00,5.000000000000000000e+00,5.000000000000000000e+00,5.000000000000000000e+00,5.000000000000000000e+00,5.000000000000000000e+00,5.000000000000000000e+00,5.000000000000000000e+00,5.000000000000000000e+00,5.000000000000000000e+00,5.000000000000000000e+00,5.000000000000000000e+00,4.856112003326416016e+00,4.696483612060546875e+00,4.547016143798828125e+00,4.406768798828125000e+00,4.274913787841796875e+00,4.150720596313476562e+00,4.033539295196533203e+00,3.922792911529541016e+00,3.817965269088745117e+00,3.718594312667846680e+00
3.096707344055175781e+00,3.174945354461669922e+00,3.257239103317260742e+00,3.343912363052368164e+00,3.435324907302856445e+00,3.531875133514404297e+00,3.634009599685668945e+00,3.742227077484130859e+00,3.857087373733520508e+00,3.979222536087036133e+00,4.109344482421875000e+00,4.248264789581298828e+00,4.396906375885009766e+00,4.556326389312744141e+00,4.727741718292236328e+00,4.854364871978759766e+00,4.853171348571777344e+00,4.851978778839111328e+00,4.850786685943603516e+00,4.849595069885253906e+00,4.848403930664062500e+00,4.847213745117187500e+00,4.846024036407470703e+00,4.844834804534912109e+00,4.843646049499511719e+00,4.842458248138427734e+00,4.841270446777343750e+00,4.840083599090576172e+00,4.838897228240966797e+00,4.837711334228515625e+00,4.836526393890380859e+00,4.835341930389404297e+00,4.834157943725585938e+00,4.832974433898925781e+00,4.831791400909423828e+00,4.830609321594238281e+00,4.829427719116210938e+00,4.828246593475341797e+00,4.827065944671630859e+00,4.825886249542236328e+00,4.824707031250000000e+00,4.823528289794921875e+00,4.822350025177001953e+00,4.821172237396240234e+00,4.819995403289794922e+00,4.818818569183349609e+00,4.817642688751220703e+00,4.816467761993408203e+00,4.815292358398437500e+00,4.814118385314941406e+00,4.607056617736816406e+00,4.811771869659423828e+00,4.197909832000732422e+00,4.809427261352539062e+00,4.808256149291992188e+00,4.807085514068603516e+00,4.805915355682373047e+00,4.804745674133300781e+00,4.803576469421386719e+00,4.802407741546630859e+00,4.801239967346191406e+00,4.800072669982910156e+00,4.798905849456787109e+00,4.797739505767822266e+00,4.796574115753173828e+00,4.795409202575683594e+00,4.794244766235351562e+00,4.793080329895019531e+00,4.791917324066162109e+00,4.790754318237304688e+00,4.789592266082763672e+00,4.696616172790527344e+00,4.547140121459960938e+00,4.406885147094726562e+00,4.275023937225341797e+00,4.150824069976806641e+00,4.033637046813964844e+00,3.922885417938232422e+00,3.818053007125854492e+00,3.718677520751953125e+00
3.096642017364501953e+00,3.174876451492309570e+00,3.257166624069213867e+00,3.343836069107055664e+00,3.435244321823120117e+00,3.531790018081665039e+00,3.633919477462768555e+00,3.742131471633911133e+00,3.770764112472534180e+00,3.770044803619384766e+00,3.769324779510498047e+00,3.768604993820190430e+00,3.767886161804199219e+00,3.767167091369628906e+00,3.766448497772216797e+00,3.765730142593383789e+00,3.765011787414550781e+00,3.764293909072875977e+00,3.763576269149780273e+00,3.762859106063842773e+00,3.762141942977905273e+00,3.761425018310546875e+00,3.760708808898925781e+00,3.759992361068725586e+00,3.759276628494262695e+00,3.758560895919799805e+00,3.757845401763916016e+00,3.757130384445190430e+00,3.756415367126464844e+00,3.755701065063476562e+00,3.754986524581909180e+00,3.754272222518920898e+00,3.753558635711669922e+00,3.752845048904418945e+00,3.752131700515747070e+00,3.751418828964233398e+00,3.750705957412719727e+00,3.749993801116943359e+00,3.749281644821166992e+00,3.748569488525390625e+00,3.747858047485351562e+00,3.747146606445312500e+00,3.746435880661010742e+00,3.745724916458129883e+00,3.745014190673828125e+00,3.744304180145263672e+00,3.743593931198120117e+00,3.742884397506713867e+00,3.742174863815307617e+00,3.741465568542480469e+00,3.740756750106811523e+00,3.740048170089721680e+00,3.739339828491210938e+00,3.738631725311279297e+00,3.737923622131347656e+00,3.737216234207153320e+00,3.736508846282958984e+00,3.735801935195922852e+00,3.735095024108886719e+00,3.734388351440429688e+00,3.733682394027709961e+00,3.732976198196411133e+00,3.732270717620849609e+00,3.731565237045288086e+00,3.730859756469726562e+00,3.730155229568481445e+00,3.729450464248657227e+00,3.728746175765991211e+00,3.728041887283325195e+00,3.727338075637817383e+00,3.726634740829467773e+00,3.725931167602539062e+00,3.725228309631347656e+00,3.724525451660156250e+00,3.723822593688964844e+00,3.723120689392089844e+00,3.722418546676635742e+00,3.721717119216918945e+00,3.721015453338623047e+00,3.718760967254638672e+00
3.083131551742553711e+00,3.082649946212768555e+00,3.082168579101562500e+00,3.081687688827514648e+00,3.081206560134887695e+00,3.080725669860839844e+00,3.080245256423950195e+00,3.079764604568481445e+00,3.079284191131591797e+00,3.078804016113281250e+00,3.078323841094970703e+00,3.077843904495239258e+00,3.077363967895507812e+00,3.076884508132934570e+00,3.076405286788940430e+00,3.075926065444946289e+00,3.075446844100952148e+00,3.074967622756958008e+00,3.074489116668701172e+00,3.074010133743286133e+00,3.073531866073608398e+00,3.073053359985351562e+00,3.072574853897094727e+00,3.072096824645996094e+00,3.071618795394897461e+00,3.071141242980957031e+00,3.070663452148437500e+00,3.070185661315917969e+00,3.069708585739135742e+00,3.069231271743774414e+00,3.068754196166992188e+00,3.068277359008789062e+00,3.067800283432006836e+00,3.067323923110961914e+00,3.066847324371337891e+00,3.066371202468872070e+00,3.065894842147827148e+00,3.065418720245361328e+00,3.064943075180053711e+00,3.064467191696166992e+00,3.063991785049438477e+00,3.063516139984130859e+00,3.063040733337402344e+00,3.062565803527832031e+00,3.062090635299682617e+00,3.061615705490112305e+00,3.061141252517700195e+00,3.060666561126708984e+00,3.060192346572875977e+00,3.059717893600463867e+00,3.059243679046630859e+00,3.058769702911376953e+00,3.058295965194702148e+00,3.057822227478027344e+00,3.057348728179931641e+00,3.056875228881835938e+00,3.056402206420898438e+00,3.055928945541381836e+00,3.055456161499023438e+00,3.054983139038085938e+00,3.054510354995727539e+00,3.054038047790527344e+00,3.053565502166748047e+00,3.053093433380126953e+00,3.052621364593505859e+00,3.052149295806884766e+00,3.051677703857421875e+00,3.051205873489379883e+00,3.050734519958496094e+00,3.050263166427612305e+00,3.049791812896728516e+00,3.049320936203002930e+00,3.048849821090698242e+00,3.048379421234130859e+00,3.047908544540405273e+00,3.047438144683837891e+00,3.046967983245849609e+00,3.046497583389282227e+00,3.046027660369873047e+00,3.045557737350463867e+00
2.604857683181762695e+00,2.604513883590698242e+00,2.604170322418212891e+00,2.603826761245727539e+00,2.603483438491821289e+00,2.603140115737915039e+00,2.602796792984008789e+00,2.602453947067260742e+00,2.602110862731933594e+00,2.601767778396606445e+00,2.601425170898437500e+00,2.601082324981689453e+00,2.600739479064941406e+00,2.600397109985351562e+00,2.600054502487182617e+00,2.599712133407592773e+00,2.599369764328002930e+00,2.599027633666992188e+00,2.598685503005981445e+00,2.598343372344970703e+00,2.598001718521118164e+00,2.597660064697265625e+00,2.597318172454833984e+00,2.596976518630981445e+00,2.596635103225708008e+00,2.596293449401855469e+00,2.595952272415161133e+00,2.595610857009887695e+00,2.595269441604614258e+00,2.594928503036499023e+00,2.594587326049804688e+00,2.594246625900268555e+00,2.593905687332153320e+00,2.593564748764038086e+00,2.593224287033081055e+00,2.592883586883544922e+00,2.592543125152587891e+00,2.592202663421630859e+00,2.591862440109252930e+00,2.591522216796875000e+00,2.591181993484497070e+00,2.590842008590698242e+00,2.590502023696899414e+00,2.590162038803100586e+00,2.589822530746459961e+00,2.589482784271240234e+00,2.589143276214599609e+00,2.588803768157958984e+00,2.588464260101318359e+00,2.588124990463256836e+00,2.587785720825195312e+00,2.587446689605712891e+00,2.587107419967651367e+00,2.586768388748168945e+00,2.586429595947265625e+00,2.586090803146362305e+00,2.585752010345458984e+00,2.585413455963134766e+00,2.585074901580810547e+00,2.584736585617065430e+00,2.584398031234741211e+00,2.584059715270996094e+00,2.583721637725830078e+00,2.583383560180664062e+00,2.583045721054077148e+00,2.582707643508911133e+00,2.582369804382324219e+00,2.582032203674316406e+00,2.581694364547729492e+00,2.581357002258300781e+00,2.581019401550292969e+00,2.580682039260864258e+00,2.580344915390014648e+00,2.580007553100585938e+00,2.579670429229736328e+00,2.579333305358886719e+00,2.578996419906616211e+00,2.578659772872924805e+00,2.578322887420654297e+00,2.577986240386962891e+00
2.255041837692260742e+00,2.254784345626831055e+00,2.254526853561401367e+00,2.254269361495971680e+00,2.254012107849121094e+00,2.253754615783691406e+00,2.253497362136840820e+00,2.253240108489990234e+00,2.252983093261718750e+00,2.252726078033447266e+00,2.252468824386596680e+00,2.252212047576904297e+00,2.251955032348632812e+00,2.251698255538940430e+00,2.251441478729248047e+00,2.251184701919555664e+00,2.250927925109863281e+00,2.250671386718750000e+00,2.250414848327636719e+00,2.250158309936523438e+00,2.249901771545410156e+00,2.249645471572875977e+00,2.249389171600341797e+00,2.249132871627807617e+00,2.248876810073852539e+00,2.248620748519897461e+00,2.248364686965942383e+00,2.248108863830566406e+00,2.247852802276611328e+00,2.247596740722656250e+00,2.247340917587280273e+00,2.247085094451904297e+00,2.246829509735107422e+00,2.246573686599731445e+00,2.246318101882934570e+00,2.246062755584716797e+00,2.245807170867919922e+00,2.245551586151123047e+00,2.245296239852905273e+00,2.245040893554687500e+00,2.244785785675048828e+00,2.244530439376831055e+00,2.244275331497192383e+00,2.244020223617553711e+00,2.243765115737915039e+00,2.243510246276855469e+00,2.243255138397216797e+00,2.243000507354736328e+00,2.242745637893676758e+00,2.242490768432617188e+00,2.242236137390136719e+00,2.241981506347656250e+00,2.241727113723754883e+00,2.241472482681274414e+00,2.241217851638793945e+00,2.240963697433471680e+00,2.240709304809570312e+00,2.240455150604248047e+00,2.240200757980346680e+00,2.239946603775024414e+00,2.239692449569702148e+00,2.239438295364379883e+00,2.239184379577636719e+00,2.238930463790893555e+00,2.238676548004150391e+00,2.238422870635986328e+00,2.238168954849243164e+00,2.237915277481079102e+00,2.237661600112915039e+00,2.237407922744750977e+00,2.237154483795166016e+00,2.236901044845581055e+00,2.236647605895996094e+00,2.236394166946411133e+00,2.236140966415405273e+00,2.235887765884399414e+00,2.235634565353393555e+00,2.235381364822387695e+00,2.235128164291381836e+00,2.234875202178955078e+00
1.988058447837829590e+00,1.987858295440673828e+00,1.987658143043518066e+00,1.987457990646362305e+00,1.987257838249206543e+00,1.987058043479919434e+00,1.986858010292053223e+00,1.986658096313476562e+00,1.986458063125610352e+00,1.986258149147033691e+00,1.986058354377746582e+00,1.985858559608459473e+00,1.985659003257751465e+00,1.985459208488464355e+00,1.985259532928466797e+00,1.985059857368469238e+00,1.984860301017761230e+00,1.984660744667053223e+00,1.984461426734924316e+00,1.984261870384216309e+00,1.984062433242797852e+00,1.983862996101379395e+00,1.983663678169250488e+00,1.983464360237121582e+00,1.983265042304992676e+00,1.983065962791442871e+00,1.982866764068603516e+00,1.982667565345764160e+00,1.982468485832214355e+00,1.982269406318664551e+00,1.982070565223693848e+00,1.981871724128723145e+00,1.981672763824462891e+00,1.981473803520202637e+00,1.981274962425231934e+00,1.981076121330261230e+00,1.980877518653869629e+00,1.980678677558898926e+00,1.980479955673217773e+00,1.980281233787536621e+00,1.980082631111145020e+00,1.979884266853332520e+00,1.979685664176940918e+00,1.979487061500549316e+00,1.979288578033447266e+00,1.979090094566345215e+00,1.978891968727111816e+00,1.978693604469299316e+00,1.978495240211486816e+00,1.978296875953674316e+00,1.978098630905151367e+00,1.977900624275207520e+00,1.977702498435974121e+00,1.977504372596740723e+00,1.977306246757507324e+00,1.977108120918273926e+00,1.976910352706909180e+00,1.976712346076965332e+00,1.976514458656311035e+00,1.976316571235656738e+00,1.976118683815002441e+00,1.975921034812927246e+00,1.975723266601562500e+00,1.975525498390197754e+00,1.975327849388122559e+00,1.975130200386047363e+00,1.974932789802551270e+00,1.974735140800476074e+00,1.974537611007690430e+00,1.974340081214904785e+00,1.974142670631408691e+00,1.973945498466491699e+00,1.973748087882995605e+00,1.973550677299499512e+00,1.973353385925292969e+00,1.973156094551086426e+00,1.972959160804748535e+00,1.972761869430541992e+00,1.972564816474914551e+00,1.972367644309997559e+00
1.777601122856140137e+00,1.777441024780273438e+00,1.777280926704406738e+00,1.777121186256408691e+00,1.776961207389831543e+00,1.776801228523254395e+00,1.776641249656677246e+00,1.776481389999389648e+00,1.776321530342102051e+00,1.776161789894104004e+00,1.776002049446105957e+00,1.775842189788818359e+00,1.775682449340820312e+00,1.775522708892822266e+00,1.775363087654113770e+00,1.775203347206115723e+00,1.775043964385986328e+00,1.774884343147277832e+00,1.774724721908569336e+00,1.774565100669860840e+00,1.774405598640441895e+00,1.774246096611022949e+00,1.774086833000183105e+00,1.773927330970764160e+00,1.773767948150634766e+00,1.773608565330505371e+00,1.773449182510375977e+00,1.773289918899536133e+00,1.773130536079406738e+00,1.772971510887145996e+00,1.772812247276306152e+00,1.772652983665466309e+00,1.772493839263916016e+00,1.772334694862365723e+00,1.772175550460815430e+00,1.772016644477844238e+00,1.771857738494873047e+00,1.771698713302612305e+00,1.771539688110351562e+00,1.771380901336669922e+00,1.771221876144409180e+00,1.771062970161437988e+00,1.770904064178466797e+00,1.770745158195495605e+00,1.770586490631103516e+00,1.770427703857421875e+00,1.770268917083740234e+00,1.770110130310058594e+00,1.769951462745666504e+00,1.769792914390563965e+00,1.769634246826171875e+00,1.769475579261779785e+00,1.769317030906677246e+00,1.769158363342285156e+00,1.769000053405761719e+00,1.768841505050659180e+00,1.768682956695556641e+00,1.768524527549743652e+00,1.768366098403930664e+00,1.768207788467407227e+00,1.768049478530883789e+00,1.767891049385070801e+00,1.767732739448547363e+00,1.767574429512023926e+00,1.767416357994079590e+00,1.767258048057556152e+00,1.767099857330322266e+00,1.766941666603088379e+00,1.766783475875854492e+00,1.766625523567199707e+00,1.766467452049255371e+00,1.766309380531311035e+00,1.766151309013366699e+00,1.765993356704711914e+00,1.765835285186767578e+00,1.765677571296691895e+00,1.765519618988037109e+00,1.765361785888671875e+00,1.765203833580017090e+00,1.765046000480651855e+00
1.607436776161193848e+00,1.607305884361267090e+00,1.607174992561340332e+00,1.607044100761413574e+00,1.606913328170776367e+00,1.606782555580139160e+00,1.606651663780212402e+00,1.606521129608154297e+00,1.606390357017517090e+00,1.606259584426879883e+00,1.606128931045532227e+00,1.605998277664184570e+00,1.605867505073547363e+00,1.605737090110778809e+00,1.605606436729431152e+00,1.605475902557373047e+00,1.605345249176025391e+00,1.605214715003967285e+00,1.605084180831909180e+00,1.604953646659851074e+00,1.604823350906372070e+00,1.604692816734313965e+00,1.604562401771545410e+00,1.604431986808776855e+00,1.604301571846008301e+00,1.604171156883239746e+00,1.604040980339050293e+00,1.603910565376281738e+00,1.603780269622802734e+00,1.603649973869323730e+00,1.603519678115844727e+00,1.603389501571655273e+00,1.603259205818176270e+00,1.603129148483276367e+00,1.602998971939086914e+00,1.602868795394897461e+00,1.602738618850708008e+00,1.602608442306518555e+00,1.602478384971618652e+00,1.602348446846008301e+00,1.602218389511108398e+00,1.602088451385498047e+00,1.601958394050598145e+00,1.601828575134277344e+00,1.601698637008666992e+00,1.601568698883056641e+00,1.601438760757446289e+00,1.601308822631835938e+00,1.601179003715515137e+00,1.601049184799194336e+00,1.600919246673583984e+00,1.600789427757263184e+00,1.600659608840942383e+00,1.600530028343200684e+00,1.600400209426879883e+00,1.600270509719848633e+00,1.600140810012817383e+00,1.600010991096496582e+00,1.599881410598754883e+00,1.599751830101013184e+00,1.599622130393981934e+00,1.599492549896240234e+00,1.599362850189208984e+00,1.599233508110046387e+00,1.599103927612304688e+00,1.598974347114562988e+00,1.598844885826110840e+00,1.598715305328369141e+00,1.598585963249206543e+00,1.598456501960754395e+00,1.598327159881591797e+00,1.598197698593139648e+00,1.598068356513977051e+00,1.597939133644104004e+00,1.597809672355651855e+00,1.597680449485778809e+00,1.597551107406616211e+00,1.597421765327453613e+00,1.597292661666870117e+00,1.597163438796997070e+00
1.467004776000976562e+00,1.466895699501037598e+00,1.466786742210388184e+00,1.466677665710449219e+00,1.466568827629089355e+00,1.466459870338439941e+00,1.466350913047790527e+00,1.466242074966430664e+00,1.466133117675781250e+00,1.466024160385131836e+00,1.465915322303771973e+00,1.465806603431701660e+00,1.465697765350341797e+00,1.465588927268981934e+00,1.465480089187622070e+00,1.465371251106262207e+00,1.465262532234191895e+00,1.465153813362121582e+00,1.465045094490051270e+00,1.464936375617980957e+00,1.464827656745910645e+00,1.464718937873840332e+00,1.464610219001770020e+00,1.464501619338989258e+00,1.464393019676208496e+00,1.464284420013427734e+00,1.464175820350646973e+00,1.464067220687866211e+00,1.463958621025085449e+00,1.463850021362304688e+00,1.463741540908813477e+00,1.463633060455322266e+00,1.463524580001831055e+00,1.463415980339050293e+00,1.463307499885559082e+00,1.463199019432067871e+00,1.463090538978576660e+00,1.462982296943664551e+00,1.462873816490173340e+00,1.462765455245971680e+00,1.462657094001770020e+00,1.462548613548278809e+00,1.462440252304077148e+00,1.462332129478454590e+00,1.462223768234252930e+00,1.462115406990051270e+00,1.462007164955139160e+00,1.461899161338806152e+00,1.461790800094604492e+00,1.461682558059692383e+00,1.461574316024780273e+00,1.461466312408447266e+00,1.461358070373535156e+00,1.461249828338623047e+00,1.461141705513000488e+00,1.461033582687377930e+00,1.460925579071044922e+00,1.460817456245422363e+00,1.460709333419799805e+00,1.460601210594177246e+00,1.460493087768554688e+00,1.460385203361511230e+00,1.460277199745178223e+00,1.460169076919555664e+00,1.460061073303222656e+00,1.459953069686889648e+00,1.459845304489135742e+00,1.459737300872802734e+00,1.459629416465759277e+00,1.459521412849426270e+00,1.459413528442382812e+00,1.459305763244628906e+00,1.459197878837585449e+00,1.459089994430541992e+00,1.458982110023498535e+00,1.458874344825744629e+00,1.458766579627990723e+00,1.458658814430236816e+00,1.458551049232482910e+00,1.458443284034729004e+00
1.349138617515563965e+00,1.349046349525451660e+00,1.348954319953918457e+00,1.348862171173095703e+00,1.348769903182983398e+00,1.348677754402160645e+00,1.348585605621337891e+00,1.348493456840515137e+00,1.348401427268981934e+00,1.348309397697448730e+00,1.348217248916625977e+00,1.348125219345092773e+00,1.348033189773559570e+00,1.347941040992736816e+00,1.347849011421203613e+00,1.347757101058959961e+00,1.347665071487426758e+00,1.347573041915893555e+00,1.347481012344360352e+00,1.347389101982116699e+00,1.347297191619873047e+00,1.347205281257629395e+00,1.347113370895385742e+00,1.347021460533142090e+00,1.346929550170898438e+00,1.346837639808654785e+00,1.346745729446411133e+00,1.346653819084167480e+00,1.346562027931213379e+00,1.346470236778259277e+00,1.346378326416015625e+00,1.346286535263061523e+00,1.346194744110107422e+00,1.346102833747863770e+00,1.346011161804199219e+00,1.345919370651245117e+00,1.345827698707580566e+00,1.345735907554626465e+00,1.345644116401672363e+00,1.345552444458007812e+00,1.345460653305053711e+00,1.345369100570678711e+00,1.345277428627014160e+00,1.345185637474060059e+00,1.345093965530395508e+00,1.345002412796020508e+00,1.344910740852355957e+00,1.344819188117980957e+00,1.344727516174316406e+00,1.344635963439941406e+00,1.344544410705566406e+00,1.344452738761901855e+00,1.344361424446105957e+00,1.344269871711730957e+00,1.344178318977355957e+00,1.344086885452270508e+00,1.343995332717895508e+00,1.343903899192810059e+00,1.343812346458435059e+00,1.343720912933349609e+00,1.343629479408264160e+00,1.343538045883178711e+00,1.343446612358093262e+00,1.343355178833007812e+00,1.343263745307922363e+00,1.343172430992126465e+00,1.343080997467041016e+00,1.342989683151245117e+00,1.342898249626159668e+00,1.342806935310363770e+00,1.342715620994567871e+00,1.342624306678771973e+00,1.342532992362976074e+00,1.342441678047180176e+00,1.342350363731384277e+00,1.342259168624877930e+00,1.342167973518371582e+00,1.342076659202575684e+00,1.341985464096069336e+00,1.341894149780273438e+00
1.248803853988647461e+00,1.248724937438964844e+00,1.248645901679992676e+00,1.248566985130310059e+00,1.248487949371337891e+00,1.248409032821655273e+00,1.248330116271972656e+00,1.248251199722290039e+00,1.248172283172607422e+00,1.248093366622924805e+00,1.248014450073242188e+00,1.247935533523559570e+00,1.247856616973876953e+00,1.247777819633483887e+00,1.247698903083801270e+00,1.247620105743408203e+00,1.247541189193725586e+00,1.247462391853332520e+00,1.247383475303649902e+00,1.247304797172546387e+00,1.247225999832153320e+00,1.247147202491760254e+00,1.247068405151367188e+00,1.246989607810974121e+00,1.246910810470581055e+00,1.246832013130187988e+00,1.246753334999084473e+00,1.246674656867980957e+00,1.246595859527587891e+00,1.246517181396484375e+00,1.246438384056091309e+00,1.246359705924987793e+00,1.246281147003173828e+00,1.246202468872070312e+00,1.246123790740966797e+00,1.246045112609863281e+00,1.245966434478759766e+00,1.245887756347656250e+00,1.245809197425842285e+00,1.245730638504028320e+00,1.245651960372924805e+00,1.245573401451110840e+00,1.245494842529296875e+00,1.245416164398193359e+00,1.245337605476379395e+00,1.245259165763854980e+00,1.245180606842041016e+00,1.245102047920227051e+00,1.245023488998413086e+00,1.244944930076599121e+00,1.244866490364074707e+00,1.244788050651550293e+00,1.244709491729736328e+00,1.244631052017211914e+00,1.244552612304687500e+00,1.244474053382873535e+00,1.244395613670349121e+00,1.244317412376403809e+00,1.244239091873168945e+00,1.244160652160644531e+00,1.244082212448120117e+00,1.244003772735595703e+00,1.243925333023071289e+00,1.243847131729125977e+00,1.243768692016601562e+00,1.243690371513366699e+00,1.243611931800842285e+00,1.243533611297607422e+00,1.243455410003662109e+00,1.243377089500427246e+00,1.243298768997192383e+00,1.243220448493957520e+00,1.243142127990722656e+00,1.243063926696777344e+00,1.242985606193542480e+00,1.242907404899597168e+00,1.242829084396362305e+00,1.242750883102416992e+00,1.242672681808471680e+00,1.242594480514526367e+00
1.162359833717346191e+00,1.162291288375854492e+00,1.162222862243652344e+00,1.162154436111450195e+00,1.162086129188537598e+00,1.162017703056335449e+00,1.161949276924133301e+00,1.161880850791931152e+00,1.161812543869018555e+00,1.161744117736816406e+00,1.161675810813903809e+00,1.161607503890991211e+00,1.161539077758789062e+00,1.161470770835876465e+00,1.161402463912963867e+00,1.161334037780761719e+00,1.161265730857849121e+00,1.161197543144226074e+00,1.161129236221313477e+00,1.161060929298400879e+00,1.160992622375488281e+00,1.160924315452575684e+00,1.160856008529663086e+00,1.160787820816040039e+00,1.160719633102416992e+00,1.160651326179504395e+00,1.160583138465881348e+00,1.160514831542968750e+00,1.160446643829345703e+00,1.160378456115722656e+00,1.160310268402099609e+00,1.160242080688476562e+00,1.160173892974853516e+00,1.160105705261230469e+00,1.160037517547607422e+00,1.159969329833984375e+00,1.159901261329650879e+00,1.159833073616027832e+00,1.159764885902404785e+00,1.159696817398071289e+00,1.159628629684448242e+00,1.159560561180114746e+00,1.159492373466491699e+00,1.159424304962158203e+00,1.159356236457824707e+00,1.159288167953491211e+00,1.159220099449157715e+00,1.159152030944824219e+00,1.159083962440490723e+00,1.159015893936157227e+00,1.158947825431823730e+00,1.158879876136779785e+00,1.158811807632446289e+00,1.158743739128112793e+00,1.158675789833068848e+00,1.158607721328735352e+00,1.158539772033691406e+00,1.158471822738647461e+00,1.158403754234313965e+00,1.158335804939270020e+00,1.158267855644226074e+00,1.158199906349182129e+00,1.158132076263427734e+00,1.158064246177673340e+00,1.157996296882629395e+00,1.157928347587585449e+00,1.157860398292541504e+00,1.157792568206787109e+00,1.157724738121032715e+00,1.157656788825988770e+00,1.157588958740234375e+00,1.157521009445190430e+00,1.157453179359436035e+00,1.157385349273681641e+00,1.157317519187927246e+00,1.157249689102172852e+00,1.157181739807128906e+00,1.157114028930664062e+00,1.157046198844909668e+00,1.156978368759155273e+00
1.087108373641967773e+00,1.087048649787902832e+00,1.086988806724548340e+00,1.086928844451904297e+00,1.086869001388549805e+00,1.086809158325195312e+00,1.086749315261840820e+00,1.086689591407775879e+00,1.086629748344421387e+00,1.086569905281066895e+00,1.086510181427001953e+00,1.086450338363647461e+00,1.086390495300292969e+00,1.086330771446228027e+00,1.086271047592163086e+00,1.086211204528808594e+00,1.086151480674743652e+00,1.086091756820678711e+00,1.086031913757324219e+00,1.085972189903259277e+00,1.085912466049194336e+00,1.085852742195129395e+00,1.085793018341064453e+00,1.085733294486999512e+00,1.085673570632934570e+00,1.085613846778869629e+00,1.085554242134094238e+00,1.085494518280029297e+00,1.085434913635253906e+00,1.085375189781188965e+00,1.085315465927124023e+00,1.085255861282348633e+00,1.085196137428283691e+00,1.085136532783508301e+00,1.085076928138732910e+00,1.085017323493957520e+00,1.084957599639892578e+00,1.084897994995117188e+00,1.084838390350341797e+00,1.084778785705566406e+00,1.084719181060791016e+00,1.084659576416015625e+00,1.084599971771240234e+00,1.084540367126464844e+00,1.084480762481689453e+00,1.084421277046203613e+00,1.084361672401428223e+00,1.084302186965942383e+00,1.084242582321166992e+00,1.084182977676391602e+00,1.084123492240905762e+00,1.084063887596130371e+00,1.084004402160644531e+00,1.083944916725158691e+00,1.083885431289672852e+00,1.083825945854187012e+00,1.083766341209411621e+00,1.083706855773925781e+00,1.083647370338439941e+00,1.083587884902954102e+00,1.083528518676757812e+00,1.083469033241271973e+00,1.083409547805786133e+00,1.083350062370300293e+00,1.083290576934814453e+00,1.083231210708618164e+00,1.083171844482421875e+00,1.083112359046936035e+00,1.083053112030029297e+00,1.082993626594543457e+00,1.082934260368347168e+00,1.082874894142150879e+00,1.082815408706665039e+00,1.082756042480468750e+00,1.082696676254272461e+00,1.082637310028076172e+00,1.082577943801879883e+00,1.082518577575683594e+00,1.082459211349487305e+00,1.082399845123291016e+00
1.021008253097534180e+00,1.020955443382263184e+00,1.020902633666992188e+00,1.020849823951721191e+00,1.020797014236450195e+00,1.020744323730468750e+00,1.020691514015197754e+00,1.020638704299926758e+00,1.020586013793945312e+00,1.020533204078674316e+00,1.020480394363403320e+00,1.020427703857421875e+00,1.020375013351440430e+00,1.020322203636169434e+00,1.020269513130187988e+00,1.020216822624206543e+00,1.020164012908935547e+00,1.020111322402954102e+00,1.020058631896972656e+00,1.020005941390991211e+00,1.019953250885009766e+00,1.019900560379028320e+00,1.019847869873046875e+00,1.019795179367065430e+00,1.019742488861083984e+00,1.019689798355102539e+00,1.019637227058410645e+00,1.019584536552429199e+00,1.019531846046447754e+00,1.019479155540466309e+00,1.019426584243774414e+00,1.019373893737792969e+00,1.019321322441101074e+00,1.019268631935119629e+00,1.019216060638427734e+00,1.019163370132446289e+00,1.019110798835754395e+00,1.019058227539062500e+00,1.019005656242370605e+00,1.018952965736389160e+00,1.018900394439697266e+00,1.018847823143005371e+00,1.018795251846313477e+00,1.018742680549621582e+00,1.018690109252929688e+00,1.018637537956237793e+00,1.018584966659545898e+00,1.018532395362854004e+00,1.018479824066162109e+00,1.018427371978759766e+00,1.018374800682067871e+00,1.018322348594665527e+00,1.018269777297973633e+00,1.018217206001281738e+00,1.018164753913879395e+00,1.018112182617187500e+00,1.018059730529785156e+00,1.018007278442382812e+00,1.017954707145690918e+00,1.017902255058288574e+00,1.017849802970886230e+00,1.017797231674194336e+00,1.017744779586791992e+00,1.017692327499389648e+00,1.017639875411987305e+00,1.017587423324584961e+00,1.017534971237182617e+00,1.017482519149780273e+00,1.017430067062377930e+00,1.017377614974975586e+00,1.017325282096862793e+00,1.017272830009460449e+00,1.017220377922058105e+00,1.017168045043945312e+00,1.017115712165832520e+00,1.017063379287719727e+00,1.017010927200317383e+00,1.016958475112915039e+00,1.016906142234802246e+00,1.016853809356689453e+00
9.624856710433959961e-01,9.624387025833129883e-01,9.623917937278747559e-01,9.623448252677917480e-01,9.622979164123535156e-01,9.622510075569152832e-01,9.622040987014770508e-01,9.621571898460388184e-01,9.621102809906005859e-01,9.620635509490966797e-01,9.620166420936584473e-01,9.619697332382202148e-01,9.619228839874267578e-01,9.618759751319885254e-01,9.618291258811950684e-01,9.617822766304016113e-01,9.617353677749633789e-01,9.616885185241699219e-01,9.616416692733764648e-01,9.615948200225830078e-01,9.615479707717895508e-01,9.615011811256408691e-01,9.614544510841369629e-01,9.614076018333435059e-01,9.613607525825500488e-01,9.613139629364013672e-01,9.612671136856079102e-01,9.612203240394592285e-01,9.611735343933105469e-01,9.611266851425170898e-01,9.610798954963684082e-01,9.610331058502197266e-01,9.609863162040710449e-01,9.609395265579223633e-01,9.608927369117736816e-01,9.608460664749145508e-01,9.607993364334106445e-01,9.607525467872619629e-01,9.607058167457580566e-01,9.606590270996093750e-01,9.606122970581054688e-01,9.605655074119567871e-01,9.605187773704528809e-01,9.604720473289489746e-01,9.604253172874450684e-01,9.603785872459411621e-01,9.603318572044372559e-01,9.602851271629333496e-01,9.602385163307189941e-01,9.601917862892150879e-01,9.601451158523559570e-01,9.600983858108520508e-01,9.600517153739929199e-01,9.600049853324890137e-01,9.599583148956298828e-01,9.599116444587707520e-01,9.598649740219116211e-01,9.598182439804077148e-01,9.597715735435485840e-01,9.597249031066894531e-01,9.596782922744750977e-01,9.596317410469055176e-01,9.595850706100463867e-01,9.595384001731872559e-01,9.594917893409729004e-01,9.594451189041137695e-01,9.593985080718994141e-01,9.593518376350402832e-01,9.593052268028259277e-01,9.592586159706115723e-01,9.592120051383972168e-01,9.591653943061828613e-01,9.591187834739685059e-01,9.590721726417541504e-01,9.590256810188293457e-01,9.589790701866149902e-01,9.589324593544006348e-01,9.588859081268310547e-01,9.588392972946166992e-01,9.587928652763366699e-01
9.103081822395324707e-01,9.102661609649658203e-01,9.102241992950439453e-01,9.101822376251220703e-01,9.101402759552001953e-01,9.100983142852783203e-01,9.100563526153564453e-01,9.100143909454345703e-01,9.099724292755126953e-01,9.099304676055908203e-01,9.098885059356689453e-01,9.098465442657470703e-01,9.098046422004699707e-01,9.097627997398376465e-01,9.097208380699157715e-01,9.096789360046386719e-01,9.096370339393615723e-01,9.095950722694396973e-01,9.095531702041625977e-01,9.095112681388854980e-01,9.094693660736083984e-01,9.094274640083312988e-01,9.093855619430541992e-01,9.093436598777770996e-01,9.093017578125000000e-01,9.092598557472229004e-01,9.092180728912353516e-01,9.091762304306030273e-01,9.091343283653259277e-01,9.090924859046936035e-01,9.090505838394165039e-01,9.090087413787841797e-01,9.089668393135070801e-01,9.089249968528747559e-01,9.088831543922424316e-01,9.088413119316101074e-01,9.087994694709777832e-01,9.087576270103454590e-01,9.087157845497131348e-01,9.086740612983703613e-01,9.086322188377380371e-01,9.085903763771057129e-01,9.085485935211181641e-01,9.085067510604858398e-01,9.084649085998535156e-01,9.084231257438659668e-01,9.083813428878784180e-01,9.083395004272460938e-01,9.082977175712585449e-01,9.082559347152709961e-01,9.082141518592834473e-01,9.081723690032958984e-01,9.081306457519531250e-01,9.080888628959655762e-01,9.080470800399780273e-01,9.080052971839904785e-01,9.079635739326477051e-01,9.079217910766601562e-01,9.078800082206726074e-01,9.078382849693298340e-01,9.077965021133422852e-01,9.077547788619995117e-01,9.077129960060119629e-01,9.076712727546691895e-01,9.076295495033264160e-01,9.075878858566284180e-01,9.075461626052856445e-01,9.075044393539428711e-01,9.074627161026000977e-01,9.074209928512573242e-01,9.073792695999145508e-01,9.073376059532165527e-01,9.072958827018737793e-01,9.072541594505310059e-01,9.072124958038330078e-01,9.071707725524902344e-01,9.071291089057922363e-01,9.070873856544494629e-01,9.070457816123962402e-01,9.070041179656982422e-01
8.634968996047973633e-01,8.634591102600097656e-01,8.634213209152221680e-01,8.633835911750793457e-01,8.633459210395812988e-01,8.633081316947937012e-01,8.632703423500061035e-01,8.632326126098632812e-01,8.631948828697204590e-01,8.631570935249328613e-01,8.631193637847900391e-01,8.630816340446472168e-01,8.630439043045043945e-01,8.630061745643615723e-01,8.629684448242187500e-01,8.629307150840759277e-01,8.628929853439331055e-01,8.628553152084350586e-01,8.628176450729370117e-01,8.627799153327941895e-01,8.627421855926513672e-01,8.627044558525085449e-01,8.626667857170104980e-01,8.626290559768676758e-01,8.625913858413696289e-01,8.625536561012268066e-01,8.625159859657287598e-01,8.624783158302307129e-01,8.624406456947326660e-01,8.624029159545898438e-01,8.623653650283813477e-01,8.623276352882385254e-01,8.622899651527404785e-01,8.622522950172424316e-01,8.622146844863891602e-01,8.621770143508911133e-01,8.621393442153930664e-01,8.621016740798950195e-01,8.620640039443969727e-01,8.620263934135437012e-01,8.619887232780456543e-01,8.619511127471923828e-01,8.619134426116943359e-01,8.618758916854858398e-01,8.618382811546325684e-01,8.618006110191345215e-01,8.617630004882812500e-01,8.617253899574279785e-01,8.616877794265747070e-01,8.616501688957214355e-01,8.616125583648681641e-01,8.615749478340148926e-01,8.615373373031616211e-01,8.614997267723083496e-01,8.614621162414550781e-01,8.614245057106018066e-01,8.613870143890380859e-01,8.613494038581848145e-01,8.613118529319763184e-01,8.612742424011230469e-01,8.612366914749145508e-01,8.611990809440612793e-01,8.611615300178527832e-01,8.611239194869995117e-01,8.610863685607910156e-01,8.610488176345825195e-01,8.610112667083740234e-01,8.609737157821655273e-01,8.609361648559570312e-01,8.608986735343933105e-01,8.608611226081848145e-01,8.608235716819763184e-01,8.607860207557678223e-01,8.607485294342041016e-01,8.607109785079956055e-01,8.606734275817871094e-01,8.606359362602233887e-01,8.605983853340148926e-01,8.605608940124511719e-01,8.605233430862426758e-01
8.212646245956420898e-01,8.212304711341857910e-01,8.211962580680847168e-01,8.211621046066284180e-01,8.211279511451721191e-01,8.210937976837158203e-01,8.210596442222595215e-01,8.210254907608032227e-01,8.209913372993469238e-01,8.209573030471801758e-01,8.209231495857238770e-01,8.208889961242675781e-01,8.208548426628112793e-01,8.208207488059997559e-01,8.207865953445434570e-01,8.207524418830871582e-01,8.207183480262756348e-01,8.206841945648193359e-01,8.206501007080078125e-01,8.206159472465515137e-01,8.205818533897399902e-01,8.205478191375732422e-01,8.205137252807617188e-01,8.204796314239501953e-01,8.204454779624938965e-01,8.204113841056823730e-01,8.203772902488708496e-01,8.203431963920593262e-01,8.203091025352478027e-01,8.202750086784362793e-01,8.202409148216247559e-01,8.202068805694580078e-01,8.201727867126464844e-01,8.201386928558349609e-01,8.201047182083129883e-01,8.200706243515014648e-01,8.200365304946899414e-01,8.200024962425231934e-01,8.199684023857116699e-01,8.199343681335449219e-01,8.199002742767333984e-01,8.198662400245666504e-01,8.198322057723999023e-01,8.197981119155883789e-01,8.197640776634216309e-01,8.197300434112548828e-01,8.196960091590881348e-01,8.196620345115661621e-01,8.196280002593994141e-01,8.195939660072326660e-01,8.195599317550659180e-01,8.195258975028991699e-01,8.194918632507324219e-01,8.194578289985656738e-01,8.194238543510437012e-01,8.193898200988769531e-01,8.193557858467102051e-01,8.193218111991882324e-01,8.192877769470214844e-01,8.192538022994995117e-01,8.192198276519775391e-01,8.191858530044555664e-01,8.191518783569335938e-01,8.191178441047668457e-01,8.190838694572448730e-01,8.190498948097229004e-01,8.190159201622009277e-01,8.189818859100341797e-01,8.189479112625122070e-01,8.189139366149902344e-01,8.188799619674682617e-01,8.188459873199462891e-01,8.188120126724243164e-01,8.187781572341918945e-01,8.187441825866699219e-01,8.187102079391479492e-01,8.186762928962707520e-01,8.186423182487487793e-01,8.186083436012268066e-01,8.185744285583496094e-01
7.829707860946655273e-01,7.829397320747375488e-01,7.829086780548095703e-01,7.828776240348815918e-01,7.828465700149536133e-01,7.828155159950256348e-01,7.827844619750976562e-01,7.827534079551696777e-01,7.827224135398864746e-01,7.826913595199584961e-01,7.826603055000305176e-01,7.826293110847473145e-01,7.825982570648193359e-01,7.825673222541809082e-01,7.825362682342529297e-01,7.825052738189697266e-01,7.824742197990417480e-01,7.824432253837585449e-01,7.824121713638305664e-01,7.823811769485473633e-01,7.823501825332641602e-01,7.823191285133361816e-01,7.822881340980529785e-01,7.822571396827697754e-01,7.822261452674865723e-01,7.821951508522033691e-01,7.821642160415649414e-01,7.821332216262817383e-01,7.821022272109985352e-01,7.820712327957153320e-01,7.820402383804321289e-01,7.820093035697937012e-01,7.819783091545104980e-01,7.819473147392272949e-01,7.819163203239440918e-01,7.818853855133056641e-01,7.818543910980224609e-01,7.818233966827392578e-01,7.817924618721008301e-01,7.817615866661071777e-01,7.817305922508239746e-01,7.816996574401855469e-01,7.816686630249023438e-01,7.816377282142639160e-01,7.816067934036254883e-01,7.815757989883422852e-01,7.815448641777038574e-01,7.815139293670654297e-01,7.814829945564270020e-01,7.814520597457885742e-01,7.814211249351501465e-01,7.813902497291564941e-01,7.813593149185180664e-01,7.813283801078796387e-01,7.812974452972412109e-01,7.812665104866027832e-01,7.812355756759643555e-01,7.812047004699707031e-01,7.811737656593322754e-01,7.811428308486938477e-01,7.811119556427001953e-01,7.810810208320617676e-01,7.810500860214233398e-01,7.810192108154296875e-01,7.809883952140808105e-01,7.809574604034423828e-01,7.809265851974487305e-01,7.808957099914550781e-01,7.808647751808166504e-01,7.808338999748229980e-01,7.808030247688293457e-01,7.807721495628356934e-01,7.807412147521972656e-01,7.807103395462036133e-01,7.806794643402099609e-01,7.806485891342163086e-01,7.806177139282226562e-01,7.805868983268737793e-01,7.805560827255249023e-01,7.805252075195312500e-01
7.480888962745666504e-01,7.480605244636535645e-01,7.480322122573852539e-01,7.480038404464721680e-01,7.479755878448486328e-01,7.479472160339355469e-01,7.479189038276672363e-01,7.478905320167541504e-01,7.478622198104858398e-01,7.478338479995727539e-01,7.478055357933044434e-01,7.477772235870361328e-01,7.477489113807678223e-01,7.477205395698547363e-01,7.476922273635864258e-01,7.476639151573181152e-01,7.476356029510498047e-01,7.476073503494262695e-01,7.475790381431579590e-01,7.475507259368896484e-01,7.475224137306213379e-01,7.474941015243530273e-01,7.474657893180847168e-01,7.474374771118164062e-01,7.474091649055480957e-01,7.473808526992797852e-01,7.473525404930114746e-01,7.473242878913879395e-01,7.472959756851196289e-01,7.472676634788513184e-01,7.472394704818725586e-01,7.472111582756042480e-01,7.471829056739807129e-01,7.471545934677124023e-01,7.471263408660888672e-01,7.470980286598205566e-01,7.470697760581970215e-01,7.470414638519287109e-01,7.470132112503051758e-01,7.469849586486816406e-01,7.469566464424133301e-01,7.469283938407897949e-01,7.469001412391662598e-01,7.468719482421875000e-01,7.468436956405639648e-01,7.468154430389404297e-01,7.467871904373168945e-01,7.467589378356933594e-01,7.467306852340698242e-01,7.467024326324462891e-01,7.466741800308227539e-01,7.466459274291992188e-01,7.466176748275756836e-01,7.465894222259521484e-01,7.465612292289733887e-01,7.465329766273498535e-01,7.465047836303710938e-01,7.464765906333923340e-01,7.464483380317687988e-01,7.464200854301452637e-01,7.463918924331665039e-01,7.463636398315429688e-01,7.463354468345642090e-01,7.463071942329406738e-01,7.462790012359619141e-01,7.462508082389831543e-01,7.462225556373596191e-01,7.461943626403808594e-01,7.461661696434020996e-01,7.461379766464233398e-01,7.461097836494445801e-01,7.460815906524658203e-01,7.460533976554870605e-01,7.460252046585083008e-01,7.459970116615295410e-01,7.459688186645507812e-01,7.459406256675720215e-01,7.459124326705932617e-01,7.458842396736145020e-01,7.458560466766357422e-01
