2.203908681869506836e+00,2.210810661315917969e+00,2.217755794525146484e+00,2.224744796752929688e+00,2.231777906417846680e+00,2.238855600357055664e+00,2.245978593826293945e+00,2.253146409988403320e+00,2.260360717773437500e+00,2.267621040344238281e+00,2.274928331375122070e+00,2.282283067703247070e+00,2.289685249328613281e+00,2.297135353088378906e+00,2.304634571075439453e+00,2.312182664871215820e+00,2.319780349731445312e+00,2.327428340911865234e+00,2.335126876831054688e+00,2.342876434326171875e+00,2.350677490234375000e+00,2.358530759811401367e+00,2.366436719894409180e+00,2.374395847320556641e+00,2.382408618927001953e+00,2.390475749969482422e+00,2.398597717285156250e+00,2.406774759292602539e+00,2.415008068084716797e+00,2.423297882080078125e+00,2.431644916534423828e+00,2.440049409866333008e+00,2.448512315750122070e+00,2.457033872604370117e+00,2.465615272521972656e+00,2.474256753921508789e+00,2.482959032058715820e+00,2.491722583770751953e+00,2.500548362731933594e+00,2.509437084197998047e+00,2.518388748168945312e+00,2.527404785156250000e+00,2.536485671997070312e+00,2.545631885528564453e+00,2.554844379425048828e+00,2.564123868942260742e+00,2.573470830917358398e+00,2.582886219024658203e+00,2.592370748519897461e+00,2.601925373077392578e+00,2.611550569534301758e+00,2.621247291564941406e+00,2.631016254425048828e+00,2.640858411788940430e+00,2.650774240493774414e+00,2.660764932632446289e+00,2.670831203460693359e+00,2.680974006652832031e+00,2.691194057464599609e+00,2.701492309570312500e+00,2.711869716644287109e+00,2.722326993942260742e+00,2.732865571975708008e+00,2.743485927581787109e+00,2.754189014434814453e+00,2.764976263046264648e+00,2.775848150253295898e+00,2.786805629730224609e+00,2.797850131988525391e+00,2.808982610702514648e+00,2.820204019546508789e+00,2.831515550613403320e+00,2.842917919158935547e+00,2.854412794113159180e+00,2.866000652313232422e+00,2.877682924270629883e+00,2.889461278915405273e+00,2.901336193084716797e+00,2.913309335708618164e+00,2.925381422042846680e+00
2.203891038894653320e+00,2.210792779922485352e+00,2.217737436294555664e+00,2.224726200103759766e+00,2.231759309768676758e+00,2.238837242126464844e+00,2.245959997177124023e+00,2.253128051757812500e+00,2.260342121124267578e+00,2.267602205276489258e+00,2.274909496307373047e+00,2.282263994216918945e+00,2.289665937423706055e+00,2.297116279602050781e+00,2.304615259170532227e+00,2.312163352966308594e+00,2.319760799407958984e+00,2.327408552169799805e+00,2.335106849670410156e+00,2.342856407165527344e+00,2.350657224655151367e+00,2.358510494232177734e+00,2.366416215896606445e+00,2.374375104904174805e+00,2.382387876510620117e+00,2.390454769134521484e+00,2.398576498031616211e+00,2.406753778457641602e+00,2.414986848831176758e+00,2.423276662826538086e+00,2.431623220443725586e+00,2.440027475357055664e+00,2.448490381240844727e+00,2.457011938095092773e+00,2.465593099594116211e+00,2.474234342575073242e+00,2.482936382293701172e+00,2.491699934005737305e+00,2.500525474548339844e+00,2.509413957595825195e+00,2.518365621566772461e+00,2.527381420135498047e+00,2.536462068557739258e+00,2.545608043670654297e+00,2.554820537567138672e+00,2.564099788665771484e+00,2.573446512222290039e+00,2.582861900329589844e+00,2.592346429824829102e+00,2.601900815963745117e+00,2.611525535583496094e+00,2.621222257614135742e+00,2.630990982055664062e+00,2.640832901000976562e+00,2.650748729705810547e+00,2.660739183425903320e+00,2.670805215835571289e+00,2.680947542190551758e+00,2.691167593002319336e+00,2.701465606689453125e+00,2.711842775344848633e+00,2.722300052642822266e+00,2.732838392257690430e+00,2.743458271026611328e+00,2.754161357879638672e+00,2.764948129653930664e+00,2.775819778442382812e+00,2.786777257919311523e+00,2.797821760177612305e+00,2.808954000473022461e+00,2.820174932479858398e+00,2.831485986709594727e+00,2.842888355255126953e+00,2.854382991790771484e+00,2.865970611572265625e+00,2.877652883529663086e+00,2.889430999755859375e+00,2.901305437088012695e+00,2.913278102874755859e+00,2.925349950790405273e+00
2.203873157501220703e+00,2.210774660110473633e+00,2.217720031738281250e+00,2.224708557128906250e+00,2.231741428375244141e+00,2.238819122314453125e+00,2.245941638946533203e+00,2.253108978271484375e+00,2.260323047637939453e+00,2.267583131790161133e+00,2.274890661239624023e+00,2.282244920730590820e+00,2.289646625518798828e+00,2.297096967697143555e+00,2.304595708847045898e+00,2.312143564224243164e+00,2.319741249084472656e+00,2.327388763427734375e+00,2.335087060928344727e+00,2.342836141586303711e+00,2.350636959075927734e+00,2.358490228652954102e+00,2.366395711898803711e+00,2.374354600906372070e+00,2.382367372512817383e+00,2.390434026718139648e+00,2.398555517196655273e+00,2.406732559204101562e+00,2.414965629577636719e+00,2.423255205154418945e+00,2.431601524353027344e+00,2.440006017684936523e+00,2.448468446731567383e+00,2.456989765167236328e+00,2.465570926666259766e+00,2.474211931228637695e+00,2.482913970947265625e+00,2.491677284240722656e+00,2.500502824783325195e+00,2.509390830993652344e+00,2.518342256546020508e+00,2.527358055114746094e+00,2.536438703536987305e+00,2.545584678649902344e+00,2.554796695709228516e+00,2.564075708389282227e+00,2.573422431945800781e+00,2.582837581634521484e+00,2.592321634292602539e+00,2.601876020431518555e+00,2.611500740051269531e+00,2.621197223663330078e+00,2.630965709686279297e+00,2.640807151794433594e+00,2.650722980499267578e+00,2.660713195800781250e+00,2.670779228210449219e+00,2.680921554565429688e+00,2.691141366958618164e+00,2.701438903808593750e+00,2.711815834045410156e+00,2.722273111343383789e+00,2.732810974121093750e+00,2.743431091308593750e+00,2.754133701324462891e+00,2.764920473098754883e+00,2.775791645050048828e+00,2.786748886108398438e+00,2.797792911529541016e+00,2.808924913406372070e+00,2.820146083831787109e+00,2.831456899642944336e+00,2.842859029769897461e+00,2.854352951049804688e+00,2.865940570831298828e+00,2.877622604370117188e+00,2.889400243759155273e+00,2.901274681091308594e+00,2.913247346878051758e+00,2.925318956375122070e+00
2.203855276107788086e+00,2.210756778717041016e+00,2.217701673507690430e+00,2.224690198898315430e+00,2.231723070144653320e+00,2.238800525665283203e+00,2.245923042297363281e+00,2.253090858459472656e+00,2.260304689407348633e+00,2.267564773559570312e+00,2.274871587753295898e+00,2.282225847244262695e+00,2.289627552032470703e+00,2.297077417373657227e+00,2.304575920104980469e+00,2.312123775482177734e+00,2.319721460342407227e+00,2.327368974685668945e+00,2.335067033767700195e+00,2.342816114425659180e+00,2.350616931915283203e+00,2.358469963073730469e+00,2.366375207901000977e+00,2.374334096908569336e+00,2.382346391677856445e+00,2.390413045883178711e+00,2.398534536361694336e+00,2.406711578369140625e+00,2.414944410324096680e+00,2.423233509063720703e+00,2.431580066680908203e+00,2.439984083175659180e+00,2.448446512222290039e+00,2.456967830657958984e+00,2.465548753738403320e+00,2.474189519882202148e+00,2.482891321182250977e+00,2.491654634475708008e+00,2.500479936599731445e+00,2.509367942810058594e+00,2.518319368362426758e+00,2.527334928512573242e+00,2.536415100097656250e+00,2.545560836791992188e+00,2.554772853851318359e+00,2.564051628112792969e+00,2.573398351669311523e+00,2.582813262939453125e+00,2.592297315597534180e+00,2.601851224899291992e+00,2.611475706100463867e+00,2.621171951293945312e+00,2.630940437316894531e+00,2.640781879425048828e+00,2.650697231292724609e+00,2.660687208175659180e+00,2.670753002166748047e+00,2.680895090103149414e+00,2.691114664077758789e+00,2.701412439346313477e+00,2.711789131164550781e+00,2.722246170043945312e+00,2.732783555984497070e+00,2.743403434753417969e+00,2.754105806350708008e+00,2.764892339706420898e+00,2.775763750076293945e+00,2.786720514297485352e+00,2.797764539718627930e+00,2.808896064758300781e+00,2.820116758346557617e+00,2.831427574157714844e+00,2.842829465866088867e+00,2.854323387145996094e+00,2.865910768508911133e+00,2.877592563629150391e+00,2.889369726181030273e+00,2.901243925094604492e+00,2.913216114044189453e+00,2.925287485122680664e+00
2.203837394714355469e+00,2.210738897323608398e+00,2.217683553695678711e+00,2.224672079086303711e+00,2.231704711914062500e+00,2.238781929016113281e+00,2.245904445648193359e+00,2.253072023391723633e+00,2.260285854339599609e+00,2.267545700073242188e+00,2.274852514266967773e+00,2.282206773757934570e+00,2.289608478546142578e+00,2.297058343887329102e+00,2.304556846618652344e+00,2.312104701995849609e+00,2.319701910018920898e+00,2.327349185943603516e+00,2.335047245025634766e+00,2.342795610427856445e+00,2.350596427917480469e+00,2.358449459075927734e+00,2.366354942321777344e+00,2.374313592910766602e+00,2.382325887680053711e+00,2.390392065048217773e+00,2.398513555526733398e+00,2.406690359115600586e+00,2.414922952651977539e+00,2.423212289810180664e+00,2.431558370590209961e+00,2.439962387084960938e+00,2.448424577713012695e+00,2.456945657730102539e+00,2.465526580810546875e+00,2.474167346954345703e+00,2.482868909835815430e+00,2.491631984710693359e+00,2.500456809997558594e+00,2.509344816207885742e+00,2.518296003341674805e+00,2.527311563491821289e+00,2.536391735076904297e+00,2.545537233352661133e+00,2.554749011993408203e+00,2.564027547836303711e+00,2.573374032974243164e+00,2.582788705825805664e+00,2.592272758483886719e+00,2.601826429367065430e+00,2.611450910568237305e+00,2.621146917343139648e+00,2.630914926528930664e+00,2.640756368637084961e+00,2.650671482086181641e+00,2.660661458969116211e+00,2.670727014541625977e+00,2.680868864059448242e+00,2.691088199615478516e+00,2.701385498046875000e+00,2.711762189865112305e+00,2.722218990325927734e+00,2.732756376266479492e+00,2.743376016616821289e+00,2.754078388214111328e+00,2.764864444732666016e+00,2.775735378265380859e+00,2.786692142486572266e+00,2.797735691070556641e+00,2.808867454528808594e+00,2.820087909698486328e+00,2.831398487091064453e+00,2.842799663543701172e+00,2.854293584823608398e+00,2.865880489349365234e+00,2.877562046051025391e+00,2.889339447021484375e+00,2.901213407516479492e+00,2.913185358047485352e+00,2.925256252288818359e+00
2.203819513320922852e+00,2.210720777511596680e+00,2.217665433883666992e+00,2.224653720855712891e+00,2.231686353683471680e+00,2.238763570785522461e+00,2.245885610580444336e+00,2.253053426742553711e+00,2.260267019271850586e+00,2.267526865005493164e+00,2.274833679199218750e+00,2.282187461853027344e+00,2.289589166641235352e+00,2.297039031982421875e+00,2.304537296295166016e+00,2.312084913253784180e+00,2.319681882858276367e+00,2.327329397201538086e+00,2.335026979446411133e+00,2.342776060104370117e+00,2.350576400756835938e+00,2.358429193496704102e+00,2.366334438323974609e+00,2.374293088912963867e+00,2.382304668426513672e+00,2.390371084213256836e+00,2.398492097854614258e+00,2.406669139862060547e+00,2.414901494979858398e+00,2.423190832138061523e+00,2.431536674499511719e+00,2.439940690994262695e+00,2.448402881622314453e+00,2.456923723220825195e+00,2.465504169464111328e+00,2.474144935607910156e+00,2.482846498489379883e+00,2.491609334945678711e+00,2.500434160232543945e+00,2.509321928024291992e+00,2.518273115158081055e+00,2.527287960052490234e+00,2.536368131637573242e+00,2.545513391494750977e+00,2.554725170135498047e+00,2.564003705978393555e+00,2.573349952697753906e+00,2.582764625549316406e+00,2.592247962951660156e+00,2.601801633834838867e+00,2.611426115036010742e+00,2.621121883392333984e+00,2.630889892578125000e+00,2.640730857849121094e+00,2.650645732879638672e+00,2.660635471343994141e+00,2.670700788497924805e+00,2.680842638015747070e+00,2.691061973571777344e+00,2.701359033584594727e+00,2.711735486984252930e+00,2.722191810607910156e+00,2.732729196548461914e+00,2.743348360061645508e+00,2.754050493240356445e+00,2.764836549758911133e+00,2.775707483291625977e+00,2.786664009094238281e+00,2.797707080841064453e+00,2.808838367462158203e+00,2.820058822631835938e+00,2.831368923187255859e+00,2.842770338058471680e+00,2.854264020919799805e+00,2.865850687026977539e+00,2.877531766891479492e+00,2.889308691024780273e+00,2.901182413101196289e+00,2.913154125213623047e+00,2.925225019454956055e+00
2.203801631927490234e+00,2.210702657699584961e+00,2.217647314071655273e+00,2.224635362625122070e+00,2.231667995452880859e+00,2.238744974136352539e+00,2.245867013931274414e+00,2.253034830093383789e+00,2.260248184204101562e+00,2.267507791519165039e+00,2.274814367294311523e+00,2.282168149948120117e+00,2.289569616317749023e+00,2.297019481658935547e+00,2.304517745971679688e+00,2.312065124511718750e+00,2.319662094116210938e+00,2.327309370040893555e+00,2.335006952285766602e+00,2.342755794525146484e+00,2.350556135177612305e+00,2.358408689498901367e+00,2.366313934326171875e+00,2.374272108078002930e+00,2.382284164428710938e+00,2.390350341796875000e+00,2.398471593856811523e+00,2.406647920608520508e+00,2.414880275726318359e+00,2.423169374465942383e+00,2.431514739990234375e+00,2.439918279647827148e+00,2.448380947113037109e+00,2.456901788711547852e+00,2.465482234954833984e+00,2.474122524261474609e+00,2.482824087142944336e+00,2.491586446762084961e+00,2.500411272048950195e+00,2.509298801422119141e+00,2.518249750137329102e+00,2.527264833450317383e+00,2.536344528198242188e+00,2.545490026473999023e+00,2.554701328277587891e+00,2.563979625701904297e+00,2.573325634002685547e+00,2.582740068435668945e+00,2.592223644256591797e+00,2.601777076721191406e+00,2.611401081085205078e+00,2.621096611022949219e+00,2.630864381790161133e+00,2.640705347061157227e+00,2.650620222091674805e+00,2.660609722137451172e+00,2.670675039291381836e+00,2.680816173553466797e+00,2.691035270690917969e+00,2.701332330703735352e+00,2.711708545684814453e+00,2.722164869308471680e+00,2.732702016830444336e+00,2.743321180343627930e+00,2.754022836685180664e+00,2.764808654785156250e+00,2.775679111480712891e+00,2.786635398864746094e+00,2.797678709030151367e+00,2.808809757232666016e+00,2.820029735565185547e+00,2.831339597702026367e+00,2.842740774154663086e+00,2.854233980178833008e+00,2.865820646286010742e+00,2.877501726150512695e+00,2.889278411865234375e+00,2.901151657104492188e+00,2.913123130798339844e+00,2.925193786621093750e+00
2.203783512115478516e+00,2.210684537887573242e+00,2.217628955841064453e+00,2.224617242813110352e+00,2.231649398803710938e+00,2.238726615905761719e+00,2.245848655700683594e+00,2.253015995025634766e+00,2.260229349136352539e+00,2.267488956451416016e+00,2.274795293807983398e+00,2.282149076461791992e+00,2.289550304412841797e+00,2.296999931335449219e+00,2.304497957229614258e+00,2.312045335769653320e+00,2.319642305374145508e+00,2.327289342880249023e+00,2.334986686706542969e+00,2.342735528945922852e+00,2.350535869598388672e+00,2.358388185501098633e+00,2.366293191909790039e+00,2.374251365661621094e+00,2.382263183593750000e+00,2.390329360961914062e+00,2.398450136184692383e+00,2.406626701354980469e+00,2.414858818054199219e+00,2.423147678375244141e+00,2.431493520736694336e+00,2.439897060394287109e+00,2.448359012603759766e+00,2.456879854202270508e+00,2.465460062026977539e+00,2.474099636077880859e+00,2.482800960540771484e+00,2.491563558578491211e+00,2.500388622283935547e+00,2.509275913238525391e+00,2.518226623535156250e+00,2.527241468429565430e+00,2.536321163177490234e+00,2.545466184616088867e+00,2.554677486419677734e+00,2.563955783843994141e+00,2.573301553726196289e+00,2.582715749740600586e+00,2.592198848724365234e+00,2.601752281188964844e+00,2.611376285552978516e+00,2.621071577072143555e+00,2.630839347839355469e+00,2.640679836273193359e+00,2.650594472885131836e+00,2.660583734512329102e+00,2.670648813247680664e+00,2.680790185928344727e+00,2.691009044647216797e+00,2.701305866241455078e+00,2.711681604385375977e+00,2.722137689590454102e+00,2.732674598693847656e+00,2.743293523788452148e+00,2.753995180130004883e+00,2.764780759811401367e+00,2.775651216506958008e+00,2.786607027053833008e+00,2.797649860382080078e+00,2.808780908584594727e+00,2.820000648498535156e+00,2.831310510635375977e+00,2.842711448669433594e+00,2.854204416275024414e+00,2.865790605545043945e+00,2.877471208572387695e+00,2.889247894287109375e+00,2.901120901107788086e+00,2.913092136383056641e+00,2.925162553787231445e+00
2.203765630722045898e+00,2.210666656494140625e+00,2.217610836029052734e+00,2.224598884582519531e+00,2.231631278991699219e+00,2.238708019256591797e+00,2.245830059051513672e+00,2.252997159957885742e+00,2.260210514068603516e+00,2.267469882965087891e+00,2.274776220321655273e+00,2.282129764556884766e+00,2.289530992507934570e+00,2.296980381011962891e+00,2.304478406906127930e+00,2.312025547027587891e+00,2.319622278213500977e+00,2.327269315719604492e+00,2.334966659545898438e+00,2.342715263366699219e+00,2.350515365600585938e+00,2.358367681503295898e+00,2.366272449493408203e+00,2.374230623245239258e+00,2.382242202758789062e+00,2.390308141708374023e+00,2.398428916931152344e+00,2.406605243682861328e+00,2.414837360382080078e+00,2.423125982284545898e+00,2.431471824645996094e+00,2.439875125885009766e+00,2.448336839675903320e+00,2.456857442855834961e+00,2.465437650680541992e+00,2.474077701568603516e+00,2.482778787612915039e+00,2.491541147232055664e+00,2.500365734100341797e+00,2.509253025054931641e+00,2.518203496932983398e+00,2.527217864990234375e+00,2.536297082901000977e+00,2.545442342758178711e+00,2.554653644561767578e+00,2.563931703567504883e+00,2.573277235031127930e+00,2.582691431045532227e+00,2.592174530029296875e+00,2.601727485656738281e+00,2.611351251602172852e+00,2.621046543121337891e+00,2.630814075469970703e+00,2.640654563903808594e+00,2.650568962097167969e+00,2.660557985305786133e+00,2.670622587203979492e+00,2.680763721466064453e+00,2.690982341766357422e+00,2.701278924942016602e+00,2.711654901504516602e+00,2.722110748291015625e+00,2.732647418975830078e+00,2.743265867233276367e+00,2.753967285156250000e+00,2.764752864837646484e+00,2.775622844696044922e+00,2.786578655242919922e+00,2.797621488571166992e+00,2.808752298355102539e+00,2.819971561431884766e+00,2.831280946731567383e+00,2.842681646347045898e+00,2.854174613952636719e+00,2.865760564804077148e+00,2.877441167831420898e+00,2.889217138290405273e+00,2.901090145111083984e+00,2.913061141967773438e+00,2.925131320953369141e+00
2.203747749328613281e+00,2.210648536682128906e+00,2.217592954635620117e+00,2.224580764770507812e+00,2.231612920761108398e+00,2.238689422607421875e+00,2.245811223983764648e+00,2.252978324890136719e+00,2.260191440582275391e+00,2.267450809478759766e+00,2.274757146835327148e+00,2.282110452651977539e+00,2.289511680603027344e+00,2.296960830688476562e+00,2.304458856582641602e+00,2.312005996704101562e+00,2.319602727890014648e+00,2.327249288558959961e+00,2.334946632385253906e+00,2.342694997787475586e+00,2.350494861602783203e+00,2.358347177505493164e+00,2.366251707077026367e+00,2.374209642410278320e+00,2.382221221923828125e+00,2.390287160873413086e+00,2.398407697677612305e+00,2.406583786010742188e+00,2.414815902709960938e+00,2.423104524612426758e+00,2.431449890136718750e+00,2.439853191375732422e+00,2.448314666748046875e+00,2.456835031509399414e+00,2.465415239334106445e+00,2.474055051803588867e+00,2.482756137847900391e+00,2.491518259048461914e+00,2.500342607498168945e+00,2.509229660034179688e+00,2.518180131912231445e+00,2.527194738388061523e+00,2.536274194717407227e+00,2.545418977737426758e+00,2.554629802703857422e+00,2.563907623291015625e+00,2.573253154754638672e+00,2.582666397094726562e+00,2.592149496078491211e+00,2.601702928543090820e+00,2.611326456069946289e+00,2.621021509170532227e+00,2.630788564682006836e+00,2.640629053115844727e+00,2.650543212890625000e+00,2.660531997680664062e+00,2.670596837997436523e+00,2.680737733840942383e+00,2.690956115722656250e+00,2.701252222061157227e+00,2.711627960205078125e+00,2.722083568572998047e+00,2.732620000839233398e+00,2.743238449096679688e+00,2.753939867019653320e+00,2.764724969863891602e+00,2.775594711303710938e+00,2.786550283432006836e+00,2.797592878341674805e+00,2.808723211288452148e+00,2.819942712783813477e+00,2.831251859664916992e+00,2.842652082443237305e+00,2.854144811630249023e+00,2.865730524063110352e+00,2.877410888671875000e+00,2.889186859130859375e+00,2.901059627532958984e+00,2.913030385971069336e+00,2.925099849700927734e+00
2.203729867935180664e+00,2.210630655288696289e+00,2.217574596405029297e+00,2.224562406539916992e+00,2.231594324111938477e+00,2.238671064376831055e+00,2.245792627334594727e+00,2.252959728240966797e+00,2.260172605514526367e+00,2.267431974411010742e+00,2.274738073348999023e+00,2.282091379165649414e+00,2.289492368698120117e+00,2.296941518783569336e+00,2.304439306259155273e+00,2.311986207962036133e+00,2.319582700729370117e+00,2.327229261398315430e+00,2.334926366806030273e+00,2.342674732208251953e+00,2.350474596023559570e+00,2.358326673507690430e+00,2.366230964660644531e+00,2.374188899993896484e+00,2.382200241088867188e+00,2.390265941619873047e+00,2.398386716842651367e+00,2.406562566757202148e+00,2.414794445037841797e+00,2.423082828521728516e+00,2.431427955627441406e+00,2.439831256866455078e+00,2.448292493820190430e+00,2.456812858581542969e+00,2.465392589569091797e+00,2.474032402038574219e+00,2.482733249664306641e+00,2.491495370864868164e+00,2.500319480895996094e+00,2.509206533432006836e+00,2.518156766891479492e+00,2.527171134948730469e+00,2.536250352859497070e+00,2.545394897460937500e+00,2.554605722427368164e+00,2.563883304595947266e+00,2.573228836059570312e+00,2.582642555236816406e+00,2.592125177383422852e+00,2.601678133010864258e+00,2.611301422119140625e+00,2.620996236801147461e+00,2.630763053894042969e+00,2.640603065490722656e+00,2.650517702102661133e+00,2.660506248474121094e+00,2.670570611953735352e+00,2.680711269378662109e+00,2.690929651260375977e+00,2.701225757598876953e+00,2.711601257324218750e+00,2.722056627273559570e+00,2.732592582702636719e+00,2.743211030960083008e+00,2.753911972045898438e+00,2.764696836471557617e+00,2.775566577911376953e+00,2.786522150039672852e+00,2.797564268112182617e+00,2.808694362640380859e+00,2.819913387298583984e+00,2.831222534179687500e+00,2.842622756958007812e+00,2.854115009307861328e+00,2.865700721740722656e+00,2.877380609512329102e+00,2.889156341552734375e+00,2.901028633117675781e+00,2.912999153137207031e+00,2.925068855285644531e+00
2.203711986541748047e+00,2.210612535476684570e+00,2.217556476593017578e+00,2.224544048309326172e+00,2.231575965881347656e+00,2.238652467727661133e+00,2.245774030685424805e+00,2.252940893173217773e+00,2.260153770446777344e+00,2.267412900924682617e+00,2.274718999862670898e+00,2.282072067260742188e+00,2.289473056793212891e+00,2.296922206878662109e+00,2.304419755935668945e+00,2.311966419219970703e+00,2.319562911987304688e+00,2.327209234237670898e+00,2.334906339645385742e+00,2.342654466629028320e+00,2.350454092025756836e+00,2.358305931091308594e+00,2.366210460662841797e+00,2.374167919158935547e+00,2.382179498672485352e+00,2.390244960784912109e+00,2.398365497589111328e+00,2.406541109085083008e+00,2.414772748947143555e+00,2.423061132431030273e+00,2.431406259536743164e+00,2.439809083938598633e+00,2.448270559310913086e+00,2.456790447235107422e+00,2.465370178222656250e+00,2.474009752273559570e+00,2.482710361480712891e+00,2.491472482681274414e+00,2.500296592712402344e+00,2.509183406829833984e+00,2.518133401870727539e+00,2.527147531509399414e+00,2.536226511001586914e+00,2.545371055603027344e+00,2.554581642150878906e+00,2.563859224319458008e+00,2.573204278945922852e+00,2.582617759704589844e+00,2.592100381851196289e+00,2.601653099060058594e+00,2.611276149749755859e+00,2.620971202850341797e+00,2.630738019943237305e+00,2.640578031539916992e+00,2.650491952896118164e+00,2.660480499267578125e+00,2.670544624328613281e+00,2.680685281753540039e+00,2.690902471542358398e+00,2.701198577880859375e+00,2.711574077606201172e+00,2.722029447555541992e+00,2.732565641403198242e+00,2.743183612823486328e+00,2.753884315490722656e+00,2.764668941497802734e+00,2.775538444519042969e+00,2.786493539810180664e+00,2.797535657882690430e+00,2.808665752410888672e+00,2.819884538650512695e+00,2.831193208694458008e+00,2.842593193054199219e+00,2.854085206985473633e+00,2.865670680999755859e+00,2.877350330352783203e+00,2.889125823974609375e+00,2.900998115539550781e+00,2.912968158721923828e+00,2.925037384033203125e+00
2.203694105148315430e+00,2.210594415664672852e+00,2.217538356781005859e+00,2.224525928497314453e+00,2.231557607650756836e+00,2.238633871078491211e+00,2.245755434036254883e+00,2.252922058105468750e+00,2.260135173797607422e+00,2.267394065856933594e+00,2.274699926376342773e+00,2.282052993774414062e+00,2.289453506469726562e+00,2.296902656555175781e+00,2.304400205612182617e+00,2.311946630477905273e+00,2.319542884826660156e+00,2.327189207077026367e+00,2.334886074066162109e+00,2.342634201049804688e+00,2.350433826446533203e+00,2.358285427093505859e+00,2.366189956665039062e+00,2.374147415161132812e+00,2.382158517837524414e+00,2.390223979949951172e+00,2.398344039916992188e+00,2.406519651412963867e+00,2.414751291275024414e+00,2.423039436340332031e+00,2.431384325027465820e+00,2.439787149429321289e+00,2.448248386383056641e+00,2.456768274307250977e+00,2.465347766876220703e+00,2.473987340927124023e+00,2.482687950134277344e+00,2.491449594497680664e+00,2.500273466110229492e+00,2.509160041809082031e+00,2.518109798431396484e+00,2.527123928070068359e+00,2.536202669143676758e+00,2.545346975326538086e+00,2.554557561874389648e+00,2.563834905624389648e+00,2.573179721832275391e+00,2.582593202590942383e+00,2.592075586318969727e+00,2.601628303527832031e+00,2.611251354217529297e+00,2.620945692062377930e+00,2.630712509155273438e+00,2.640552282333374023e+00,2.650465965270996094e+00,2.660454273223876953e+00,2.670518398284912109e+00,2.680658578872680664e+00,2.690876483917236328e+00,2.701172351837158203e+00,2.711547136306762695e+00,2.722002267837524414e+00,2.732538461685180664e+00,2.743155479431152344e+00,2.753856182098388672e+00,2.764641046524047852e+00,2.775510311126708984e+00,2.786465167999267578e+00,2.797507047653198242e+00,2.808636665344238281e+00,2.819855451583862305e+00,2.831164121627807617e+00,2.842563629150390625e+00,2.854055643081665039e+00,2.865640401840209961e+00,2.877320051193237305e+00,2.889095306396484375e+00,2.900967359542846680e+00,2.912937164306640625e+00,2.925006389617919922e+00
2.203675985336303711e+00,2.210576295852661133e+00,2.217520236968994141e+00,2.224507570266723633e+00,2.231539249420166016e+00,2.238615512847900391e+00,2.245736837387084961e+00,2.252903461456298828e+00,2.260116100311279297e+00,2.267374992370605469e+00,2.274680852890014648e+00,2.282033681869506836e+00,2.289434194564819336e+00,2.296883106231689453e+00,2.304380416870117188e+00,2.311927080154418945e+00,2.319523096084594727e+00,2.327169179916381836e+00,2.334866046905517578e+00,2.342613935470581055e+00,2.350413560867309570e+00,2.358265161514282227e+00,2.366169214248657227e+00,2.374126434326171875e+00,2.382137537002563477e+00,2.390202760696411133e+00,2.398322820663452148e+00,2.406498432159423828e+00,2.414729595184326172e+00,2.423017740249633789e+00,2.431362628936767578e+00,2.439765214920043945e+00,2.448226213455200195e+00,2.456746101379394531e+00,2.465325355529785156e+00,2.473964929580688477e+00,2.482665061950683594e+00,2.491426706314086914e+00,2.500250339508056641e+00,2.509136676788330078e+00,2.518086433410644531e+00,2.527100324630737305e+00,2.536179065704345703e+00,2.545323133468627930e+00,2.554533481597900391e+00,2.563810586929321289e+00,2.573155403137207031e+00,2.582568645477294922e+00,2.592051029205322266e+00,2.601603269577026367e+00,2.611226081848144531e+00,2.620920419692993164e+00,2.630686998367309570e+00,2.640526533126831055e+00,2.650439977645874023e+00,2.660428047180175781e+00,2.670491933822631836e+00,2.680632114410400391e+00,2.690849781036376953e+00,2.701145410537719727e+00,2.711520195007324219e+00,2.721975088119506836e+00,2.732510805130004883e+00,2.743128538131713867e+00,2.753828763961791992e+00,2.764613151550292969e+00,2.775482177734375000e+00,2.786436796188354492e+00,2.797478437423706055e+00,2.808607578277587891e+00,2.819825887680053711e+00,2.831134557723999023e+00,2.842534065246582031e+00,2.854025840759277344e+00,2.865610599517822266e+00,2.877290010452270508e+00,2.889065027236938477e+00,2.900936365127563477e+00,2.912906169891357422e+00,2.924974918365478516e+00
2.203658103942871094e+00,2.210558414459228516e+00,2.217501878738403320e+00,2.224489212036132812e+00,2.231520891189575195e+00,2.238597154617309570e+00,2.245718240737915039e+00,2.252884864807128906e+00,2.260097265243530273e+00,2.267355918884277344e+00,2.274661540985107422e+00,2.282014369964599609e+00,2.289414882659912109e+00,2.296863555908203125e+00,2.304360866546630859e+00,2.311907291412353516e+00,2.319503307342529297e+00,2.327149152755737305e+00,2.334846019744873047e+00,2.342593669891357422e+00,2.350393056869506836e+00,2.358244419097900391e+00,2.366148471832275391e+00,2.374105691909790039e+00,2.382116556167602539e+00,2.390181779861450195e+00,2.398301601409912109e+00,2.406476974487304688e+00,2.414708137512207031e+00,2.422996044158935547e+00,2.431340694427490234e+00,2.439743280410766602e+00,2.448204278945922852e+00,2.456723690032958984e+00,2.465302944183349609e+00,2.473942279815673828e+00,2.482642412185668945e+00,2.491403818130493164e+00,2.500227212905883789e+00,2.509113550186157227e+00,2.518063068389892578e+00,2.527076721191406250e+00,2.536155223846435547e+00,2.545299291610717773e+00,2.554509401321411133e+00,2.563786506652832031e+00,2.573131084442138672e+00,2.582544088363647461e+00,2.592026233673095703e+00,2.601578235626220703e+00,2.611200809478759766e+00,2.620894908905029297e+00,2.630661249160766602e+00,2.640500783920288086e+00,2.650413990020751953e+00,2.660402059555053711e+00,2.670465707778930664e+00,2.680605649948120117e+00,2.690823078155517578e+00,2.701118469238281250e+00,2.711493015289306641e+00,2.721947669982910156e+00,2.732483148574829102e+00,2.743100643157958984e+00,2.753800868988037109e+00,2.764584779739379883e+00,2.775453567504882812e+00,2.786408185958862305e+00,2.797449588775634766e+00,2.808578968048095703e+00,2.819797039031982422e+00,2.831105470657348633e+00,2.842504739761352539e+00,2.853996038436889648e+00,2.865580320358276367e+00,2.877259016036987305e+00,2.889034271240234375e+00,2.900905847549438477e+00,2.912875175476074219e+00,2.924943923950195312e+00
2.203640222549438477e+00,2.210540294647216797e+00,2.217483997344970703e+00,2.224471092224121094e+00,2.231502532958984375e+00,2.238578557968139648e+00,2.245699644088745117e+00,2.252866029739379883e+00,2.260078430175781250e+00,2.267337083816528320e+00,2.274642467498779297e+00,2.281995296478271484e+00,2.289395570755004883e+00,2.296844005584716797e+00,2.304341316223144531e+00,2.311887741088867188e+00,2.319483518600463867e+00,2.327129364013671875e+00,2.334825992584228516e+00,2.342573404312133789e+00,2.350372552871704102e+00,2.358223915100097656e+00,2.366127729415893555e+00,2.374084949493408203e+00,2.382095575332641602e+00,2.390160560607910156e+00,2.398280382156372070e+00,2.406455516815185547e+00,2.414686679840087891e+00,2.422974348068237305e+00,2.431318998336791992e+00,2.439721345901489258e+00,2.448182106018066406e+00,2.456701517105102539e+00,2.465280532836914062e+00,2.473919630050659180e+00,2.482619524002075195e+00,2.491380691528320312e+00,2.500204086303710938e+00,2.509090185165405273e+00,2.518039703369140625e+00,2.527053117752075195e+00,2.536131620407104492e+00,2.545275449752807617e+00,2.554485321044921875e+00,2.563762187957763672e+00,2.573106527328491211e+00,2.582519531250000000e+00,2.592001199722290039e+00,2.601553201675415039e+00,2.611175775527954102e+00,2.620869636535644531e+00,2.630635738372802734e+00,2.640475034713745117e+00,2.650388002395629883e+00,2.660375833511352539e+00,2.670439481735229492e+00,2.680579185485839844e+00,2.690796375274658203e+00,2.701091527938842773e+00,2.711465835571289062e+00,2.721920251846313477e+00,2.732455492019653320e+00,2.743072748184204102e+00,2.753772735595703125e+00,2.764556646347045898e+00,2.775425195693969727e+00,2.786379575729370117e+00,2.797420740127563477e+00,2.808550119400024414e+00,2.819767951965332031e+00,2.831075906753540039e+00,2.842474937438964844e+00,2.853965997695922852e+00,2.865550518035888672e+00,2.877229213714599609e+00,2.889003753662109375e+00,2.900874853134155273e+00,2.912844181060791016e+00,2.924912452697753906e+00
2.203622341156005859e+00,2.210522413253784180e+00,2.217465877532958984e+00,2.224452972412109375e+00,2.231484174728393555e+00,2.238559961318969727e+00,2.245681047439575195e+00,2.252847194671630859e+00,2.260059595108032227e+00,2.267318010330200195e+00,2.274623394012451172e+00,2.281975984573364258e+00,2.289376020431518555e+00,2.296824693679809570e+00,2.304321765899658203e+00,2.311867952346801758e+00,2.319463491439819336e+00,2.327109336853027344e+00,2.334805727005004883e+00,2.342553138732910156e+00,2.350352287292480469e+00,2.358203411102294922e+00,2.366106986999511719e+00,2.374063968658447266e+00,2.382074594497680664e+00,2.390139579772949219e+00,2.398259162902832031e+00,2.406434297561645508e+00,2.414665222167968750e+00,2.422952651977539062e+00,2.431297063827514648e+00,2.439699411392211914e+00,2.448159933090209961e+00,2.456679105758666992e+00,2.465258121490478516e+00,2.473896980285644531e+00,2.482596874237060547e+00,2.491357803344726562e+00,2.500180959701538086e+00,2.509067058563232422e+00,2.518016338348388672e+00,2.527029752731323242e+00,2.536108016967773438e+00,2.545251607894897461e+00,2.554461240768432617e+00,2.563737869262695312e+00,2.573082208633422852e+00,2.582494735717773438e+00,2.591976404190063477e+00,2.601528167724609375e+00,2.611150503158569336e+00,2.620844125747680664e+00,2.630610227584838867e+00,2.640449285507202148e+00,2.650362253189086914e+00,2.660349845886230469e+00,2.670413017272949219e+00,2.680552721023559570e+00,2.690769672393798828e+00,2.701064586639404297e+00,2.711438894271850586e+00,2.721893072128295898e+00,2.732428073883056641e+00,2.743045091629028320e+00,2.753744840621948242e+00,2.764528274536132812e+00,2.775396823883056641e+00,2.786350965499877930e+00,2.797391891479492188e+00,2.808520793914794922e+00,2.819738626480102539e+00,2.831046342849731445e+00,2.842444896697998047e+00,2.853935956954956055e+00,2.865520000457763672e+00,2.877198696136474609e+00,2.888972997665405273e+00,2.900843858718872070e+00,2.912812709808349609e+00,2.924880743026733398e+00
2.203604459762573242e+00,2.210504293441772461e+00,2.217447519302368164e+00,2.224434614181518555e+00,2.231465816497802734e+00,2.238541603088378906e+00,2.245662450790405273e+00,2.252828598022460938e+00,2.260040760040283203e+00,2.267298936843872070e+00,2.274604320526123047e+00,2.281956911087036133e+00,2.289356946945190430e+00,2.296805381774902344e+00,2.304302215576171875e+00,2.311848163604736328e+00,2.319443702697753906e+00,2.327089309692382812e+00,2.334785699844360352e+00,2.342532873153686523e+00,2.350331783294677734e+00,2.358182907104492188e+00,2.366086483001708984e+00,2.374043226242065430e+00,2.382053613662719727e+00,2.390118598937988281e+00,2.398237943649291992e+00,2.406412839889526367e+00,2.414643764495849609e+00,2.422930955886840820e+00,2.431275367736816406e+00,2.439677476882934570e+00,2.448137760162353516e+00,2.456656932830810547e+00,2.465235710144042969e+00,2.473874330520629883e+00,2.482573986053466797e+00,2.491334915161132812e+00,2.500158071517944336e+00,2.509043931961059570e+00,2.517992973327636719e+00,2.527006149291992188e+00,2.536084175109863281e+00,2.545227527618408203e+00,2.554437160491943359e+00,2.563713550567626953e+00,2.573057651519775391e+00,2.582470178604125977e+00,2.591951608657836914e+00,2.601503133773803711e+00,2.611125230789184570e+00,2.620818853378295898e+00,2.630584716796875000e+00,2.640423536300659180e+00,2.650336265563964844e+00,2.660323619842529297e+00,2.670386791229248047e+00,2.680526018142700195e+00,2.690742969512939453e+00,2.701037645339965820e+00,2.711411714553833008e+00,2.721865653991699219e+00,2.732400417327880859e+00,2.743017196655273438e+00,2.753716707229614258e+00,2.764500379562377930e+00,2.775368452072143555e+00,2.786322355270385742e+00,2.797363042831420898e+00,2.808491706848144531e+00,2.819709300994873047e+00,2.831016540527343750e+00,2.842415094375610352e+00,2.853905916213989258e+00,2.865489721298217773e+00,2.877168178558349609e+00,2.888942003250122070e+00,2.900812864303588867e+00,2.912781476974487305e+00,2.924849510192871094e+00
2.203586578369140625e+00,2.210486173629760742e+00,2.217429399490356445e+00,2.224416255950927734e+00,2.231447458267211914e+00,2.238523006439208984e+00,2.245643615722656250e+00,2.252809762954711914e+00,2.260021686553955078e+00,2.267280101776123047e+00,2.274585247039794922e+00,2.281937599182128906e+00,2.289337635040283203e+00,2.296785831451416016e+00,2.304282426834106445e+00,2.311828374862670898e+00,2.319423913955688477e+00,2.327069282531738281e+00,2.334765434265136719e+00,2.342512607574462891e+00,2.350311279296875000e+00,2.358162403106689453e+00,2.366065740585327148e+00,2.374022483825683594e+00,2.382032871246337891e+00,2.390097379684448242e+00,2.398216724395751953e+00,2.406391620635986328e+00,2.414622068405151367e+00,2.422909259796142578e+00,2.431253433227539062e+00,2.439655303955078125e+00,2.448115587234497070e+00,2.456634521484375000e+00,2.465213060379028320e+00,2.473851680755615234e+00,2.482551336288452148e+00,2.491312026977539062e+00,2.500134944915771484e+00,2.509020566940307617e+00,2.517969608306884766e+00,2.526982545852661133e+00,2.536060333251953125e+00,2.545203685760498047e+00,2.554413080215454102e+00,2.563689231872558594e+00,2.573033094406127930e+00,2.582445621490478516e+00,2.591926813125610352e+00,2.601478099822998047e+00,2.611100196838378906e+00,2.620793581008911133e+00,2.630559206008911133e+00,2.640397787094116211e+00,2.650310516357421875e+00,2.660297632217407227e+00,2.670360326766967773e+00,2.680499553680419922e+00,2.690716266632080078e+00,2.701010704040527344e+00,2.711384534835815430e+00,2.721838235855102539e+00,2.732372760772705078e+00,2.742989540100097656e+00,2.753688812255859375e+00,2.764472007751464844e+00,2.775340080261230469e+00,2.786293745040893555e+00,2.797334194183349609e+00,2.808462619781494141e+00,2.819679737091064453e+00,2.830986976623535156e+00,2.842385292053222656e+00,2.853875637054443359e+00,2.865459442138671875e+00,2.877137422561645508e+00,2.888911247253417969e+00,2.900781869888305664e+00,2.912750244140625000e+00,2.924817800521850586e+00
2.203568458557128906e+00,2.210468292236328125e+00,2.217411279678344727e+00,2.224397897720336914e+00,2.231428861618041992e+00,2.238504409790039062e+00,2.245625019073486328e+00,2.252791166305541992e+00,2.260003089904785156e+00,2.267261266708374023e+00,2.274566173553466797e+00,2.281918287277221680e+00,2.289318084716796875e+00,2.296766281127929688e+00,2.304262876510620117e+00,2.311808586120605469e+00,2.319403886795043945e+00,2.327049255371093750e+00,2.334745407104492188e+00,2.342492341995239258e+00,2.350291013717651367e+00,2.358141899108886719e+00,2.366045236587524414e+00,2.374001741409301758e+00,2.382011890411376953e+00,2.390076398849487305e+00,2.398195505142211914e+00,2.406370162963867188e+00,2.414600610733032227e+00,2.422887563705444336e+00,2.431231737136840820e+00,2.439633369445800781e+00,2.448093414306640625e+00,2.456612348556518555e+00,2.465190887451171875e+00,2.473829269409179688e+00,2.482528686523437500e+00,2.491289138793945312e+00,2.500111818313598633e+00,2.508997440338134766e+00,2.517946004867553711e+00,2.526958942413330078e+00,2.536036491394042969e+00,2.545179605484008789e+00,2.554388999938964844e+00,2.563664913177490234e+00,2.573008775711059570e+00,2.582420825958251953e+00,2.591902256011962891e+00,2.601453304290771484e+00,2.611075162887573242e+00,2.620768308639526367e+00,2.630533695220947266e+00,2.640372037887573242e+00,2.650284528732299805e+00,2.660271406173706055e+00,2.670334100723266602e+00,2.680473089218139648e+00,2.690689325332641602e+00,2.700983762741088867e+00,2.711357355117797852e+00,2.721811056137084961e+00,2.732345342636108398e+00,2.742961883544921875e+00,2.753660917282104492e+00,2.764443874359130859e+00,2.775311470031738281e+00,2.786264896392822266e+00,2.797305107116699219e+00,2.808433532714843750e+00,2.819650411605834961e+00,2.830957412719726562e+00,2.842355489730834961e+00,2.853845596313476562e+00,2.865429401397705078e+00,2.877107143402099609e+00,2.888880729675292969e+00,2.900750875473022461e+00,2.912719011306762695e+00,2.924786329269409180e+00
2.203550577163696289e+00,2.210450172424316406e+00,2.217393159866333008e+00,2.224379777908325195e+00,2.231410503387451172e+00,2.238486051559448242e+00,2.245606660842895508e+00,2.252772331237792969e+00,2.259984254837036133e+00,2.267242193222045898e+00,2.274547100067138672e+00,2.281899213790893555e+00,2.289298772811889648e+00,2.296746730804443359e+00,2.304243326187133789e+00,2.311788797378540039e+00,2.319384098052978516e+00,2.327029228210449219e+00,2.334725141525268555e+00,2.342472314834594727e+00,2.350270748138427734e+00,2.358121395111083984e+00,2.366024494171142578e+00,2.373980998992919922e+00,2.381990909576416016e+00,2.390055179595947266e+00,2.398174285888671875e+00,2.406348705291748047e+00,2.414579153060913086e+00,2.422865867614746094e+00,2.431209802627563477e+00,2.439611434936523438e+00,2.448071479797363281e+00,2.456590175628662109e+00,2.465168476104736328e+00,2.473806619644165039e+00,2.482505798339843750e+00,2.491266250610351562e+00,2.500088691711425781e+00,2.508974075317382812e+00,2.517922639846801758e+00,2.526935338973999023e+00,2.536012887954711914e+00,2.545155763626098633e+00,2.554364919662475586e+00,2.563640832901000977e+00,2.572984457015991211e+00,2.582396507263183594e+00,2.591877460479736328e+00,2.601428270339965820e+00,2.611049890518188477e+00,2.620742797851562500e+00,2.630508184432983398e+00,2.640346288681030273e+00,2.650258541107177734e+00,2.660245180130004883e+00,2.670307636260986328e+00,2.680446386337280273e+00,2.690662622451782227e+00,2.700957059860229492e+00,2.711330413818359375e+00,2.721783638000488281e+00,2.732317924499511719e+00,2.742933988571166992e+00,2.753632783889770508e+00,2.764415740966796875e+00,2.775283098220825195e+00,2.786236286163330078e+00,2.797276258468627930e+00,2.808404207229614258e+00,2.819621086120605469e+00,2.830927848815917969e+00,2.842325925827026367e+00,2.853815793991088867e+00,2.865398883819580078e+00,2.877076625823974609e+00,2.888849735260009766e+00,2.900719642639160156e+00,2.912687540054321289e+00,2.924754619598388672e+00
2.203532695770263672e+00,2.210432052612304688e+00,2.217375040054321289e+00,2.224361658096313477e+00,2.231392383575439453e+00,2.238467693328857422e+00,2.245587825775146484e+00,2.252753734588623047e+00,2.259965419769287109e+00,2.267223119735717773e+00,2.274528026580810547e+00,2.281879901885986328e+00,2.289279460906982422e+00,2.296727418899536133e+00,2.304223537445068359e+00,2.311769247055053711e+00,2.319364309310913086e+00,2.327009439468383789e+00,2.334705114364624023e+00,2.342452049255371094e+00,2.350250244140625000e+00,2.358100891113281250e+00,2.366003751754760742e+00,2.373960018157958984e+00,2.381969928741455078e+00,2.390034198760986328e+00,2.398153066635131836e+00,2.406327247619628906e+00,2.414557456970214844e+00,2.422844171524047852e+00,2.431188106536865234e+00,2.439589500427246094e+00,2.448049306869506836e+00,2.456567764282226562e+00,2.465146064758300781e+00,2.473783969879150391e+00,2.482483148574829102e+00,2.491243362426757812e+00,2.500065565109252930e+00,2.508950948715209961e+00,2.517899274826049805e+00,2.526911735534667969e+00,2.535989046096801758e+00,2.545131921768188477e+00,2.554340839385986328e+00,2.563616514205932617e+00,2.572959899902343750e+00,2.582371711730957031e+00,2.591852664947509766e+00,2.601403236389160156e+00,2.611024618148803711e+00,2.620717525482177734e+00,2.630482435226440430e+00,2.640320539474487305e+00,2.650232553482055664e+00,2.660219192504882812e+00,2.670281410217285156e+00,2.680420160293579102e+00,2.690636157989501953e+00,2.700930118560791016e+00,2.711303234100341797e+00,2.721756219863891602e+00,2.732290267944335938e+00,2.742906093597412109e+00,2.753604888916015625e+00,2.764387369155883789e+00,2.775254726409912109e+00,2.786207675933837891e+00,2.797247409820556641e+00,2.808375120162963867e+00,2.819591999053955078e+00,2.830898284912109375e+00,2.842295885086059570e+00,2.853785753250122070e+00,2.865368604660034180e+00,2.877045869827270508e+00,2.888818979263305664e+00,2.900688648223876953e+00,2.912656307220458984e+00,2.924723148345947266e+00
2.203514575958251953e+00,2.210414171218872070e+00,2.217356920242309570e+00,2.224343299865722656e+00,2.231373786926269531e+00,2.238449096679687500e+00,2.245569229125976562e+00,2.252734899520874023e+00,2.259946346282958984e+00,2.267204284667968750e+00,2.274508953094482422e+00,2.281860589981079102e+00,2.289260149002075195e+00,2.296707868576049805e+00,2.304204225540161133e+00,2.311749458312988281e+00,2.319344520568847656e+00,2.326989412307739258e+00,2.334685087203979492e+00,2.342431783676147461e+00,2.350229978561401367e+00,2.358080387115478516e+00,2.365983247756958008e+00,2.373939275741577148e+00,2.381948947906494141e+00,2.390012979507446289e+00,2.398131847381591797e+00,2.406306028366088867e+00,2.414536237716674805e+00,2.422822713851928711e+00,2.431166172027587891e+00,2.439567565917968750e+00,2.448027133941650391e+00,2.456545591354370117e+00,2.465123414993286133e+00,2.473761558532714844e+00,2.482460260391235352e+00,2.491220474243164062e+00,2.500042676925659180e+00,2.508927583694458008e+00,2.517875909805297852e+00,2.526888370513916016e+00,2.535965442657470703e+00,2.545108079910278320e+00,2.554316759109497070e+00,2.563592433929443359e+00,2.572935581207275391e+00,2.582347154617309570e+00,2.591827630996704102e+00,2.601378202438354492e+00,2.610999584197998047e+00,2.620692014694213867e+00,2.630456924438476562e+00,2.640294790267944336e+00,2.650206565856933594e+00,2.660193204879760742e+00,2.670255184173583984e+00,2.680393457412719727e+00,2.690609455108642578e+00,2.700903177261352539e+00,2.711276054382324219e+00,2.721729040145874023e+00,2.732262611389160156e+00,2.742878437042236328e+00,2.753576755523681641e+00,2.764359235763549805e+00,2.775226116180419922e+00,2.786178827285766602e+00,2.797218799591064453e+00,2.808346271514892578e+00,2.819562435150146484e+00,2.830868721008300781e+00,2.842266082763671875e+00,2.853755474090576172e+00,2.865338325500488281e+00,2.877015352249145508e+00,2.888788223266601562e+00,2.900657653808593750e+00,2.912624835968017578e+00,2.924691438674926758e+00
2.203496932983398438e+00,2.210396051406860352e+00,2.217338800430297852e+00,2.224324941635131836e+00,2.231355428695678711e+00,2.238430500030517578e+00,2.245550632476806641e+00,2.252716064453125000e+00,2.259927511215209961e+00,2.267185211181640625e+00,2.274489641189575195e+00,2.281841516494750977e+00,2.289240837097167969e+00,2.296688556671142578e+00,2.304184675216674805e+00,2.311729907989501953e+00,2.319324493408203125e+00,2.326969385147094727e+00,2.334664821624755859e+00,2.342411518096923828e+00,2.350209474563598633e+00,2.358059644699096680e+00,2.365962505340576172e+00,2.373918533325195312e+00,2.381927967071533203e+00,2.389991998672485352e+00,2.398110628128051758e+00,2.406284809112548828e+00,2.414514541625976562e+00,2.422801017761230469e+00,2.431144475936889648e+00,2.439545631408691406e+00,2.448004961013793945e+00,2.456523180007934570e+00,2.465101003646850586e+00,2.473738908767700195e+00,2.482437610626220703e+00,2.491197347640991211e+00,2.500019550323486328e+00,2.508904457092285156e+00,2.517852544784545898e+00,2.526864767074584961e+00,2.535941600799560547e+00,2.545083999633789062e+00,2.554292678833007812e+00,2.563568115234375000e+00,2.572911024093627930e+00,2.582322597503662109e+00,2.591802835464477539e+00,2.601353406906127930e+00,2.610974311828613281e+00,2.620666742324829102e+00,2.630431413650512695e+00,2.640269279479980469e+00,2.650180816650390625e+00,2.660166978836059570e+00,2.670228958129882812e+00,2.680366992950439453e+00,2.690582513809204102e+00,2.700876235961914062e+00,2.711248874664306641e+00,2.721701622009277344e+00,2.732235193252563477e+00,2.742850542068481445e+00,2.753548860549926758e+00,2.764330863952636719e+00,2.775197982788085938e+00,2.786150455474853516e+00,2.797189712524414062e+00,2.808317184448242188e+00,2.819533109664916992e+00,2.830839157104492188e+00,2.842236280441284180e+00,2.853725433349609375e+00,2.865308046340942383e+00,2.876984834671020508e+00,2.888757228851318359e+00,2.900626420974731445e+00,2.912593603134155273e+00,2.924659729003906250e+00
2.203479051589965820e+00,2.210378170013427734e+00,2.217320680618286133e+00,2.224306821823120117e+00,2.231337070465087891e+00,2.238412141799926758e+00,2.245532035827636719e+00,2.252697467803955078e+00,2.259908676147460938e+00,2.267166137695312500e+00,2.274470806121826172e+00,2.281822443008422852e+00,2.289221525192260742e+00,2.296669006347656250e+00,2.304164886474609375e+00,2.311710119247436523e+00,2.319304704666137695e+00,2.326949357986450195e+00,2.334644794464111328e+00,2.342391252517700195e+00,2.350188970565795898e+00,2.358039140701293945e+00,2.365941762924194336e+00,2.373897552490234375e+00,2.381907224655151367e+00,2.389971017837524414e+00,2.398089408874511719e+00,2.406263351440429688e+00,2.414493083953857422e+00,2.422779321670532227e+00,2.431122541427612305e+00,2.439523696899414062e+00,2.447982788085937500e+00,2.456501007080078125e+00,2.465078592300415039e+00,2.473716259002685547e+00,2.482414722442626953e+00,2.491174697875976562e+00,2.499996662139892578e+00,2.508881330490112305e+00,2.517829179763793945e+00,2.526841163635253906e+00,2.535917997360229492e+00,2.545060157775878906e+00,2.554268598556518555e+00,2.563543796539306641e+00,2.572886705398559570e+00,2.582297801971435547e+00,2.591778039932250977e+00,2.601328372955322266e+00,2.610949039459228516e+00,2.620641469955444336e+00,2.630405902862548828e+00,2.640243530273437500e+00,2.650154829025268555e+00,2.660140752792358398e+00,2.670202493667602539e+00,2.680340528488159180e+00,2.690555810928344727e+00,2.700849294662475586e+00,2.711221694946289062e+00,2.721674203872680664e+00,2.732207536697387695e+00,2.742822885513305664e+00,2.753520965576171875e+00,2.764302968978881836e+00,2.775169610977172852e+00,2.786121845245361328e+00,2.797160863876342773e+00,2.808287858963012695e+00,2.819503784179687500e+00,2.830809593200683594e+00,2.842206478118896484e+00,2.853695392608642578e+00,2.865277528762817383e+00,2.876954078674316406e+00,2.888726472854614258e+00,2.900595426559448242e+00,2.912562608718872070e+00,2.924628496170043945e+00
2.203460931777954102e+00,2.210360050201416016e+00,2.217302322387695312e+00,2.224288463592529297e+00,2.231318712234497070e+00,2.238393545150756836e+00,2.245513439178466797e+00,2.252678632736206055e+00,2.259890079498291016e+00,2.267147302627563477e+00,2.274451732635498047e+00,2.281803131103515625e+00,2.289202213287353516e+00,2.296649456024169922e+00,2.304145336151123047e+00,2.311690330505371094e+00,2.319284915924072266e+00,2.326929569244384766e+00,2.334624528884887695e+00,2.342370986938476562e+00,2.350168704986572266e+00,2.358018636703491211e+00,2.365921258926391602e+00,2.373877048492431641e+00,2.381886243820190430e+00,2.389949798583984375e+00,2.398068189620971680e+00,2.406241893768310547e+00,2.414471626281738281e+00,2.422757625579833984e+00,2.431100845336914062e+00,2.439501523971557617e+00,2.447960853576660156e+00,2.456478595733642578e+00,2.465056180953979492e+00,2.473693847656250000e+00,2.482392072677612305e+00,2.491151809692382812e+00,2.499973535537719727e+00,2.508857965469360352e+00,2.517805814743041992e+00,2.526817560195922852e+00,2.535894155502319336e+00,2.545036315917968750e+00,2.554244518280029297e+00,2.563519477844238281e+00,2.572862148284912109e+00,2.582273244857788086e+00,2.591753244400024414e+00,2.601303577423095703e+00,2.610924243927001953e+00,2.620616197586059570e+00,2.630380392074584961e+00,2.640217781066894531e+00,2.650128841400146484e+00,2.660114765167236328e+00,2.670176267623901367e+00,2.680313825607299805e+00,2.690529108047485352e+00,2.700822114944458008e+00,2.711194515228271484e+00,2.721646785736083984e+00,2.732180118560791016e+00,2.742795228958129883e+00,2.753493070602416992e+00,2.764274597167968750e+00,2.775141000747680664e+00,2.786092996597290039e+00,2.797132015228271484e+00,2.808258771896362305e+00,2.819474458694458008e+00,2.830780029296875000e+00,2.842176437377929688e+00,2.853665351867675781e+00,2.865247249603271484e+00,2.876923799514770508e+00,2.888695955276489258e+00,2.900564432144165039e+00,2.912531137466430664e+00,2.924596786499023438e+00
2.203443050384521484e+00,2.210341930389404297e+00,2.217284202575683594e+00,2.224270105361938477e+00,2.231300354003906250e+00,2.238374948501586914e+00,2.245494842529296875e+00,2.252660036087036133e+00,2.259871006011962891e+00,2.267128467559814453e+00,2.274432420730590820e+00,2.281783819198608398e+00,2.289182662963867188e+00,2.296629905700683594e+00,2.304125785827636719e+00,2.311670541763305664e+00,2.319264888763427734e+00,2.326909542083740234e+00,2.334604501724243164e+00,2.342350482940673828e+00,2.350148439407348633e+00,2.357998371124267578e+00,2.365900516510009766e+00,2.373856067657470703e+00,2.381865262985229492e+00,2.389928817749023438e+00,2.398046970367431641e+00,2.406220436096191406e+00,2.414449930191040039e+00,2.422735929489135742e+00,2.431078910827636719e+00,2.439479589462280273e+00,2.447938680648803711e+00,2.456456422805786133e+00,2.465033769607543945e+00,2.473671197891235352e+00,2.482369422912597656e+00,2.491128921508789062e+00,2.499950408935546875e+00,2.508834838867187500e+00,2.517782211303710938e+00,2.526793956756591797e+00,2.535870313644409180e+00,2.545012235641479492e+00,2.554220438003540039e+00,2.563495159149169922e+00,2.572837829589843750e+00,2.582248687744140625e+00,2.591728687286376953e+00,2.601278543472290039e+00,2.610898971557617188e+00,2.620590925216674805e+00,2.630354881286621094e+00,2.640192031860351562e+00,2.650103092193603516e+00,2.660088539123535156e+00,2.670149803161621094e+00,2.680287361145019531e+00,2.690502405166625977e+00,2.700795173645019531e+00,2.711167573928833008e+00,2.721619606018066406e+00,2.732152462005615234e+00,2.742767333984375000e+00,2.753464937210083008e+00,2.764246463775634766e+00,2.775112628936767578e+00,2.786064386367797852e+00,2.797102928161621094e+00,2.808229684829711914e+00,2.819445133209228516e+00,2.830750226974487305e+00,2.842146635055541992e+00,2.853635549545288086e+00,2.865217208862304688e+00,2.876893281936645508e+00,2.888664960861206055e+00,2.900533437728881836e+00,2.912499904632568359e+00,2.924565315246582031e+00
2.203425168991088867e+00,2.210323810577392578e+00,2.217266082763671875e+00,2.224251985549926758e+00,2.231281995773315430e+00,2.238356590270996094e+00,2.245476245880126953e+00,2.252641201019287109e+00,2.259852170944213867e+00,2.267109394073486328e+00,2.274413347244262695e+00,2.281764507293701172e+00,2.289163351058959961e+00,2.296610593795776367e+00,2.304105997085571289e+00,2.311650753021240234e+00,2.319245100021362305e+00,2.326889514923095703e+00,2.334584474563598633e+00,2.342330455780029297e+00,2.350127935409545898e+00,2.357977628707885742e+00,2.365879774093627930e+00,2.373835325241088867e+00,2.381844282150268555e+00,2.389907598495483398e+00,2.398025751113891602e+00,2.406199216842651367e+00,2.414428472518920898e+00,2.422714233398437500e+00,2.431056976318359375e+00,2.439457893371582031e+00,2.447916746139526367e+00,2.456434249877929688e+00,2.465011358261108398e+00,2.473648548126220703e+00,2.482346534729003906e+00,2.491105794906616211e+00,2.499927282333374023e+00,2.508811473846435547e+00,2.517758846282958984e+00,2.526770353317260742e+00,2.535846710205078125e+00,2.544988393783569336e+00,2.554196357727050781e+00,2.563471078872680664e+00,2.572813510894775391e+00,2.582224130630493164e+00,2.591703891754150391e+00,2.601253509521484375e+00,2.610873699188232422e+00,2.620565414428710938e+00,2.630329370498657227e+00,2.640166282653808594e+00,2.650077104568481445e+00,2.660062313079833984e+00,2.670123577117919922e+00,2.680260896682739258e+00,2.690475702285766602e+00,2.700768470764160156e+00,2.711140394210815430e+00,2.721592187881469727e+00,2.732125043869018555e+00,2.742739677429199219e+00,2.753437042236328125e+00,2.764218091964721680e+00,2.775084018707275391e+00,2.786035776138305664e+00,2.797074079513549805e+00,2.808200597763061523e+00,2.819415569305419922e+00,2.830720901489257812e+00,2.842117071151733398e+00,2.853605270385742188e+00,2.865186929702758789e+00,2.876862764358520508e+00,2.888634204864501953e+00,2.900502443313598633e+00,2.912468433380126953e+00,2.924533605575561523e+00
2.203407287597656250e+00,2.210305929183959961e+00,2.217247962951660156e+00,2.224233627319335938e+00,2.231263637542724609e+00,2.238338232040405273e+00,2.245457649230957031e+00,2.252622604370117188e+00,2.259833335876464844e+00,2.267090320587158203e+00,2.274394273757934570e+00,2.281745433807373047e+00,2.289144039154052734e+00,2.296591043472290039e+00,2.304086446762084961e+00,2.311631202697753906e+00,2.319225311279296875e+00,2.326869487762451172e+00,2.334564447402954102e+00,2.342310190200805664e+00,2.350107669830322266e+00,2.357957124710083008e+00,2.365859270095825195e+00,2.373814582824707031e+00,2.381823301315307617e+00,2.389886617660522461e+00,2.398004293441772461e+00,2.406177759170532227e+00,2.414406776428222656e+00,2.422692775726318359e+00,2.431035518646240234e+00,2.439435720443725586e+00,2.447894573211669922e+00,2.456411838531494141e+00,2.464988946914672852e+00,2.473625898361206055e+00,2.482323884963989258e+00,2.491082906723022461e+00,2.499904155731201172e+00,2.508788108825683594e+00,2.517735481262207031e+00,2.526746749877929688e+00,2.535823106765747070e+00,2.544964551925659180e+00,2.554172277450561523e+00,2.563446760177612305e+00,2.572788953781127930e+00,2.582199573516845703e+00,2.591679096221923828e+00,2.601228475570678711e+00,2.610848665237426758e+00,2.620540142059326172e+00,2.630303859710693359e+00,2.640140533447265625e+00,2.650051116943359375e+00,2.660036325454711914e+00,2.670097351074218750e+00,2.680234432220458984e+00,2.690448999404907227e+00,2.700741529464721680e+00,2.711113214492797852e+00,2.721565008163452148e+00,2.732097387313842773e+00,2.742711782455444336e+00,2.753408908843994141e+00,2.764189958572387695e+00,2.775055646896362305e+00,2.786006927490234375e+00,2.797045230865478516e+00,2.808171510696411133e+00,2.819386482238769531e+00,2.830691337585449219e+00,2.842087268829345703e+00,2.853575229644775391e+00,2.865156412124633789e+00,2.876832008361816406e+00,2.888603448867797852e+00,2.900471210479736328e+00,2.912437200546264648e+00,2.924502134323120117e+00
2.203389406204223633e+00,2.210288047790527344e+00,2.217229843139648438e+00,2.224215507507324219e+00,2.231245279312133789e+00,2.238319635391235352e+00,2.245439052581787109e+00,2.252603769302368164e+00,2.259814500808715820e+00,2.267071485519409180e+00,2.274375200271606445e+00,2.281726121902465820e+00,2.289124727249145508e+00,2.296571731567382812e+00,2.304066896438598633e+00,2.311611413955688477e+00,2.319205522537231445e+00,2.326849699020385742e+00,2.334544181823730469e+00,2.342289924621582031e+00,2.350087165832519531e+00,2.357936620712280273e+00,2.365838527679443359e+00,2.373793601989746094e+00,2.381802558898925781e+00,2.389865398406982422e+00,2.397983074188232422e+00,2.406156539916992188e+00,2.414385557174682617e+00,2.422671079635620117e+00,2.431013584136962891e+00,2.439413785934448242e+00,2.447872400283813477e+00,2.456389665603637695e+00,2.464966535568237305e+00,2.473603248596191406e+00,2.482300996780395508e+00,2.491060018539428711e+00,2.499881029129028320e+00,2.508764982223510742e+00,2.517712116241455078e+00,2.526723384857177734e+00,2.535799264907836914e+00,2.544940710067749023e+00,2.554148197174072266e+00,2.563422441482543945e+00,2.572764635086059570e+00,2.582174777984619141e+00,2.591654062271118164e+00,2.601203441619873047e+00,2.610823392868041992e+00,2.620514631271362305e+00,2.630278110504150391e+00,2.640114784240722656e+00,2.650025367736816406e+00,2.660010337829589844e+00,2.670070886611938477e+00,2.680207967758178711e+00,2.690422296524047852e+00,2.700714588165283203e+00,2.711086034774780273e+00,2.721537590026855469e+00,2.732069730758666992e+00,2.742684125900268555e+00,2.753381013870239258e+00,2.764161825180053711e+00,2.775027275085449219e+00,2.785978555679321289e+00,2.797016620635986328e+00,2.808142423629760742e+00,2.819357156753540039e+00,2.830661773681640625e+00,2.842057466506958008e+00,2.853545188903808594e+00,2.865126132965087891e+00,2.876801490783691406e+00,2.888572454452514648e+00,2.900440216064453125e+00,2.912405729293823242e+00,2.924470424652099609e+00
2.203371524810791016e+00,2.210269927978515625e+00,2.217211723327636719e+00,2.224197149276733398e+00,2.231226921081542969e+00,2.238301038742065430e+00,2.245420455932617188e+00,2.252584934234619141e+00,2.259795665740966797e+00,2.267052412033081055e+00,2.274356126785278320e+00,2.281707048416137695e+00,2.289105415344238281e+00,2.296552181243896484e+00,2.304047346115112305e+00,2.311591625213623047e+00,2.319185495376586914e+00,2.326829671859741211e+00,2.334524154663085938e+00,2.342269659042358398e+00,2.350066661834716797e+00,2.357916116714477539e+00,2.365817785263061523e+00,2.373772859573364258e+00,2.381781578063964844e+00,2.389844417572021484e+00,2.397962093353271484e+00,2.406135082244873047e+00,2.414363861083984375e+00,2.422649383544921875e+00,2.430991649627685547e+00,2.439391851425170898e+00,2.447850227355957031e+00,2.456367254257202148e+00,2.464944124221801758e+00,2.473580837249755859e+00,2.482278347015380859e+00,2.491037130355834961e+00,2.499858140945434570e+00,2.508741855621337891e+00,2.517688751220703125e+00,2.526699781417846680e+00,2.535775661468505859e+00,2.544916629791259766e+00,2.554124116897583008e+00,2.563398122787475586e+00,2.572740077972412109e+00,2.582150220870971680e+00,2.591629266738891602e+00,2.601178407669067383e+00,2.610798120498657227e+00,2.620489358901977539e+00,2.630252838134765625e+00,2.640089273452758789e+00,2.649999380111694336e+00,2.659984111785888672e+00,2.670044660568237305e+00,2.680181503295898438e+00,2.690395593643188477e+00,2.700687646865844727e+00,2.711058855056762695e+00,2.721510171890258789e+00,2.732042312622070312e+00,2.742656230926513672e+00,2.753352880477905273e+00,2.764133691787719727e+00,2.774998903274536133e+00,2.785949945449829102e+00,2.796987533569335938e+00,2.808113336563110352e+00,2.819327831268310547e+00,2.830632209777832031e+00,2.842027425765991211e+00,2.853515148162841797e+00,2.865095853805541992e+00,2.876770973205566406e+00,2.888541698455810547e+00,2.900408983230590820e+00,2.912374496459960938e+00,2.924439191818237305e+00
2.203353404998779297e+00,2.210251808166503906e+00,2.217193603515625000e+00,2.224178791046142578e+00,2.231208562850952148e+00,2.238282680511474609e+00,2.245401620864868164e+00,2.252566337585449219e+00,2.259776830673217773e+00,2.267033576965332031e+00,2.274337053298950195e+00,2.281687736511230469e+00,2.289086103439331055e+00,2.296532630920410156e+00,2.304027795791625977e+00,2.311572074890136719e+00,2.319165706634521484e+00,2.326809644699096680e+00,2.334503889083862305e+00,2.342249393463134766e+00,2.350046396255493164e+00,2.357895612716674805e+00,2.365797042846679688e+00,2.373752117156982422e+00,2.381760597229003906e+00,2.389823436737060547e+00,2.397940874099731445e+00,2.406113624572753906e+00,2.414342403411865234e+00,2.422627687454223633e+00,2.430969953536987305e+00,2.439369916915893555e+00,2.447828054428100586e+00,2.456345081329345703e+00,2.464921712875366211e+00,2.473558187484741211e+00,2.482255697250366211e+00,2.491014480590820312e+00,2.499835014343261719e+00,2.508718729019165039e+00,2.517665386199951172e+00,2.526676177978515625e+00,2.535751819610595703e+00,2.544892787933349609e+00,2.554100036621093750e+00,2.563374042510986328e+00,2.572715520858764648e+00,2.582125663757324219e+00,2.591604471206665039e+00,2.601153373718261719e+00,2.610773086547851562e+00,2.620464086532592773e+00,2.630227327346801758e+00,2.640063524246215820e+00,2.649973392486572266e+00,2.659958124160766602e+00,2.670018196105957031e+00,2.680154800415039062e+00,2.690368890762329102e+00,2.700660705566406250e+00,2.711031675338745117e+00,2.721482753753662109e+00,2.732014656066894531e+00,2.742628574371337891e+00,2.753325223922729492e+00,2.764105558395385742e+00,2.774970531463623047e+00,2.785921096801757812e+00,2.796958684921264648e+00,2.808084249496459961e+00,2.819298505783081055e+00,2.830602407455444336e+00,2.841997623443603516e+00,2.853484869003295898e+00,2.865065574645996094e+00,2.876740455627441406e+00,2.888511180877685547e+00,2.900378227233886719e+00,2.912343263626098633e+00,2.924407482147216797e+00
2.203335523605346680e+00,2.210233688354492188e+00,2.217175483703613281e+00,2.224160671234130859e+00,2.231189966201782227e+00,2.238264083862304688e+00,2.245383024215698242e+00,2.252547740936279297e+00,2.259757995605468750e+00,2.267014503479003906e+00,2.274317979812622070e+00,2.281668663024902344e+00,2.289066791534423828e+00,2.296513319015502930e+00,2.304008245468139648e+00,2.311552286148071289e+00,2.319145917892456055e+00,2.326789617538452148e+00,2.334483861923217773e+00,2.342229127883911133e+00,2.350025892257690430e+00,2.357875108718872070e+00,2.365776538848876953e+00,2.373731374740600586e+00,2.381739616394042969e+00,2.389802217483520508e+00,2.397919654846191406e+00,2.406092405319213867e+00,2.414320945739746094e+00,2.422605991363525391e+00,2.430948019027709961e+00,2.439347743988037109e+00,2.447805881500244141e+00,2.456322669982910156e+00,2.464899301528930664e+00,2.473535776138305664e+00,2.482233047485351562e+00,2.490991353988647461e+00,2.499811887741088867e+00,2.508695363998413086e+00,2.517642021179199219e+00,2.526652574539184570e+00,2.535727977752685547e+00,2.544868946075439453e+00,2.554075956344604492e+00,2.563349723815917969e+00,2.572691202163696289e+00,2.582101106643676758e+00,2.591579914093017578e+00,2.601128578186035156e+00,2.610748052597045898e+00,2.620438814163208008e+00,2.630201578140258789e+00,2.640037536621093750e+00,2.649947404861450195e+00,2.659931898117065430e+00,2.669991970062255859e+00,2.680128335952758789e+00,2.690341949462890625e+00,2.700633764266967773e+00,2.711004495620727539e+00,2.721455574035644531e+00,2.731987237930297852e+00,2.742600917816162109e+00,2.753297090530395508e+00,2.764077186584472656e+00,2.774942159652709961e+00,2.785892486572265625e+00,2.796929836273193359e+00,2.808054924011230469e+00,2.819268941879272461e+00,2.830572843551635742e+00,2.841967821121215820e+00,2.853454828262329102e+00,2.865035295486450195e+00,2.876709938049316406e+00,2.888480186462402344e+00,2.900347232818603516e+00,2.912312030792236328e+00,2.924375772476196289e+00
2.203317642211914062e+00,2.210215806961059570e+00,2.217157125473022461e+00,2.224142313003540039e+00,2.231171607971191406e+00,2.238245725631713867e+00,2.245364665985107422e+00,2.252528905868530273e+00,2.259739160537719727e+00,2.266995668411254883e+00,2.274298906326293945e+00,2.281649351119995117e+00,2.289047479629516602e+00,2.296493768692016602e+00,2.303988456726074219e+00,2.311532497406005859e+00,2.319125890731811523e+00,2.326769590377807617e+00,2.334463834762573242e+00,2.342209100723266602e+00,2.350005626678466797e+00,2.357854604721069336e+00,2.365756034851074219e+00,2.373710632324218750e+00,2.381718873977661133e+00,2.389781236648559570e+00,2.397898435592651367e+00,2.406070947647094727e+00,2.414299249649047852e+00,2.422584295272827148e+00,2.430926322937011719e+00,2.439325809478759766e+00,2.447783946990966797e+00,2.456300497055053711e+00,2.464876890182495117e+00,2.473513126373291016e+00,2.482210159301757812e+00,2.490968465805053711e+00,2.499788999557495117e+00,2.508671998977661133e+00,2.517618417739868164e+00,2.526628971099853516e+00,2.535704374313354492e+00,2.544844865798950195e+00,2.554051876068115234e+00,2.563325643539428711e+00,2.572666883468627930e+00,2.582076549530029297e+00,2.589170694351196289e+00,2.588825225830078125e+00,2.588479518890380859e+00,2.588134050369262695e+00,2.587788820266723633e+00,2.587443590164184570e+00,2.587098360061645508e+00,2.586753129959106445e+00,2.586408376693725586e+00,2.586063146591186523e+00,2.585718631744384766e+00,2.585373878479003906e+00,2.585029125213623047e+00,2.584684610366821289e+00,2.584340095520019531e+00,2.583995819091796875e+00,2.583651542663574219e+00,2.583307504653930664e+00,2.582963466644287109e+00,2.582619190216064453e+00,2.582275390625000000e+00,2.581931591033935547e+00,2.581587791442871094e+00,2.581244230270385742e+00,2.580900669097900391e+00,2.580557346343994141e+00,2.580213785171508789e+00,2.579870700836181641e+00,2.579527616500854492e+00,2.579184293746948242e+00,2.578841447830200195e+00,2.578498601913452148e+00
2.203299760818481445e+00,2.210197687149047852e+00,2.217139005661010742e+00,2.224124193191528320e+00,2.231153488159179688e+00,2.238227128982543945e+00,2.245346069335937500e+00,2.252510309219360352e+00,2.253550052642822266e+00,2.253292560577392578e+00,2.253035068511962891e+00,2.252777814865112305e+00,2.252520561218261719e+00,2.252263069152832031e+00,2.252006053924560547e+00,2.251748800277709961e+00,2.251491785049438477e+00,2.251234769821166992e+00,2.250977754592895508e+00,2.250720739364624023e+00,2.250463962554931641e+00,2.250207185745239258e+00,2.249950647354125977e+00,2.249693870544433594e+00,2.249437093734741211e+00,2.249180555343627930e+00,2.248924016952514648e+00,2.248667716979980469e+00,2.248411178588867188e+00,2.248155117034912109e+00,2.247898578643798828e+00,2.247642517089843750e+00,2.247386217117309570e+00,2.247130393981933594e+00,2.246874332427978516e+00,2.246618270874023438e+00,2.246362447738647461e+00,2.246106624603271484e+00,2.245850801467895508e+00,2.245594978332519531e+00,2.245336532592773438e+00,2.245076656341552734e+00,2.244816541671752930e+00,2.244556903839111328e+00,2.244297027587890625e+00,2.244037389755249023e+00,2.243777751922607422e+00,2.243518114089965820e+00,2.243258714675903320e+00,2.242999076843261719e+00,2.242739677429199219e+00,2.242480516433715820e+00,2.242221117019653320e+00,2.241961956024169922e+00,2.241702795028686523e+00,2.241443634033203125e+00,2.241184473037719727e+00,2.240925550460815430e+00,2.240666627883911133e+00,2.240407705307006836e+00,2.240149021148681641e+00,2.239890336990356445e+00,2.239631414413452148e+00,2.239372968673706055e+00,2.239114522933959961e+00,2.238855838775634766e+00,2.238597393035888672e+00,2.238338947296142578e+00,2.238080739974975586e+00,2.237822294235229492e+00,2.237564325332641602e+00,2.237306118011474609e+00,2.237047910690307617e+00,2.236789941787719727e+00,2.236531972885131836e+00,2.236274003982543945e+00,2.236016273498535156e+00,2.235758304595947266e+00,2.235500574111938477e+00,2.235242843627929688e+00
1.988505005836486816e+00,1.988304495811462402e+00,1.988104224205017090e+00,1.987903714179992676e+00,1.987703323364257812e+00,1.987502932548522949e+00,1.987302780151367188e+00,1.987102508544921875e+00,1.986902236938476562e+00,1.986701965332031250e+00,1.986502051353454590e+00,1.986301898956298828e+00,1.986101865768432617e+00,1.985901832580566406e+00,1.985701799392700195e+00,1.985502004623413086e+00,1.985302090644836426e+00,1.985102176666259766e+00,1.984902381896972656e+00,1.984702706336975098e+00,1.984503030776977539e+00,1.984303236007690430e+00,1.984103441238403320e+00,1.983904123306274414e+00,1.983704447746276855e+00,1.983504891395568848e+00,1.983305335044860840e+00,1.983106017112731934e+00,1.982906579971313477e+00,1.982707142829895020e+00,1.982507824897766113e+00,1.982308745384216309e+00,1.982109427452087402e+00,1.981910109519958496e+00,1.981710910797119141e+00,1.981509685516357422e+00,1.981307268142700195e+00,1.981104612350463867e+00,1.980902314186096191e+00,1.980700016021728516e+00,1.980497717857360840e+00,1.980295538902282715e+00,1.980093359947204590e+00,1.979891300201416016e+00,1.979688882827758789e+00,1.979486823081970215e+00,1.979284882545471191e+00,1.979082942008972168e+00,1.978881001472473145e+00,1.978679060935974121e+00,1.978477001190185547e+00,1.978275179862976074e+00,1.978073477745056152e+00,1.977871775627136230e+00,1.977670073509216309e+00,1.977468490600585938e+00,1.977266788482666016e+00,1.977065086364746094e+00,1.976863503456115723e+00,1.976662039756774902e+00,1.976460695266723633e+00,1.976259231567382812e+00,1.976057887077331543e+00,1.975856661796569824e+00,1.975655078887939453e+00,1.975453853607177734e+00,1.975252747535705566e+00,1.975051522254943848e+00,1.974850416183471680e+00,1.974649429321289062e+00,1.974448204040527344e+00,1.974247217178344727e+00,1.974046230316162109e+00,1.973845362663269043e+00,1.973644495010375977e+00,1.973443627357482910e+00,1.973242878913879395e+00,1.973041892051696777e+00,1.972841262817382812e+00,1.972640633583068848e+00
1.777960896492004395e+00,1.777800559997558594e+00,1.777640223503112793e+00,1.777480125427246094e+00,1.777319908142089844e+00,1.777159690856933594e+00,1.776999592781066895e+00,1.776839613914489746e+00,1.776679515838623047e+00,1.776519417762756348e+00,1.776359319686889648e+00,1.776199460029602051e+00,1.776039481163024902e+00,1.775879502296447754e+00,1.775719523429870605e+00,1.775559782981872559e+00,1.775399923324584961e+00,1.775239944458007812e+00,1.775080204010009766e+00,1.774920582771301270e+00,1.774760723114013672e+00,1.774600982666015625e+00,1.774441242218017578e+00,1.774281740188598633e+00,1.774122118949890137e+00,1.773962497711181641e+00,1.773802876472473145e+00,1.773643493652343750e+00,1.773483872413635254e+00,1.773324370384216309e+00,1.773162961006164551e+00,1.773000955581665039e+00,1.772838711738586426e+00,1.772676587104797363e+00,1.772514581680297852e+00,1.772352695465087891e+00,1.772190690040588379e+00,1.772028803825378418e+00,1.771866917610168457e+00,1.771704912185668945e+00,1.771543025970458984e+00,1.771381258964538574e+00,1.771219491958618164e+00,1.771057724952697754e+00,1.770896077156066895e+00,1.770734190940856934e+00,1.770572543144226074e+00,1.770410895347595215e+00,1.770249366760253906e+00,1.770087718963623047e+00,1.769926190376281738e+00,1.769764780998229980e+00,1.769603133201599121e+00,1.769441604614257812e+00,1.769280195236206055e+00,1.769118785858154297e+00,1.768957495689392090e+00,1.768796205520629883e+00,1.768634915351867676e+00,1.768473386764526367e+00,1.768312215805053711e+00,1.768151044845581055e+00,1.767989873886108398e+00,1.767828702926635742e+00,1.767667531967163086e+00,1.767506241798400879e+00,1.767345190048217773e+00,1.767184138298034668e+00,1.767023205757141113e+00,1.766862273216247559e+00,1.766701340675354004e+00,1.766540408134460449e+00,1.766379356384277344e+00,1.766218423843383789e+00,1.766057610511779785e+00,1.765896797180175781e+00,1.765736103057861328e+00,1.765575408935546875e+00,1.765414476394653320e+00,1.765253782272338867e+00
1.607733130455017090e+00,1.607602000236511230e+00,1.607470989227294922e+00,1.607340097427368164e+00,1.607209086418151855e+00,1.607077956199645996e+00,1.606947064399719238e+00,1.606816172599792480e+00,1.606685280799865723e+00,1.606554269790649414e+00,1.606423377990722656e+00,1.606292724609375000e+00,1.606161832809448242e+00,1.606030941009521484e+00,1.605900168418884277e+00,1.605769515037536621e+00,1.605638742446899414e+00,1.605507969856262207e+00,1.605377197265625000e+00,1.605246663093566895e+00,1.605116009712219238e+00,1.604985356330871582e+00,1.604854702949523926e+00,1.604724168777465820e+00,1.604593515396118164e+00,1.604461312294006348e+00,1.604328513145446777e+00,1.604195713996887207e+00,1.604063034057617188e+00,1.603930354118347168e+00,1.603797793388366699e+00,1.603665113449096680e+00,1.603532552719116211e+00,1.603399991989135742e+00,1.603267312049865723e+00,1.603134870529174805e+00,1.603002309799194336e+00,1.602869868278503418e+00,1.602737426757812500e+00,1.602604985237121582e+00,1.602472424507141113e+00,1.602339982986450195e+00,1.602207660675048828e+00,1.602075338363647461e+00,1.601943016052246094e+00,1.601810693740844727e+00,1.601678371429443359e+00,1.601546049118041992e+00,1.601413726806640625e+00,1.601281523704528809e+00,1.601149439811706543e+00,1.601017236709594727e+00,1.600885033607482910e+00,1.600752949714660645e+00,1.600620746612548828e+00,1.600488662719726562e+00,1.600356578826904297e+00,1.600224494934082031e+00,1.600092530250549316e+00,1.599960446357727051e+00,1.599828362464904785e+00,1.599696397781372070e+00,1.599564433097839355e+00,1.599432587623596191e+00,1.599300742149353027e+00,1.599168896675109863e+00,1.599037051200866699e+00,1.598905086517333984e+00,1.598773241043090820e+00,1.598641514778137207e+00,1.598509669303894043e+00,1.598377943038940430e+00,1.598246216773986816e+00,1.598114609718322754e+00,1.597982764244079590e+00,1.597851157188415527e+00,1.597719550132751465e+00,1.597587943077087402e+00,1.597456336021423340e+00,1.597324728965759277e+00
1.467253565788269043e+00,1.467144370079040527e+00,1.467035174369812012e+00,1.466926097869873047e+00,1.466817021369934082e+00,1.466707825660705566e+00,1.466598749160766602e+00,1.466489791870117188e+00,1.466380715370178223e+00,1.466271638870239258e+00,1.466162562370300293e+00,1.466053724288940430e+00,1.465944647789001465e+00,1.465835690498352051e+00,1.465726733207702637e+00,1.465617895126342773e+00,1.465508937835693359e+00,1.465399980545043945e+00,1.465291023254394531e+00,1.465182304382324219e+00,1.465071797370910645e+00,1.464961171150207520e+00,1.464850425720214844e+00,1.464739799499511719e+00,1.464629173278808594e+00,1.464518547058105469e+00,1.464408040046691895e+00,1.464297413825988770e+00,1.464186906814575195e+00,1.464076280593872070e+00,1.463965773582458496e+00,1.463855266571044922e+00,1.463744759559631348e+00,1.463634371757507324e+00,1.463523864746093750e+00,1.463413476943969727e+00,1.463302969932556152e+00,1.463192582130432129e+00,1.463082194328308105e+00,1.462971806526184082e+00,1.462861418724060059e+00,1.462751150131225586e+00,1.462640762329101562e+00,1.462530374526977539e+00,1.462420105934143066e+00,1.462309956550598145e+00,1.462199687957763672e+00,1.462089419364929199e+00,1.461979269981384277e+00,1.461868882179260254e+00,1.461758732795715332e+00,1.461648583412170410e+00,1.461538434028625488e+00,1.461428284645080566e+00,1.461318254470825195e+00,1.461207985877990723e+00,1.461097955703735352e+00,1.460987925529479980e+00,1.460877776145935059e+00,1.460767865180969238e+00,1.460657835006713867e+00,1.460547804832458496e+00,1.460437655448913574e+00,1.460327744483947754e+00,1.460217833518981934e+00,1.460107922554016113e+00,1.459998011589050293e+00,1.459888100624084473e+00,1.459778189659118652e+00,1.459668159484863281e+00,1.459558367729187012e+00,1.459448575973510742e+00,1.459338784217834473e+00,1.459228992462158203e+00,1.459119200706481934e+00,1.459009289741516113e+00,1.458899497985839844e+00,1.458789825439453125e+00,1.458680152893066406e+00,1.458570361137390137e+00
1.349350690841674805e+00,1.349258303642272949e+00,1.349165916442871094e+00,1.349073767662048340e+00,1.348981380462646484e+00,1.348889112472534180e+00,1.348796844482421875e+00,1.348704695701599121e+00,1.348612427711486816e+00,1.348520159721374512e+00,1.348427891731262207e+00,1.348335862159729004e+00,1.348243594169616699e+00,1.348151445388793945e+00,1.348059177398681641e+00,1.347965717315673828e+00,1.347872138023376465e+00,1.347778320312500000e+00,1.347684621810913086e+00,1.347591042518615723e+00,1.347497463226318359e+00,1.347403764724731445e+00,1.347310185432434082e+00,1.347216606140136719e+00,1.347123026847839355e+00,1.347029447555541992e+00,1.346935868263244629e+00,1.346842408180236816e+00,1.346748828887939453e+00,1.346655368804931641e+00,1.346561789512634277e+00,1.346468210220336914e+00,1.346374750137329102e+00,1.346281290054321289e+00,1.346187829971313477e+00,1.346094489097595215e+00,1.346001029014587402e+00,1.345907568931579590e+00,1.345814108848571777e+00,1.345720767974853516e+00,1.345627427101135254e+00,1.345534086227416992e+00,1.345440745353698730e+00,1.345347404479980469e+00,1.345253944396972656e+00,1.345160722732543945e+00,1.345067381858825684e+00,1.344974160194396973e+00,1.344880819320678711e+00,1.344787597656250000e+00,1.344694256782531738e+00,1.344601035118103027e+00,1.344507813453674316e+00,1.344414591789245605e+00,1.344321489334106445e+00,1.344228267669677734e+00,1.344135165214538574e+00,1.344041824340820312e+00,1.343948721885681152e+00,1.343855619430541992e+00,1.343762516975402832e+00,1.343669414520263672e+00,1.343576312065124512e+00,1.343483328819274902e+00,1.343390107154846191e+00,1.343297123908996582e+00,1.343204021453857422e+00,1.343111038208007812e+00,1.343018054962158203e+00,1.342925071716308594e+00,1.342831969261169434e+00,1.342738986015319824e+00,1.342646002769470215e+00,1.342553138732910156e+00,1.342460155487060547e+00,1.342367291450500488e+00,1.342274308204650879e+00,1.342181324958801270e+00,1.342088460922241211e+00,1.341995596885681152e+00
1.248986840248107910e+00,1.248907685279846191e+00,1.248828649520874023e+00,1.248749494552612305e+00,1.248670578002929688e+00,1.248591423034667969e+00,1.248512387275695801e+00,1.248433351516723633e+00,1.248354315757751465e+00,1.248275399208068848e+00,1.248195052146911621e+00,1.248114705085754395e+00,1.248034358024597168e+00,1.247954010963439941e+00,1.247873783111572266e+00,1.247793436050415039e+00,1.247713208198547363e+00,1.247632980346679688e+00,1.247552752494812012e+00,1.247472405433654785e+00,1.247392177581787109e+00,1.247311949729919434e+00,1.247231721878051758e+00,1.247151494026184082e+00,1.247071385383605957e+00,1.246991157531738281e+00,1.246910929679870605e+00,1.246830701828002930e+00,1.246750593185424805e+00,1.246670484542846680e+00,1.246590375900268555e+00,1.246510267257690430e+00,1.246430039405822754e+00,1.246349930763244629e+00,1.246269822120666504e+00,1.246189713478088379e+00,1.246109724044799805e+00,1.246029615402221680e+00,1.245949625968933105e+00,1.245869517326354980e+00,1.245789408683776855e+00,1.245709419250488281e+00,1.245629429817199707e+00,1.245549440383911133e+00,1.245469450950622559e+00,1.245389342308044434e+00,1.245309472084045410e+00,1.245229482650756836e+00,1.245149493217468262e+00,1.245069622993469238e+00,1.244989633560180664e+00,1.244909763336181641e+00,1.244829773902893066e+00,1.244749903678894043e+00,1.244670033454895020e+00,1.244590163230895996e+00,1.244510293006896973e+00,1.244430422782897949e+00,1.244350552558898926e+00,1.244270682334899902e+00,1.244190931320190430e+00,1.244111061096191406e+00,1.244031310081481934e+00,1.243951439857482910e+00,1.243871688842773438e+00,1.243791818618774414e+00,1.243712067604064941e+00,1.243632316589355469e+00,1.243552565574645996e+00,1.243472933769226074e+00,1.243393182754516602e+00,1.243313431739807129e+00,1.243233680725097656e+00,1.243154048919677734e+00,1.243074297904968262e+00,1.242994666099548340e+00,1.242915034294128418e+00,1.242835402488708496e+00,1.242755651473999023e+00,1.242676019668579102e+00
1.162519454956054688e+00,1.162450909614562988e+00,1.162382364273071289e+00,1.162313938140869141e+00,1.162245392799377441e+00,1.162175774574279785e+00,1.162106156349182129e+00,1.162036538124084473e+00,1.161966800689697266e+00,1.161897301673889160e+00,1.161827683448791504e+00,1.161758065223693848e+00,1.161688446998596191e+00,1.161618947982788086e+00,1.161549210548400879e+00,1.161479711532592773e+00,1.161410093307495117e+00,1.161340594291687012e+00,1.161271095275878906e+00,1.161201596260070801e+00,1.161131978034973145e+00,1.161062479019165039e+00,1.160992980003356934e+00,1.160923480987548828e+00,1.160853981971740723e+00,1.160784482955932617e+00,1.160714983940124512e+00,1.160645484924316406e+00,1.160575985908508301e+00,1.160506606101989746e+00,1.160437107086181641e+00,1.160367727279663086e+00,1.160298347473144531e+00,1.160228848457336426e+00,1.160159468650817871e+00,1.160089969635009766e+00,1.160020589828491211e+00,1.159951210021972656e+00,1.159881949424743652e+00,1.159812569618225098e+00,1.159743070602416992e+00,1.159673810005187988e+00,1.159604430198669434e+00,1.159535050392150879e+00,1.159465789794921875e+00,1.159396409988403320e+00,1.159327149391174316e+00,1.159257769584655762e+00,1.159188508987426758e+00,1.159119248390197754e+00,1.159049987792968750e+00,1.158980727195739746e+00,1.158911466598510742e+00,1.158842206001281738e+00,1.158772945404052734e+00,1.158703684806823730e+00,1.158634424209594727e+00,1.158565282821655273e+00,1.158496022224426270e+00,1.158426880836486816e+00,1.158357620239257812e+00,1.158288478851318359e+00,1.158219218254089355e+00,1.158150076866149902e+00,1.158080935478210449e+00,1.158011794090270996e+00,1.157942652702331543e+00,1.157873511314392090e+00,1.157804369926452637e+00,1.157735228538513184e+00,1.157666087150573730e+00,1.157597064971923828e+00,1.157527923583984375e+00,1.157458901405334473e+00,1.157389760017395020e+00,1.157320737838745117e+00,1.157251596450805664e+00,1.157182574272155762e+00,1.157113552093505859e+00,1.157044529914855957e+00
1.087248086929321289e+00,1.087187170982360840e+00,1.087126135826110840e+00,1.087065219879150391e+00,1.087004303932189941e+00,1.086943387985229492e+00,1.086882472038269043e+00,1.086821556091308594e+00,1.086760640144348145e+00,1.086699724197387695e+00,1.086638808250427246e+00,1.086578011512756348e+00,1.086517095565795898e+00,1.086456298828125000e+00,1.086395382881164551e+00,1.086334586143493652e+00,1.086273670196533203e+00,1.086212754249572754e+00,1.086151957511901855e+00,1.086091160774230957e+00,1.086030364036560059e+00,1.085969567298889160e+00,1.085908651351928711e+00,1.085847854614257812e+00,1.085787057876586914e+00,1.085726261138916016e+00,1.085665583610534668e+00,1.085604786872863770e+00,1.085543990135192871e+00,1.085483193397521973e+00,1.085422396659851074e+00,1.085361719131469727e+00,1.085300922393798828e+00,1.085240244865417480e+00,1.085179567337036133e+00,1.085118770599365234e+00,1.085058093070983887e+00,1.084997296333312988e+00,1.084936618804931641e+00,1.084875941276550293e+00,1.084815263748168945e+00,1.084754586219787598e+00,1.084693908691406250e+00,1.084633231163024902e+00,1.084572553634643555e+00,1.084511876106262207e+00,1.084451317787170410e+00,1.084390640258789062e+00,1.084330081939697266e+00,1.084269404411315918e+00,1.084208726882934570e+00,1.084148168563842773e+00,1.084087491035461426e+00,1.084026932716369629e+00,1.083966374397277832e+00,1.083905696868896484e+00,1.083845138549804688e+00,1.083784580230712891e+00,1.083724021911621094e+00,1.083663463592529297e+00,1.083602905273437500e+00,1.083542466163635254e+00,1.083481788635253906e+00,1.083421349525451660e+00,1.083360791206359863e+00,1.083300232887268066e+00,1.083239793777465820e+00,1.083179235458374023e+00,1.083118796348571777e+00,1.083058238029479980e+00,1.082997798919677734e+00,1.082937240600585938e+00,1.082876801490783691e+00,1.082816362380981445e+00,1.082755923271179199e+00,1.082695364952087402e+00,1.082634925842285156e+00,1.082574605941772461e+00,1.082514166831970215e+00,1.082453727722167969e+00
1.021127820014953613e+00,1.021074056625366211e+00,1.021020293235778809e+00,1.020966529846191406e+00,1.020912766456604004e+00,1.020859003067016602e+00,1.020805358886718750e+00,1.020751595497131348e+00,1.020697832107543945e+00,1.020644187927246094e+00,1.020590424537658691e+00,1.020536661148071289e+00,1.020483016967773438e+00,1.020429253578186035e+00,1.020375609397888184e+00,1.020321965217590332e+00,1.020268321037292480e+00,1.020214557647705078e+00,1.020160913467407227e+00,1.020107269287109375e+00,1.020053625106811523e+00,1.019999980926513672e+00,1.019946336746215820e+00,1.019892692565917969e+00,1.019838929176330566e+00,1.019785404205322266e+00,1.019731760025024414e+00,1.019678115844726562e+00,1.019624590873718262e+00,1.019570946693420410e+00,1.019517302513122559e+00,1.019463658332824707e+00,1.019410133361816406e+00,1.019356489181518555e+00,1.019302964210510254e+00,1.019249439239501953e+00,1.019195795059204102e+00,1.019142270088195801e+00,1.019088745117187500e+00,1.019035100936889648e+00,1.018981575965881348e+00,1.018928050994873047e+00,1.018874526023864746e+00,1.018821001052856445e+00,1.018767476081848145e+00,1.018713951110839844e+00,1.018660426139831543e+00,1.018606901168823242e+00,1.018553495407104492e+00,1.018499970436096191e+00,1.018446445465087891e+00,1.018392920494079590e+00,1.018339514732360840e+00,1.018285989761352539e+00,1.018232583999633789e+00,1.018179059028625488e+00,1.018125653266906738e+00,1.018072128295898438e+00,1.018018722534179688e+00,1.017965316772460938e+00,1.017911911010742188e+00,1.017858505249023438e+00,1.017805099487304688e+00,1.017751574516296387e+00,1.017698168754577637e+00,1.017644762992858887e+00,1.017591357231140137e+00,1.017537951469421387e+00,1.017484664916992188e+00,1.017431259155273438e+00,1.017377853393554688e+00,1.017324447631835938e+00,1.017271041870117188e+00,1.017217755317687988e+00,1.017164349555969238e+00,1.017111063003540039e+00,1.017057776451110840e+00,1.017004370689392090e+00,1.016950964927673340e+00,1.016897678375244141e+00
9.625886678695678711e-01,9.625408649444580078e-01,9.624931812286376953e-01,9.624453186988830566e-01,9.623976349830627441e-01,9.623498320579528809e-01,9.623020291328430176e-01,9.622543454170227051e-01,9.622065424919128418e-01,9.621588587760925293e-01,9.621110558509826660e-01,9.620634317398071289e-01,9.620156288146972656e-01,9.619678854942321777e-01,9.619202017784118652e-01,9.618724584579467773e-01,9.618248343467712402e-01,9.617770910263061523e-01,9.617294669151306152e-01,9.616817235946655273e-01,9.616339802742004395e-01,9.615863561630249023e-01,9.615386128425598145e-01,9.614909887313842773e-01,9.614433050155639648e-01,9.613956809043884277e-01,9.613479971885681152e-01,9.613003134727478027e-01,9.612526893615722656e-01,9.612050056457519531e-01,9.611574411392211914e-01,9.611097574234008789e-01,9.610620737075805664e-01,9.610145092010498047e-01,9.609668254852294922e-01,9.609192609786987305e-01,9.608716368675231934e-01,9.608240723609924316e-01,9.607764482498168945e-01,9.607287645339965820e-01,9.606812596321105957e-01,9.606336355209350586e-01,9.605861306190490723e-01,9.605384469032287598e-01,9.604909420013427734e-01,9.604433178901672363e-01,9.603957533836364746e-01,9.603482484817504883e-01,9.603006243705749512e-01,9.602531194686889648e-01,9.602055549621582031e-01,9.601580500602722168e-01,9.601104855537414551e-01,9.600629210472106934e-01,9.600154161453247070e-01,9.599678516387939453e-01,9.599204063415527344e-01,9.598728418350219727e-01,9.598253965377807617e-01,9.597778320312500000e-01,9.597303271293640137e-01,9.596828818321228027e-01,9.596353173255920410e-01,9.595879316329956055e-01,9.595403671264648438e-01,9.594928622245788574e-01,9.594454765319824219e-01,9.593979716300964355e-01,9.593505263328552246e-01,9.593030214309692383e-01,9.592556357383728027e-01,9.592081308364868164e-01,9.591606855392456055e-01,9.591132998466491699e-01,9.590657949447631836e-01,9.590184092521667480e-01,9.589709639549255371e-01,9.589235782623291016e-01,9.588761329650878906e-01,9.588286876678466797e-01
9.103974699974060059e-01,9.103546738624572754e-01,9.103119373321533203e-01,9.102692604064941406e-01,9.102264642715454102e-01,9.101837873458862305e-01,9.101410508155822754e-01,9.100983738899230957e-01,9.100556373596191406e-01,9.100129008293151855e-01,9.099702239036560059e-01,9.099274873733520508e-01,9.098848700523376465e-01,9.098421335220336914e-01,9.097993969917297363e-01,9.097567796707153320e-01,9.097140431404113770e-01,9.096714258193969727e-01,9.096287488937377930e-01,9.095861315727233887e-01,9.095433950424194336e-01,9.095007181167602539e-01,9.094581007957458496e-01,9.094154238700866699e-01,9.093728661537170410e-01,9.093301296234130859e-01,9.092875719070434570e-01,9.092448949813842773e-01,9.092022180557250977e-01,9.091596603393554688e-01,9.091169834136962891e-01,9.090744256973266602e-01,9.090318083763122559e-01,9.089892506599426270e-01,9.089465737342834473e-01,9.089039564132690430e-01,9.088613986968994141e-01,9.088187813758850098e-01,9.087762236595153809e-01,9.087336063385009766e-01,9.086909890174865723e-01,9.086484313011169434e-01,9.086058139801025391e-01,9.085633158683776855e-01,9.085206985473632812e-01,9.084782004356384277e-01,9.084356427192687988e-01,9.083930253982543945e-01,9.083505272865295410e-01,9.083079099655151367e-01,9.082654714584350586e-01,9.082228541374206543e-01,9.081804156303405762e-01,9.081378579139709473e-01,9.080952405929565430e-01,9.080528020858764648e-01,9.080102443695068359e-01,9.079678058624267578e-01,9.079252481460571289e-01,9.078828096389770508e-01,9.078402519226074219e-01,9.077976942062377930e-01,9.077552556991577148e-01,9.077126979827880859e-01,9.076703190803527832e-01,9.076277613639831543e-01,9.075853228569030762e-01,9.075428247451782227e-01,9.075003266334533691e-01,9.074578881263732910e-01,9.074153900146484375e-01,9.073730111122131348e-01,9.073305130004882812e-01,9.072881340980529785e-01,9.072456359863281250e-01,9.072031378746032715e-01,9.071607589721679688e-01,9.071182608604431152e-01,9.070759415626525879e-01,9.070334434509277344e-01
8.635746836662292480e-01,8.635362386703491211e-01,8.634977936744689941e-01,8.634592890739440918e-01,8.634209036827087402e-01,8.633823990821838379e-01,8.633440136909484863e-01,8.633055686950683594e-01,8.632671833038330078e-01,8.632286787033081055e-01,8.631902337074279785e-01,8.631518483161926270e-01,8.631134033203125000e-01,8.630750775337219238e-01,8.630366325378417969e-01,8.629982471466064453e-01,8.629598021507263184e-01,8.629213571548461914e-01,8.628830313682556152e-01,8.628445863723754883e-01,8.628062605857849121e-01,8.627678155899047852e-01,8.627294301986694336e-01,8.626911044120788574e-01,8.626526594161987305e-01,8.626143336296081543e-01,8.625759482383728027e-01,8.625376224517822266e-01,8.624992370605468750e-01,8.624608516693115234e-01,8.624225258827209473e-01,8.623841404914855957e-01,8.623458147048950195e-01,8.623074293136596680e-01,8.622691631317138672e-01,8.622307777404785156e-01,8.621923923492431641e-01,8.621541261672973633e-01,8.621157407760620117e-01,8.620774745941162109e-01,8.620391488075256348e-01,8.620008826255798340e-01,8.619624972343444824e-01,8.619241714477539062e-01,8.618859052658081055e-01,8.618475794792175293e-01,8.618093132972717285e-01,8.617709875106811523e-01,8.617327213287353516e-01,8.616943955421447754e-01,8.616560697555541992e-01,8.616178631782531738e-01,8.615795373916625977e-01,8.615412712097167969e-01,8.615030050277709961e-01,8.614646792411804199e-01,8.614264726638793945e-01,8.613881468772888184e-01,8.613499402999877930e-01,8.613116741180419922e-01,8.612734675407409668e-01,8.612351417541503906e-01,8.611968755722045898e-01,8.611586689949035645e-01,8.611204028129577637e-01,8.610822558403015137e-01,8.610439300537109375e-01,8.610057830810546875e-01,8.609675168991088867e-01,8.609292507171630859e-01,8.608911037445068359e-01,8.608528375625610352e-01,8.608146905899047852e-01,8.607764244079589844e-01,8.607382774353027344e-01,8.607000112533569336e-01,8.606618046760559082e-01,8.606236577033996582e-01,8.605853915214538574e-01,8.605473041534423828e-01
