3.098302364349365234e+00,3.176890134811401367e+00,3.259568452835083008e+00,3.346665143966674805e+00,3.438544511795043945e+00,3.535610675811767578e+00,3.638316392898559570e+00,3.747184753417968750e+00,3.862770080566406250e+00,3.985712766647338867e+00,4.116738796234130859e+00,4.256672859191894531e+00,4.406454563140869141e+00,4.567161083221435547e+00,4.740034103393554688e+00,4.926508426666259766e+00,5.000000000000000000e+00,5.000000000000000000e+00,5.000000000000000000e+00,5.000000000000000000e+00,5.000000000000000000e+00,5.000000000000000000e+00,5.000000000000000000e+00,5.000000000000000000e+00,5.000000000000000000e+00,5.000000000000000000e+00,5.000000000000000000e+00,5.000000000000000000e+00,5.000000000000000000e+00,5.000000000000000000e+00,5.000000000000000000e+00,5.000000000000000000e+00,5.000000000000000000e+00,5.000000000000000000e+00,5.000000000000000000e+00,5.000000000000000000e+00,5.000000000000000000e+00,5.000000000000000000e+00,5.000000000000000000e+00,5.000000000000000000e+00,5.000000000000000000e+00,5.000000000000000000e+00,5.000000000000000000e+00,5.000000000000000000e+00,5.000000000000000000e+00,5.000000000000000000e+00,5.000000000000000000e+00,5.000000000000000000e+00,5.000000000000000000e+00,5.000000000000000000e+00,5.000000000000000000e+00,5.000000000000000000e+00,5.000000000000000000e+00,5.000000000000000000e+00,3.322668075561523438e+00,3.289657115936279297e+00,3.239561557769775391e+00,3.280871391296386719e+00,3.261769294738769531e+00,5.000000000000000000e+00,5.000000000000000000e+00,5.000000000000000000e+00,5.000000000000000000e+00,5.000000000000000000e+00,5.000000000000000000e+00,5.000000000000000000e+00,5.000000000000000000e+00,5.000000000000000000e+00,5.000000000000000000e+00,5.000000000000000000e+00,4.844531536102294922e+00,4.686088085174560547e+00,4.537680149078369141e+00,4.398383617401123047e+00,4.267384529113769531e+00,4.143961906433105469e+00,4.027475357055664062e+00,3.917358875274658203e+00,3.813103437423706055e+00,3.714252948760986328e+00
3.098236322402954102e+00,3.176820755004882812e+00,3.259495496749877930e+00,3.346588373184204102e+00,3.438463211059570312e+00,3.535524606704711914e+00,3.638225317001342773e+00,3.747071266174316406e+00,3.862648725509643555e+00,3.985583782196044922e+00,4.116601467132568359e+00,4.256525516510009766e+00,4.406296253204345703e+00,4.566991806030273438e+00,4.739851474761962891e+00,4.926311492919921875e+00,5.000000000000000000e+00,5.000000000000000000e+00,5.000000000000000000e+00,5.000000000000000000e+00,5.000000000000000000e+00,5.000000000000000000e+00,5.000000000000000000e+00,5.000000000000000000e+00,5.000000000000000000e+00,5.000000000000000000e+00,5.000000000000000000e+00,5.000000000000000000e+00,5.000000000000000000e+00,5.000000000000000000e+00,5.000000000000000000e+00,5.000000000000000000e+00,5.000000000000000000e+00,5.000000000000000000e+00,5.000000000000000000e+00,5.000000000000000000e+00,5.000000000000000000e+00,5.000000000000000000e+00,5.000000000000000000e+00,5.000000000000000000e+00,5.000000000000000000e+00,5.000000000000000000e+00,5.000000000000000000e+00,5.000000000000000000e+00,5.000000000000000000e+00,5.000000000000000000e+00,5.000000000000000000e+00,5.000000000000000000e+00,5.000000000000000000e+00,5.000000000000000000e+00,5.000000000000000000e+00,5.000000000000000000e+00,3.290991783142089844e+00,3.267958402633666992e+00,3.239846706390380859e+00,3.231436014175415039e+00,3.220267295837402344e+00,3.218745231628417969e+00,3.241426706314086914e+00,3.242189407348632812e+00,5.000000000000000000e+00,5.000000000000000000e+00,5.000000000000000000e+00,5.000000000000000000e+00,5.000000000000000000e+00,5.000000000000000000e+00,5.000000000000000000e+00,5.000000000000000000e+00,5.000000000000000000e+00,5.000000000000000000e+00,4.844673156738281250e+00,4.686220169067382812e+00,4.537804126739501953e+00,4.398496150970458984e+00,4.267486095428466797e+00,4.144054412841796875e+00,4.027563095092773438e+00,3.917441606521606445e+00,3.813181877136230469e+00,3.714327335357666016e+00
3.098170280456542969e+00,3.176751613616943359e+00,3.259422540664672852e+00,3.346511363983154297e+00,3.438381910324096680e+00,3.535438776016235352e+00,3.638134717941284180e+00,3.746974706649780273e+00,3.862527847290039062e+00,3.985454559326171875e+00,4.116463661193847656e+00,4.256378173828125000e+00,4.406138896942138672e+00,4.566822528839111328e+00,4.739668846130371094e+00,4.926114082336425781e+00,5.000000000000000000e+00,5.000000000000000000e+00,5.000000000000000000e+00,5.000000000000000000e+00,5.000000000000000000e+00,5.000000000000000000e+00,5.000000000000000000e+00,5.000000000000000000e+00,5.000000000000000000e+00,5.000000000000000000e+00,5.000000000000000000e+00,5.000000000000000000e+00,5.000000000000000000e+00,5.000000000000000000e+00,5.000000000000000000e+00,5.000000000000000000e+00,5.000000000000000000e+00,5.000000000000000000e+00,5.000000000000000000e+00,5.000000000000000000e+00,5.000000000000000000e+00,5.000000000000000000e+00,5.000000000000000000e+00,5.000000000000000000e+00,5.000000000000000000e+00,5.000000000000000000e+00,5.000000000000000000e+00,5.000000000000000000e+00,5.000000000000000000e+00,5.000000000000000000e+00,5.000000000000000000e+00,5.000000000000000000e+00,5.000000000000000000e+00,5.000000000000000000e+00,5.000000000000000000e+00,3.285190582275390625e+00,3.268632650375366211e+00,3.226966381072998047e+00,3.194394111633300781e+00,3.183969974517822266e+00,3.182857990264892578e+00,3.194717168807983398e+00,3.245847225189208984e+00,3.254111289978027344e+00,5.000000000000000000e+00,5.000000000000000000e+00,5.000000000000000000e+00,5.000000000000000000e+00,5.000000000000000000e+00,5.000000000000000000e+00,5.000000000000000000e+00,5.000000000000000000e+00,5.000000000000000000e+00,5.000000000000000000e+00,4.844810962677001953e+00,4.686344146728515625e+00,4.537915706634521484e+00,4.398600101470947266e+00,4.267584323883056641e+00,4.144147396087646484e+00,4.027650356292724609e+00,3.917524576187133789e+00,3.813260316848754883e+00,3.714401960372924805e+00
3.098104476928710938e+00,3.176682233810424805e+00,3.259349584579467773e+00,3.346434354782104492e+00,3.438300371170043945e+00,3.535352945327758789e+00,3.638043403625488281e+00,3.746877908706665039e+00,3.862425088882446289e+00,3.985325813293457031e+00,4.116325855255126953e+00,4.256231307983398438e+00,4.405980587005615234e+00,4.566652774810791016e+00,4.739486217498779297e+00,4.925917148590087891e+00,5.000000000000000000e+00,5.000000000000000000e+00,5.000000000000000000e+00,5.000000000000000000e+00,5.000000000000000000e+00,5.000000000000000000e+00,5.000000000000000000e+00,5.000000000000000000e+00,5.000000000000000000e+00,5.000000000000000000e+00,5.000000000000000000e+00,5.000000000000000000e+00,5.000000000000000000e+00,5.000000000000000000e+00,5.000000000000000000e+00,5.000000000000000000e+00,5.000000000000000000e+00,5.000000000000000000e+00,5.000000000000000000e+00,5.000000000000000000e+00,5.000000000000000000e+00,5.000000000000000000e+00,5.000000000000000000e+00,5.000000000000000000e+00,5.000000000000000000e+00,5.000000000000000000e+00,5.000000000000000000e+00,5.000000000000000000e+00,5.000000000000000000e+00,5.000000000000000000e+00,5.000000000000000000e+00,5.000000000000000000e+00,5.000000000000000000e+00,5.000000000000000000e+00,5.000000000000000000e+00,3.308925151824951172e+00,3.286517381668090820e+00,3.221550703048706055e+00,3.197754859924316406e+00,3.186520338058471680e+00,3.180900573730468750e+00,3.198763370513916016e+00,3.274016141891479492e+00,3.254179477691650391e+00,5.000000000000000000e+00,5.000000000000000000e+00,5.000000000000000000e+00,5.000000000000000000e+00,5.000000000000000000e+00,5.000000000000000000e+00,5.000000000000000000e+00,5.000000000000000000e+00,5.000000000000000000e+00,5.000000000000000000e+00,4.844937801361083984e+00,4.686462879180908203e+00,4.538026809692382812e+00,4.398704528808593750e+00,4.267682552337646484e+00,4.144240379333496094e+00,4.027738094329833984e+00,3.917607307434082031e+00,3.813338756561279297e+00,3.714476346969604492e+00
3.098038434982299805e+00,3.176612615585327148e+00,3.259276390075683594e+00,3.346357107162475586e+00,3.438219308853149414e+00,3.535266876220703125e+00,3.637952327728271484e+00,3.746781349182128906e+00,3.862322807312011719e+00,3.985216617584228516e+00,4.116188049316406250e+00,4.256083965301513672e+00,4.405823230743408203e+00,4.566483497619628906e+00,4.739304065704345703e+00,4.925719738006591797e+00,5.000000000000000000e+00,5.000000000000000000e+00,5.000000000000000000e+00,5.000000000000000000e+00,5.000000000000000000e+00,5.000000000000000000e+00,5.000000000000000000e+00,5.000000000000000000e+00,5.000000000000000000e+00,5.000000000000000000e+00,5.000000000000000000e+00,5.000000000000000000e+00,5.000000000000000000e+00,5.000000000000000000e+00,5.000000000000000000e+00,5.000000000000000000e+00,5.000000000000000000e+00,5.000000000000000000e+00,5.000000000000000000e+00,5.000000000000000000e+00,5.000000000000000000e+00,5.000000000000000000e+00,5.000000000000000000e+00,5.000000000000000000e+00,5.000000000000000000e+00,5.000000000000000000e+00,5.000000000000000000e+00,5.000000000000000000e+00,5.000000000000000000e+00,5.000000000000000000e+00,5.000000000000000000e+00,5.000000000000000000e+00,5.000000000000000000e+00,5.000000000000000000e+00,5.000000000000000000e+00,3.339860200881958008e+00,3.311268091201782227e+00,3.237327575683593750e+00,3.196985006332397461e+00,3.177659034729003906e+00,3.175730943679809570e+00,3.207543134689331055e+00,3.271600723266601562e+00,3.251588582992553711e+00,5.000000000000000000e+00,5.000000000000000000e+00,5.000000000000000000e+00,5.000000000000000000e+00,5.000000000000000000e+00,5.000000000000000000e+00,5.000000000000000000e+00,5.000000000000000000e+00,5.000000000000000000e+00,5.000000000000000000e+00,4.845064640045166016e+00,4.686581611633300781e+00,4.538137912750244141e+00,4.398808956146240234e+00,4.267780780792236328e+00,4.144332885742187500e+00,4.027825355529785156e+00,3.917690038681030273e+00,3.813417196273803711e+00,3.714550733566284180e+00
3.097972393035888672e+00,3.176543235778808594e+00,3.259203433990478516e+00,3.346280574798583984e+00,3.438138008117675781e+00,3.535180807113647461e+00,3.637861251831054688e+00,3.746685028076171875e+00,3.862220048904418945e+00,3.985107183456420898e+00,4.116071224212646484e+00,4.255936622619628906e+00,4.405665397644042969e+00,4.566313743591308594e+00,4.739120960235595703e+00,4.925522804260253906e+00,5.000000000000000000e+00,5.000000000000000000e+00,5.000000000000000000e+00,5.000000000000000000e+00,5.000000000000000000e+00,5.000000000000000000e+00,5.000000000000000000e+00,5.000000000000000000e+00,5.000000000000000000e+00,5.000000000000000000e+00,5.000000000000000000e+00,5.000000000000000000e+00,5.000000000000000000e+00,5.000000000000000000e+00,5.000000000000000000e+00,5.000000000000000000e+00,5.000000000000000000e+00,5.000000000000000000e+00,5.000000000000000000e+00,5.000000000000000000e+00,5.000000000000000000e+00,5.000000000000000000e+00,5.000000000000000000e+00,5.000000000000000000e+00,5.000000000000000000e+00,5.000000000000000000e+00,5.000000000000000000e+00,5.000000000000000000e+00,5.000000000000000000e+00,5.000000000000000000e+00,5.000000000000000000e+00,5.000000000000000000e+00,5.000000000000000000e+00,5.000000000000000000e+00,5.000000000000000000e+00,3.358469963073730469e+00,3.311697244644165039e+00,3.243951797485351562e+00,3.196255922317504883e+00,3.180160760879516602e+00,3.180082082748413086e+00,3.205029010772705078e+00,3.285976409912109375e+00,3.253207683563232422e+00,5.000000000000000000e+00,5.000000000000000000e+00,5.000000000000000000e+00,5.000000000000000000e+00,5.000000000000000000e+00,5.000000000000000000e+00,5.000000000000000000e+00,5.000000000000000000e+00,5.000000000000000000e+00,5.000000000000000000e+00,4.845191478729248047e+00,4.686699867248535156e+00,4.538249015808105469e+00,4.398913860321044922e+00,4.267879009246826172e+00,4.144425392150878906e+00,4.027913093566894531e+00,3.917772769927978516e+00,3.813495635986328125e+00,3.714625120162963867e+00
3.097906351089477539e+00,3.176474094390869141e+00,3.259130477905273438e+00,3.346203327178955078e+00,3.438056707382202148e+00,3.535094976425170898e+00,3.637770652770996094e+00,3.746588468551635742e+00,3.862117528915405273e+00,3.984997987747192383e+00,4.115954875946044922e+00,4.255811214447021484e+00,4.405507564544677734e+00,4.566144466400146484e+00,4.738938808441162109e+00,4.925325393676757812e+00,5.000000000000000000e+00,5.000000000000000000e+00,5.000000000000000000e+00,5.000000000000000000e+00,5.000000000000000000e+00,5.000000000000000000e+00,5.000000000000000000e+00,5.000000000000000000e+00,5.000000000000000000e+00,5.000000000000000000e+00,5.000000000000000000e+00,5.000000000000000000e+00,5.000000000000000000e+00,5.000000000000000000e+00,5.000000000000000000e+00,5.000000000000000000e+00,5.000000000000000000e+00,5.000000000000000000e+00,5.000000000000000000e+00,5.000000000000000000e+00,5.000000000000000000e+00,5.000000000000000000e+00,5.000000000000000000e+00,5.000000000000000000e+00,5.000000000000000000e+00,5.000000000000000000e+00,5.000000000000000000e+00,5.000000000000000000e+00,5.000000000000000000e+00,5.000000000000000000e+00,5.000000000000000000e+00,5.000000000000000000e+00,5.000000000000000000e+00,5.000000000000000000e+00,5.000000000000000000e+00,3.377084255218505859e+00,3.322432756423950195e+00,3.226701974868774414e+00,3.183099985122680664e+00,3.175691127777099609e+00,3.174605607986450195e+00,3.196182727813720703e+00,5.000000000000000000e+00,3.266700029373168945e+00,5.000000000000000000e+00,5.000000000000000000e+00,5.000000000000000000e+00,5.000000000000000000e+00,5.000000000000000000e+00,5.000000000000000000e+00,5.000000000000000000e+00,5.000000000000000000e+00,5.000000000000000000e+00,5.000000000000000000e+00,4.845317840576171875e+00,4.686818122863769531e+00,4.538360118865966797e+00,4.399018287658691406e+00,4.267977714538574219e+00,4.144517898559570312e+00,4.028000831604003906e+00,3.917855739593505859e+00,3.813574075698852539e+00,3.714699983596801758e+00
3.097840547561645508e+00,3.176404476165771484e+00,3.259057283401489258e+00,3.346126317977905273e+00,3.437975168228149414e+00,3.535009145736694336e+00,3.637679576873779297e+00,3.746491909027099609e+00,3.862014770507812500e+00,3.984889030456542969e+00,4.115838527679443359e+00,4.255686759948730469e+00,4.405373096466064453e+00,4.565975189208984375e+00,4.738756179809570312e+00,4.925128459930419922e+00,5.000000000000000000e+00,5.000000000000000000e+00,5.000000000000000000e+00,5.000000000000000000e+00,5.000000000000000000e+00,5.000000000000000000e+00,5.000000000000000000e+00,5.000000000000000000e+00,5.000000000000000000e+00,5.000000000000000000e+00,5.000000000000000000e+00,5.000000000000000000e+00,5.000000000000000000e+00,5.000000000000000000e+00,5.000000000000000000e+00,5.000000000000000000e+00,5.000000000000000000e+00,5.000000000000000000e+00,5.000000000000000000e+00,5.000000000000000000e+00,5.000000000000000000e+00,5.000000000000000000e+00,5.000000000000000000e+00,5.000000000000000000e+00,5.000000000000000000e+00,5.000000000000000000e+00,5.000000000000000000e+00,5.000000000000000000e+00,5.000000000000000000e+00,5.000000000000000000e+00,5.000000000000000000e+00,5.000000000000000000e+00,5.000000000000000000e+00,5.000000000000000000e+00,5.000000000000000000e+00,5.000000000000000000e+00,3.344509363174438477e+00,3.223530292510986328e+00,3.197667360305786133e+00,3.178918600082397461e+00,3.181130170822143555e+00,3.212176084518432617e+00,5.000000000000000000e+00,3.235286951065063477e+00,3.217465400695800781e+00,5.000000000000000000e+00,5.000000000000000000e+00,5.000000000000000000e+00,5.000000000000000000e+00,5.000000000000000000e+00,5.000000000000000000e+00,5.000000000000000000e+00,5.000000000000000000e+00,5.000000000000000000e+00,4.845444679260253906e+00,4.686936855316162109e+00,4.538471221923828125e+00,4.399122238159179688e+00,4.268075942993164062e+00,4.144610881805419922e+00,4.028088569641113281e+00,3.917938470840454102e+00,3.813652515411376953e+00,3.714774370193481445e+00
3.097774505615234375e+00,3.176335096359252930e+00,3.258984088897705078e+00,3.346049547195434570e+00,3.437894344329833984e+00,3.534923076629638672e+00,3.637588262557983398e+00,3.746395111083984375e+00,3.861912488937377930e+00,3.984779834747314453e+00,4.115722179412841797e+00,4.255562305450439453e+00,4.405239582061767578e+00,4.565829753875732422e+00,4.738573551177978516e+00,4.924931049346923828e+00,5.000000000000000000e+00,5.000000000000000000e+00,5.000000000000000000e+00,5.000000000000000000e+00,5.000000000000000000e+00,5.000000000000000000e+00,5.000000000000000000e+00,5.000000000000000000e+00,5.000000000000000000e+00,5.000000000000000000e+00,5.000000000000000000e+00,5.000000000000000000e+00,5.000000000000000000e+00,5.000000000000000000e+00,5.000000000000000000e+00,5.000000000000000000e+00,5.000000000000000000e+00,5.000000000000000000e+00,5.000000000000000000e+00,5.000000000000000000e+00,5.000000000000000000e+00,5.000000000000000000e+00,5.000000000000000000e+00,5.000000000000000000e+00,5.000000000000000000e+00,5.000000000000000000e+00,5.000000000000000000e+00,5.000000000000000000e+00,5.000000000000000000e+00,5.000000000000000000e+00,5.000000000000000000e+00,5.000000000000000000e+00,5.000000000000000000e+00,5.000000000000000000e+00,5.000000000000000000e+00,5.000000000000000000e+00,3.343356609344482422e+00,3.230084896087646484e+00,3.196832656860351562e+00,3.183132648468017578e+00,3.183987379074096680e+00,3.205469369888305664e+00,5.000000000000000000e+00,3.227039098739624023e+00,3.178221225738525391e+00,5.000000000000000000e+00,5.000000000000000000e+00,5.000000000000000000e+00,5.000000000000000000e+00,5.000000000000000000e+00,5.000000000000000000e+00,5.000000000000000000e+00,5.000000000000000000e+00,5.000000000000000000e+00,4.845571517944335938e+00,4.687055110931396484e+00,4.538582324981689453e+00,4.399226665496826172e+00,4.268174171447753906e+00,4.144703865051269531e+00,4.028175830841064453e+00,3.918021202087402344e+00,3.813731431961059570e+00,3.714848756790161133e+00
3.097761631011962891e+00,3.176290988922119141e+00,3.258911371231079102e+00,3.345972537994384766e+00,3.437812805175781250e+00,3.534837245941162109e+00,3.637497186660766602e+00,3.746299028396606445e+00,3.861809968948364258e+00,3.984670400619506836e+00,4.115605354309082031e+00,4.255437850952148438e+00,4.405106067657470703e+00,4.565686225891113281e+00,4.738417148590087891e+00,4.924734115600585938e+00,5.000000000000000000e+00,5.000000000000000000e+00,5.000000000000000000e+00,5.000000000000000000e+00,5.000000000000000000e+00,5.000000000000000000e+00,5.000000000000000000e+00,5.000000000000000000e+00,5.000000000000000000e+00,5.000000000000000000e+00,5.000000000000000000e+00,5.000000000000000000e+00,5.000000000000000000e+00,5.000000000000000000e+00,5.000000000000000000e+00,5.000000000000000000e+00,5.000000000000000000e+00,5.000000000000000000e+00,5.000000000000000000e+00,5.000000000000000000e+00,5.000000000000000000e+00,5.000000000000000000e+00,5.000000000000000000e+00,5.000000000000000000e+00,5.000000000000000000e+00,5.000000000000000000e+00,5.000000000000000000e+00,5.000000000000000000e+00,5.000000000000000000e+00,5.000000000000000000e+00,5.000000000000000000e+00,5.000000000000000000e+00,5.000000000000000000e+00,5.000000000000000000e+00,5.000000000000000000e+00,5.000000000000000000e+00,3.334125280380249023e+00,3.193866729736328125e+00,3.165054321289062500e+00,3.212343454360961914e+00,3.214570999145507812e+00,3.208871364593505859e+00,5.000000000000000000e+00,5.000000000000000000e+00,3.167375087738037109e+00,5.000000000000000000e+00,5.000000000000000000e+00,5.000000000000000000e+00,5.000000000000000000e+00,5.000000000000000000e+00,5.000000000000000000e+00,5.000000000000000000e+00,5.000000000000000000e+00,5.000000000000000000e+00,4.845697879791259766e+00,4.687174320220947266e+00,4.538693428039550781e+00,4.399331092834472656e+00,4.268272399902343750e+00,4.144796371459960938e+00,4.028263568878173828e+00,3.918104410171508789e+00,3.813809871673583984e+00,3.714923381805419922e+00
3.097762346267700195e+00,3.176291704177856445e+00,3.258906364440917969e+00,3.345933198928833008e+00,3.437735319137573242e+00,3.534751176834106445e+00,3.637406587600708008e+00,3.746202468872070312e+00,3.861707210540771484e+00,3.984561204910278320e+00,4.115489006042480469e+00,4.255313396453857422e+00,4.404972553253173828e+00,4.565543174743652344e+00,4.738262653350830078e+00,4.924564361572265625e+00,5.000000000000000000e+00,5.000000000000000000e+00,5.000000000000000000e+00,5.000000000000000000e+00,5.000000000000000000e+00,5.000000000000000000e+00,5.000000000000000000e+00,5.000000000000000000e+00,5.000000000000000000e+00,5.000000000000000000e+00,5.000000000000000000e+00,5.000000000000000000e+00,5.000000000000000000e+00,5.000000000000000000e+00,5.000000000000000000e+00,5.000000000000000000e+00,5.000000000000000000e+00,5.000000000000000000e+00,5.000000000000000000e+00,5.000000000000000000e+00,5.000000000000000000e+00,5.000000000000000000e+00,5.000000000000000000e+00,5.000000000000000000e+00,5.000000000000000000e+00,5.000000000000000000e+00,5.000000000000000000e+00,5.000000000000000000e+00,5.000000000000000000e+00,5.000000000000000000e+00,5.000000000000000000e+00,5.000000000000000000e+00,5.000000000000000000e+00,5.000000000000000000e+00,5.000000000000000000e+00,5.000000000000000000e+00,3.328169345855712891e+00,3.164162397384643555e+00,3.131620168685913086e+00,3.149582147598266602e+00,3.220746755599975586e+00,3.212296009063720703e+00,5.000000000000000000e+00,5.000000000000000000e+00,3.106631994247436523e+00,3.115944862365722656e+00,5.000000000000000000e+00,5.000000000000000000e+00,5.000000000000000000e+00,5.000000000000000000e+00,5.000000000000000000e+00,5.000000000000000000e+00,5.000000000000000000e+00,5.000000000000000000e+00,4.845825195312500000e+00,4.687292575836181641e+00,4.538804531097412109e+00,4.399435520172119141e+00,4.268370628356933594e+00,4.144888877868652344e+00,4.028350830078125000e+00,3.918187379837036133e+00,3.813888311386108398e+00,3.714997768402099609e+00
3.097747325897216797e+00,3.176292896270751953e+00,3.258907556533813477e+00,3.345934391021728516e+00,3.437736749649047852e+00,3.534718751907348633e+00,3.637331724166870117e+00,3.746105670928955078e+00,3.861604452133178711e+00,3.984452247619628906e+00,4.115372657775878906e+00,4.255188941955566406e+00,4.404839515686035156e+00,4.565399646759033203e+00,4.738108158111572266e+00,4.924397468566894531e+00,5.000000000000000000e+00,5.000000000000000000e+00,5.000000000000000000e+00,5.000000000000000000e+00,5.000000000000000000e+00,5.000000000000000000e+00,5.000000000000000000e+00,5.000000000000000000e+00,5.000000000000000000e+00,5.000000000000000000e+00,5.000000000000000000e+00,5.000000000000000000e+00,5.000000000000000000e+00,5.000000000000000000e+00,5.000000000000000000e+00,5.000000000000000000e+00,5.000000000000000000e+00,5.000000000000000000e+00,5.000000000000000000e+00,5.000000000000000000e+00,5.000000000000000000e+00,5.000000000000000000e+00,5.000000000000000000e+00,5.000000000000000000e+00,5.000000000000000000e+00,5.000000000000000000e+00,5.000000000000000000e+00,5.000000000000000000e+00,5.000000000000000000e+00,5.000000000000000000e+00,5.000000000000000000e+00,5.000000000000000000e+00,5.000000000000000000e+00,5.000000000000000000e+00,5.000000000000000000e+00,3.363071680068969727e+00,3.331531763076782227e+00,3.148810386657714844e+00,3.116269111633300781e+00,3.126812458038330078e+00,3.220309257507324219e+00,3.215038776397705078e+00,5.000000000000000000e+00,5.000000000000000000e+00,5.000000000000000000e+00,3.055458307266235352e+00,5.000000000000000000e+00,5.000000000000000000e+00,5.000000000000000000e+00,5.000000000000000000e+00,5.000000000000000000e+00,5.000000000000000000e+00,5.000000000000000000e+00,5.000000000000000000e+00,4.845951557159423828e+00,4.687411308288574219e+00,4.538915634155273438e+00,4.399540424346923828e+00,4.268469333648681641e+00,4.144981861114501953e+00,4.028438568115234375e+00,3.918270111083984375e+00,3.813966751098632812e+00,3.715072154998779297e+00
3.097681283950805664e+00,3.176237344741821289e+00,3.258881568908691406e+00,3.345935344696044922e+00,3.437737941741943359e+00,3.534719944000244141e+00,3.637332916259765625e+00,3.746081590652465820e+00,3.861533403396606445e+00,3.984343051910400391e+00,4.115256309509277344e+00,4.255064010620117188e+00,4.404706001281738281e+00,4.565256595611572266e+00,4.737953662872314453e+00,4.924231052398681641e+00,5.000000000000000000e+00,5.000000000000000000e+00,5.000000000000000000e+00,5.000000000000000000e+00,5.000000000000000000e+00,5.000000000000000000e+00,5.000000000000000000e+00,5.000000000000000000e+00,5.000000000000000000e+00,5.000000000000000000e+00,5.000000000000000000e+00,5.000000000000000000e+00,5.000000000000000000e+00,5.000000000000000000e+00,5.000000000000000000e+00,5.000000000000000000e+00,5.000000000000000000e+00,5.000000000000000000e+00,5.000000000000000000e+00,5.000000000000000000e+00,5.000000000000000000e+00,5.000000000000000000e+00,5.000000000000000000e+00,5.000000000000000000e+00,5.000000000000000000e+00,5.000000000000000000e+00,5.000000000000000000e+00,5.000000000000000000e+00,5.000000000000000000e+00,5.000000000000000000e+00,5.000000000000000000e+00,5.000000000000000000e+00,5.000000000000000000e+00,5.000000000000000000e+00,5.000000000000000000e+00,5.000000000000000000e+00,3.303604364395141602e+00,3.146265268325805664e+00,3.102125406265258789e+00,3.103488683700561523e+00,3.230103254318237305e+00,3.229368686676025391e+00,5.000000000000000000e+00,5.000000000000000000e+00,5.000000000000000000e+00,5.000000000000000000e+00,5.000000000000000000e+00,5.000000000000000000e+00,5.000000000000000000e+00,5.000000000000000000e+00,5.000000000000000000e+00,5.000000000000000000e+00,5.000000000000000000e+00,5.000000000000000000e+00,4.846078395843505859e+00,4.687529563903808594e+00,4.539027214050292969e+00,4.399644851684570312e+00,4.268567562103271484e+00,4.145074367523193359e+00,4.028526306152343750e+00,3.918353080749511719e+00,3.814045190811157227e+00,3.715146541595458984e+00
3.097615480422973633e+00,3.176167964935302734e+00,3.258808612823486328e+00,3.345864295959472656e+00,3.437698841094970703e+00,3.534716844558715820e+00,3.637334108352661133e+00,3.746082782745361328e+00,3.861534833908081055e+00,3.984329223632812500e+00,4.115190029144287109e+00,4.254940032958984375e+00,4.404572486877441406e+00,4.565113067626953125e+00,4.737799644470214844e+00,4.924064159393310547e+00,5.000000000000000000e+00,5.000000000000000000e+00,5.000000000000000000e+00,5.000000000000000000e+00,5.000000000000000000e+00,5.000000000000000000e+00,5.000000000000000000e+00,5.000000000000000000e+00,5.000000000000000000e+00,5.000000000000000000e+00,5.000000000000000000e+00,5.000000000000000000e+00,5.000000000000000000e+00,5.000000000000000000e+00,5.000000000000000000e+00,5.000000000000000000e+00,5.000000000000000000e+00,5.000000000000000000e+00,5.000000000000000000e+00,5.000000000000000000e+00,5.000000000000000000e+00,5.000000000000000000e+00,5.000000000000000000e+00,5.000000000000000000e+00,5.000000000000000000e+00,5.000000000000000000e+00,5.000000000000000000e+00,5.000000000000000000e+00,5.000000000000000000e+00,5.000000000000000000e+00,5.000000000000000000e+00,5.000000000000000000e+00,5.000000000000000000e+00,5.000000000000000000e+00,5.000000000000000000e+00,3.333525657653808594e+00,3.284521102905273438e+00,3.167699337005615234e+00,3.083617210388183594e+00,3.080741167068481445e+00,3.244295597076416016e+00,3.247301340103149414e+00,5.000000000000000000e+00,5.000000000000000000e+00,5.000000000000000000e+00,5.000000000000000000e+00,5.000000000000000000e+00,5.000000000000000000e+00,5.000000000000000000e+00,5.000000000000000000e+00,5.000000000000000000e+00,5.000000000000000000e+00,5.000000000000000000e+00,5.000000000000000000e+00,4.846205234527587891e+00,4.687648296356201172e+00,4.539138317108154297e+00,4.399749279022216797e+00,4.268665790557861328e+00,4.145167350769042969e+00,4.028614044189453125e+00,3.918435811996459961e+00,3.814123630523681641e+00,3.715221166610717773e+00
3.097549438476562500e+00,3.176098823547363281e+00,3.258735418319702148e+00,3.345787286758422852e+00,3.437617778778076172e+00,3.534630775451660156e+00,3.637279272079467773e+00,3.746067762374877930e+00,3.861536502838134766e+00,3.984331130981445312e+00,4.115191936492919922e+00,4.254940509796142578e+00,4.404514312744140625e+00,4.564987182617187500e+00,4.737645149230957031e+00,4.923897266387939453e+00,5.000000000000000000e+00,5.000000000000000000e+00,5.000000000000000000e+00,5.000000000000000000e+00,5.000000000000000000e+00,5.000000000000000000e+00,5.000000000000000000e+00,5.000000000000000000e+00,5.000000000000000000e+00,5.000000000000000000e+00,5.000000000000000000e+00,5.000000000000000000e+00,5.000000000000000000e+00,5.000000000000000000e+00,5.000000000000000000e+00,5.000000000000000000e+00,5.000000000000000000e+00,5.000000000000000000e+00,5.000000000000000000e+00,5.000000000000000000e+00,5.000000000000000000e+00,5.000000000000000000e+00,5.000000000000000000e+00,5.000000000000000000e+00,5.000000000000000000e+00,5.000000000000000000e+00,5.000000000000000000e+00,5.000000000000000000e+00,5.000000000000000000e+00,5.000000000000000000e+00,5.000000000000000000e+00,5.000000000000000000e+00,5.000000000000000000e+00,5.000000000000000000e+00,5.000000000000000000e+00,3.321859598159790039e+00,5.000000000000000000e+00,5.000000000000000000e+00,3.070221662521362305e+00,3.055286169052124023e+00,3.256073713302612305e+00,3.265919208526611328e+00,5.000000000000000000e+00,5.000000000000000000e+00,5.000000000000000000e+00,5.000000000000000000e+00,5.000000000000000000e+00,5.000000000000000000e+00,5.000000000000000000e+00,5.000000000000000000e+00,5.000000000000000000e+00,5.000000000000000000e+00,5.000000000000000000e+00,5.000000000000000000e+00,4.846331596374511719e+00,4.687767028808593750e+00,4.539249420166015625e+00,4.399853706359863281e+00,4.268764495849609375e+00,4.145259857177734375e+00,4.028701305389404297e+00,3.918518543243408203e+00,3.814203500747680664e+00,3.715300559997558594e+00
3.097483396530151367e+00,3.176029443740844727e+00,3.258662700653076172e+00,3.345710277557373047e+00,3.437536478042602539e+00,3.534545183181762695e+00,3.637188196182250977e+00,3.745971202850341797e+00,3.861461877822875977e+00,3.984299898147583008e+00,4.115193367004394531e+00,4.254941940307617188e+00,4.404515743255615234e+00,4.564989089965820312e+00,4.737596988677978516e+00,4.923771858215332031e+00,5.000000000000000000e+00,5.000000000000000000e+00,5.000000000000000000e+00,5.000000000000000000e+00,5.000000000000000000e+00,5.000000000000000000e+00,5.000000000000000000e+00,5.000000000000000000e+00,5.000000000000000000e+00,5.000000000000000000e+00,5.000000000000000000e+00,5.000000000000000000e+00,5.000000000000000000e+00,5.000000000000000000e+00,5.000000000000000000e+00,5.000000000000000000e+00,5.000000000000000000e+00,5.000000000000000000e+00,5.000000000000000000e+00,5.000000000000000000e+00,5.000000000000000000e+00,5.000000000000000000e+00,5.000000000000000000e+00,5.000000000000000000e+00,5.000000000000000000e+00,5.000000000000000000e+00,5.000000000000000000e+00,5.000000000000000000e+00,5.000000000000000000e+00,5.000000000000000000e+00,5.000000000000000000e+00,5.000000000000000000e+00,5.000000000000000000e+00,5.000000000000000000e+00,5.000000000000000000e+00,5.000000000000000000e+00,5.000000000000000000e+00,5.000000000000000000e+00,3.066704988479614258e+00,3.039116859436035156e+00,3.269441843032836914e+00,3.285620450973510742e+00,5.000000000000000000e+00,5.000000000000000000e+00,5.000000000000000000e+00,5.000000000000000000e+00,5.000000000000000000e+00,5.000000000000000000e+00,5.000000000000000000e+00,5.000000000000000000e+00,5.000000000000000000e+00,5.000000000000000000e+00,5.000000000000000000e+00,5.000000000000000000e+00,4.846458435058593750e+00,4.687885761260986328e+00,4.539360523223876953e+00,4.399958133697509766e+00,4.268862724304199219e+00,4.145352840423583984e+00,4.028792858123779297e+00,3.918608665466308594e+00,3.814291477203369141e+00,3.715383529663085938e+00
3.097417593002319336e+00,3.175959825515747070e+00,3.258589506149291992e+00,3.345633506774902344e+00,3.437455177307128906e+00,3.534459352493286133e+00,3.637097358703613281e+00,3.745874404907226562e+00,3.861359357833862305e+00,3.984191179275512695e+00,4.115094184875488281e+00,4.254891395568847656e+00,4.404517650604248047e+00,4.564990997314453125e+00,4.737599372863769531e+00,4.923774242401123047e+00,5.000000000000000000e+00,5.000000000000000000e+00,5.000000000000000000e+00,5.000000000000000000e+00,5.000000000000000000e+00,5.000000000000000000e+00,5.000000000000000000e+00,5.000000000000000000e+00,5.000000000000000000e+00,5.000000000000000000e+00,5.000000000000000000e+00,5.000000000000000000e+00,5.000000000000000000e+00,5.000000000000000000e+00,5.000000000000000000e+00,5.000000000000000000e+00,5.000000000000000000e+00,5.000000000000000000e+00,5.000000000000000000e+00,5.000000000000000000e+00,5.000000000000000000e+00,5.000000000000000000e+00,5.000000000000000000e+00,5.000000000000000000e+00,5.000000000000000000e+00,5.000000000000000000e+00,5.000000000000000000e+00,5.000000000000000000e+00,5.000000000000000000e+00,5.000000000000000000e+00,5.000000000000000000e+00,5.000000000000000000e+00,5.000000000000000000e+00,5.000000000000000000e+00,5.000000000000000000e+00,5.000000000000000000e+00,5.000000000000000000e+00,5.000000000000000000e+00,3.078858137130737305e+00,3.052030801773071289e+00,3.279556274414062500e+00,5.000000000000000000e+00,5.000000000000000000e+00,5.000000000000000000e+00,5.000000000000000000e+00,5.000000000000000000e+00,5.000000000000000000e+00,5.000000000000000000e+00,5.000000000000000000e+00,5.000000000000000000e+00,5.000000000000000000e+00,5.000000000000000000e+00,5.000000000000000000e+00,5.000000000000000000e+00,4.846585273742675781e+00,4.688004016876220703e+00,4.539472103118896484e+00,4.400064945220947266e+00,4.268967628479003906e+00,4.145455837249755859e+00,4.028890609741210938e+00,3.918701171875000000e+00,3.814378976821899414e+00,3.715466976165771484e+00
3.097351551055908203e+00,3.175890684127807617e+00,3.258516311645507812e+00,3.345556497573852539e+00,3.437374114990234375e+00,3.534373283386230469e+00,3.637006521224975586e+00,3.745778322219848633e+00,3.861256599426269531e+00,3.984081983566284180e+00,4.114977836608886719e+00,4.254766941070556641e+00,4.404387950897216797e+00,4.564915180206298828e+00,4.737586021423339844e+00,4.923776626586914062e+00,5.000000000000000000e+00,5.000000000000000000e+00,5.000000000000000000e+00,5.000000000000000000e+00,5.000000000000000000e+00,5.000000000000000000e+00,5.000000000000000000e+00,5.000000000000000000e+00,5.000000000000000000e+00,5.000000000000000000e+00,5.000000000000000000e+00,5.000000000000000000e+00,5.000000000000000000e+00,5.000000000000000000e+00,5.000000000000000000e+00,5.000000000000000000e+00,5.000000000000000000e+00,5.000000000000000000e+00,5.000000000000000000e+00,5.000000000000000000e+00,5.000000000000000000e+00,5.000000000000000000e+00,5.000000000000000000e+00,5.000000000000000000e+00,5.000000000000000000e+00,5.000000000000000000e+00,5.000000000000000000e+00,5.000000000000000000e+00,5.000000000000000000e+00,5.000000000000000000e+00,5.000000000000000000e+00,5.000000000000000000e+00,5.000000000000000000e+00,5.000000000000000000e+00,5.000000000000000000e+00,5.000000000000000000e+00,5.000000000000000000e+00,5.000000000000000000e+00,3.092350721359252930e+00,3.069968700408935547e+00,3.306761980056762695e+00,5.000000000000000000e+00,5.000000000000000000e+00,5.000000000000000000e+00,5.000000000000000000e+00,5.000000000000000000e+00,5.000000000000000000e+00,5.000000000000000000e+00,5.000000000000000000e+00,5.000000000000000000e+00,5.000000000000000000e+00,5.000000000000000000e+00,5.000000000000000000e+00,5.000000000000000000e+00,4.846712112426757812e+00,4.688127994537353516e+00,4.539593696594238281e+00,4.400181770324707031e+00,4.269077301025390625e+00,4.145559787750244141e+00,4.028988361358642578e+00,3.918794155120849609e+00,3.814466714859008789e+00,3.715550184249877930e+00
3.097285509109497070e+00,3.175821304321289062e+00,3.258443355560302734e+00,3.345479488372802734e+00,3.437292814254760742e+00,3.534287691116333008e+00,3.636915445327758789e+00,3.745681762695312500e+00,3.861154317855834961e+00,3.983972549438476562e+00,4.114861011505126953e+00,4.254642486572265625e+00,4.404254436492919922e+00,4.564771652221679688e+00,4.737432003021240234e+00,4.923667430877685547e+00,5.000000000000000000e+00,5.000000000000000000e+00,5.000000000000000000e+00,5.000000000000000000e+00,5.000000000000000000e+00,5.000000000000000000e+00,5.000000000000000000e+00,5.000000000000000000e+00,5.000000000000000000e+00,5.000000000000000000e+00,5.000000000000000000e+00,5.000000000000000000e+00,5.000000000000000000e+00,5.000000000000000000e+00,5.000000000000000000e+00,5.000000000000000000e+00,5.000000000000000000e+00,5.000000000000000000e+00,5.000000000000000000e+00,5.000000000000000000e+00,5.000000000000000000e+00,5.000000000000000000e+00,5.000000000000000000e+00,5.000000000000000000e+00,5.000000000000000000e+00,5.000000000000000000e+00,5.000000000000000000e+00,5.000000000000000000e+00,5.000000000000000000e+00,5.000000000000000000e+00,5.000000000000000000e+00,5.000000000000000000e+00,5.000000000000000000e+00,5.000000000000000000e+00,5.000000000000000000e+00,5.000000000000000000e+00,5.000000000000000000e+00,5.000000000000000000e+00,3.103036403656005859e+00,3.082880973815917969e+00,3.426413774490356445e+00,5.000000000000000000e+00,5.000000000000000000e+00,5.000000000000000000e+00,5.000000000000000000e+00,5.000000000000000000e+00,5.000000000000000000e+00,5.000000000000000000e+00,5.000000000000000000e+00,5.000000000000000000e+00,5.000000000000000000e+00,5.000000000000000000e+00,5.000000000000000000e+00,5.000000000000000000e+00,4.846853733062744141e+00,4.688260555267333984e+00,4.539717674255371094e+00,4.400298118591308594e+00,4.269186973571777344e+00,4.145663261413574219e+00,4.029086589813232422e+00,3.918886661529541016e+00,3.814554691314697266e+00,3.715633392333984375e+00
3.097219467163085938e+00,3.175751924514770508e+00,3.258370637893676758e+00,3.345402479171752930e+00,3.437211513519287109e+00,3.534201622009277344e+00,3.636824369430541992e+00,3.745585203170776367e+00,3.861051797866821289e+00,3.983863830566406250e+00,4.114744663238525391e+00,4.254518032073974609e+00,4.404120922088623047e+00,4.564628124237060547e+00,4.737277507781982422e+00,4.923501014709472656e+00,5.000000000000000000e+00,5.000000000000000000e+00,5.000000000000000000e+00,5.000000000000000000e+00,5.000000000000000000e+00,5.000000000000000000e+00,5.000000000000000000e+00,5.000000000000000000e+00,5.000000000000000000e+00,5.000000000000000000e+00,5.000000000000000000e+00,5.000000000000000000e+00,5.000000000000000000e+00,5.000000000000000000e+00,5.000000000000000000e+00,5.000000000000000000e+00,5.000000000000000000e+00,5.000000000000000000e+00,5.000000000000000000e+00,5.000000000000000000e+00,5.000000000000000000e+00,5.000000000000000000e+00,5.000000000000000000e+00,5.000000000000000000e+00,5.000000000000000000e+00,5.000000000000000000e+00,5.000000000000000000e+00,5.000000000000000000e+00,5.000000000000000000e+00,5.000000000000000000e+00,5.000000000000000000e+00,5.000000000000000000e+00,5.000000000000000000e+00,5.000000000000000000e+00,5.000000000000000000e+00,5.000000000000000000e+00,5.000000000000000000e+00,5.000000000000000000e+00,3.113924264907836914e+00,3.080350875854492188e+00,5.000000000000000000e+00,5.000000000000000000e+00,5.000000000000000000e+00,5.000000000000000000e+00,5.000000000000000000e+00,5.000000000000000000e+00,5.000000000000000000e+00,5.000000000000000000e+00,5.000000000000000000e+00,5.000000000000000000e+00,5.000000000000000000e+00,5.000000000000000000e+00,5.000000000000000000e+00,5.000000000000000000e+00,4.846995353698730469e+00,4.688393115997314453e+00,4.539842128753662109e+00,4.400414943695068359e+00,4.269297122955322266e+00,4.145766735076904297e+00,4.029184341430664062e+00,3.918978929519653320e+00,3.814642190933227539e+00,3.715716838836669922e+00
3.097153663635253906e+00,3.175682544708251953e+00,3.258297443389892578e+00,3.345325708389282227e+00,3.437129974365234375e+00,3.534115552902221680e+00,3.636733531951904297e+00,3.745488643646240234e+00,3.860949039459228516e+00,3.983754634857177734e+00,4.114628791809082031e+00,4.254393577575683594e+00,4.403987407684326172e+00,4.564485073089599609e+00,4.737123489379882812e+00,4.923334121704101562e+00,5.000000000000000000e+00,5.000000000000000000e+00,5.000000000000000000e+00,5.000000000000000000e+00,5.000000000000000000e+00,5.000000000000000000e+00,5.000000000000000000e+00,5.000000000000000000e+00,5.000000000000000000e+00,5.000000000000000000e+00,5.000000000000000000e+00,5.000000000000000000e+00,5.000000000000000000e+00,5.000000000000000000e+00,5.000000000000000000e+00,5.000000000000000000e+00,5.000000000000000000e+00,5.000000000000000000e+00,5.000000000000000000e+00,5.000000000000000000e+00,5.000000000000000000e+00,5.000000000000000000e+00,5.000000000000000000e+00,5.000000000000000000e+00,5.000000000000000000e+00,5.000000000000000000e+00,5.000000000000000000e+00,5.000000000000000000e+00,5.000000000000000000e+00,5.000000000000000000e+00,5.000000000000000000e+00,5.000000000000000000e+00,5.000000000000000000e+00,5.000000000000000000e+00,5.000000000000000000e+00,5.000000000000000000e+00,5.000000000000000000e+00,5.000000000000000000e+00,3.124888420104980469e+00,3.077278614044189453e+00,5.000000000000000000e+00,5.000000000000000000e+00,5.000000000000000000e+00,5.000000000000000000e+00,5.000000000000000000e+00,5.000000000000000000e+00,5.000000000000000000e+00,5.000000000000000000e+00,5.000000000000000000e+00,5.000000000000000000e+00,5.000000000000000000e+00,5.000000000000000000e+00,5.000000000000000000e+00,5.000000000000000000e+00,4.847136974334716797e+00,4.688526153564453125e+00,4.539966106414794922e+00,4.400531768798828125e+00,4.269407272338867188e+00,4.145870685577392578e+00,4.029282093048095703e+00,3.919071912765502930e+00,3.814729928970336914e+00,3.715800046920776367e+00
3.097087621688842773e+00,3.175613403320312500e+00,3.258224248886108398e+00,3.345248699188232422e+00,3.437049150466918945e+00,3.534029722213745117e+00,3.636642694473266602e+00,3.745392322540283203e+00,3.860846519470214844e+00,3.983645200729370117e+00,4.114511966705322266e+00,4.254269123077392578e+00,4.403854370117187500e+00,4.564342021942138672e+00,4.736968994140625000e+00,4.923167228698730469e+00,5.000000000000000000e+00,5.000000000000000000e+00,5.000000000000000000e+00,5.000000000000000000e+00,5.000000000000000000e+00,5.000000000000000000e+00,5.000000000000000000e+00,5.000000000000000000e+00,5.000000000000000000e+00,5.000000000000000000e+00,5.000000000000000000e+00,5.000000000000000000e+00,5.000000000000000000e+00,5.000000000000000000e+00,5.000000000000000000e+00,5.000000000000000000e+00,5.000000000000000000e+00,5.000000000000000000e+00,5.000000000000000000e+00,5.000000000000000000e+00,5.000000000000000000e+00,5.000000000000000000e+00,5.000000000000000000e+00,5.000000000000000000e+00,5.000000000000000000e+00,5.000000000000000000e+00,5.000000000000000000e+00,5.000000000000000000e+00,5.000000000000000000e+00,5.000000000000000000e+00,5.000000000000000000e+00,5.000000000000000000e+00,5.000000000000000000e+00,5.000000000000000000e+00,5.000000000000000000e+00,5.000000000000000000e+00,5.000000000000000000e+00,5.000000000000000000e+00,3.137802362442016602e+00,3.081759691238403320e+00,5.000000000000000000e+00,5.000000000000000000e+00,5.000000000000000000e+00,5.000000000000000000e+00,5.000000000000000000e+00,5.000000000000000000e+00,5.000000000000000000e+00,5.000000000000000000e+00,5.000000000000000000e+00,5.000000000000000000e+00,5.000000000000000000e+00,5.000000000000000000e+00,5.000000000000000000e+00,5.000000000000000000e+00,4.847278594970703125e+00,4.688658237457275391e+00,4.540090560913085938e+00,4.400648593902587891e+00,4.269516944885253906e+00,4.145974159240722656e+00,4.029380321502685547e+00,3.919164419174194336e+00,3.814817905426025391e+00,3.715883016586303711e+00
3.097021579742431641e+00,3.175543785095214844e+00,3.258151531219482422e+00,3.345171689987182617e+00,3.436967849731445312e+00,3.533944129943847656e+00,3.636551618576049805e+00,3.745295763015747070e+00,3.860744237899780273e+00,3.983536005020141602e+00,4.114395618438720703e+00,4.254144668579101562e+00,4.403720855712890625e+00,4.564198493957519531e+00,4.736814498901367188e+00,4.923000335693359375e+00,5.000000000000000000e+00,5.000000000000000000e+00,5.000000000000000000e+00,5.000000000000000000e+00,5.000000000000000000e+00,5.000000000000000000e+00,5.000000000000000000e+00,5.000000000000000000e+00,5.000000000000000000e+00,5.000000000000000000e+00,5.000000000000000000e+00,5.000000000000000000e+00,5.000000000000000000e+00,5.000000000000000000e+00,5.000000000000000000e+00,5.000000000000000000e+00,5.000000000000000000e+00,5.000000000000000000e+00,5.000000000000000000e+00,5.000000000000000000e+00,5.000000000000000000e+00,5.000000000000000000e+00,5.000000000000000000e+00,5.000000000000000000e+00,5.000000000000000000e+00,5.000000000000000000e+00,5.000000000000000000e+00,5.000000000000000000e+00,5.000000000000000000e+00,5.000000000000000000e+00,5.000000000000000000e+00,5.000000000000000000e+00,5.000000000000000000e+00,5.000000000000000000e+00,5.000000000000000000e+00,5.000000000000000000e+00,5.000000000000000000e+00,5.000000000000000000e+00,3.645556449890136719e+00,3.091246604919433594e+00,5.000000000000000000e+00,5.000000000000000000e+00,5.000000000000000000e+00,5.000000000000000000e+00,5.000000000000000000e+00,5.000000000000000000e+00,5.000000000000000000e+00,5.000000000000000000e+00,5.000000000000000000e+00,5.000000000000000000e+00,5.000000000000000000e+00,5.000000000000000000e+00,5.000000000000000000e+00,5.000000000000000000e+00,4.847420215606689453e+00,4.688790798187255859e+00,4.540215015411376953e+00,4.400765419006347656e+00,4.269627094268798828e+00,4.146077632904052734e+00,4.029478073120117188e+00,3.919256925582885742e+00,3.814905643463134766e+00,3.715966701507568359e+00
3.096955537796020508e+00,3.175474405288696289e+00,3.258078575134277344e+00,3.345094919204711914e+00,3.436886548995971680e+00,3.533858060836791992e+00,3.636460781097412109e+00,3.745199203491210938e+00,3.860641717910766602e+00,3.983427286148071289e+00,4.114279270172119141e+00,4.254020214080810547e+00,4.403587341308593750e+00,4.564055442810058594e+00,4.736660480499267578e+00,4.855263233184814453e+00,4.854063987731933594e+00,4.852865695953369141e+00,4.851668357849121094e+00,4.850470542907714844e+00,4.849274158477783203e+00,4.848078250885009766e+00,4.846882820129394531e+00,4.845687866210937500e+00,4.844493389129638672e+00,4.843299865722656250e+00,4.842106819152832031e+00,4.840914249420166016e+00,4.839722633361816406e+00,4.838531017303466797e+00,4.837340354919433594e+00,4.836150169372558594e+00,4.834960937500000000e+00,4.833771705627441406e+00,4.832582950592041016e+00,4.831395149230957031e+00,4.830208301544189453e+00,4.829021453857421875e+00,4.827835559844970703e+00,4.826650142669677734e+00,4.825465202331542969e+00,4.824281215667724609e+00,4.823097229003906250e+00,4.821914196014404297e+00,4.820731639862060547e+00,4.819549560546875000e+00,4.818368434906005859e+00,4.817187309265136719e+00,4.816007137298583984e+00,4.814827442169189453e+00,4.813648223876953125e+00,4.812469482421875000e+00,4.811291694641113281e+00,4.810114383697509766e+00,3.630670309066772461e+00,3.106706857681274414e+00,4.806585788726806641e+00,4.805410861968994141e+00,4.804236412048339844e+00,4.803062438964843750e+00,4.801888942718505859e+00,4.800716400146484375e+00,4.799544334411621094e+00,4.798372745513916016e+00,4.797201633453369141e+00,4.796030998229980469e+00,4.794860839843750000e+00,4.793691635131835938e+00,4.792522907257080078e+00,4.791354656219482422e+00,4.790187358856201172e+00,4.688923835754394531e+00,4.540339469909667969e+00,4.400882244110107422e+00,4.269736766815185547e+00,4.146181583404541016e+00,4.029575824737548828e+00,3.919349908828735352e+00,3.814993143081665039e+00,3.716049671173095703e+00
3.096889734268188477e+00,3.175405025482177734e+00,3.258005380630493164e+00,3.345017910003662109e+00,3.436805248260498047e+00,3.533771991729736328e+00,3.636369943618774414e+00,3.745103120803833008e+00,3.771335124969482422e+00,3.770611524581909180e+00,3.769888401031494141e+00,3.769165515899658203e+00,3.768443107604980469e+00,3.767720699310302734e+00,3.766998767852783203e+00,3.766276836395263672e+00,3.765555381774902344e+00,3.764834403991699219e+00,3.764113187789916992e+00,3.763392686843872070e+00,3.762672185897827148e+00,3.761952161788940430e+00,3.761232376098632812e+00,3.760512828826904297e+00,3.759793519973754883e+00,3.759074687957763672e+00,3.758355855941772461e+00,3.757637023925781250e+00,3.756918907165527344e+00,3.756200790405273438e+00,3.755483388900756836e+00,3.754765987396240234e+00,3.754048824310302734e+00,3.753332138061523438e+00,3.752615451812744141e+00,3.751899242401123047e+00,3.751183271408081055e+00,3.750467538833618164e+00,3.749752044677734375e+00,3.749037027359008789e+00,3.748322010040283203e+00,3.747607469558715820e+00,3.746893167495727539e+00,3.746178865432739258e+00,3.745465278625488281e+00,3.744751691818237305e+00,3.744038343429565430e+00,3.743325471878051758e+00,3.742612600326538086e+00,3.741900205612182617e+00,3.741188049316406250e+00,3.740476131439208984e+00,3.739764690399169922e+00,3.739053249359130859e+00,3.738342285156250000e+00,3.074387550354003906e+00,3.037964820861816406e+00,3.736210107803344727e+00,3.735500097274780273e+00,3.734790325164794922e+00,3.734080791473388672e+00,3.733371734619140625e+00,3.732662677764892578e+00,3.731954097747802734e+00,3.731245756149291992e+00,3.730537652969360352e+00,3.729829788208007812e+00,3.729122161865234375e+00,3.728414773941040039e+00,3.727707862854003906e+00,3.727000951766967773e+00,3.726294517517089844e+00,3.725588083267211914e+00,3.724882125854492188e+00,3.724176406860351562e+00,3.723471164703369141e+00,3.722765922546386719e+00,3.722060918807983398e+00,3.721356391906738281e+00,3.716132879257202148e+00
3.083533763885498047e+00,3.083050251007080078e+00,3.082566738128662109e+00,3.082083463668823242e+00,3.081600189208984375e+00,3.081117153167724609e+00,3.080634355545043945e+00,3.080151557922363281e+00,3.079668998718261719e+00,3.079186677932739258e+00,3.078704357147216797e+00,3.078222274780273438e+00,3.077740192413330078e+00,3.077258348464965820e+00,3.076776742935180664e+00,3.076295375823974609e+00,3.075814008712768555e+00,3.075332641601562500e+00,3.074851751327514648e+00,3.074370384216308594e+00,3.073889732360839844e+00,3.073409080505371094e+00,3.072928667068481445e+00,3.072448253631591797e+00,3.071968078613281250e+00,3.071488142013549805e+00,3.071008205413818359e+00,3.070528507232666016e+00,3.070049047470092773e+00,3.069569587707519531e+00,3.069090366363525391e+00,3.068611145019531250e+00,3.068132162094116211e+00,3.067653417587280273e+00,3.067174673080444336e+00,3.066696166992187500e+00,3.066217899322509766e+00,3.065739870071411133e+00,3.065261602401733398e+00,3.064783811569213867e+00,3.064306020736694336e+00,3.063828468322753906e+00,3.063350915908813477e+00,3.062873601913452148e+00,3.062396526336669922e+00,3.061919450759887695e+00,3.061442613601684570e+00,3.060965776443481445e+00,3.060489177703857422e+00,3.060012817382812500e+00,3.059536218643188477e+00,3.059060096740722656e+00,3.058584213256835938e+00,3.058108329772949219e+00,3.057632684707641602e+00,3.030678987503051758e+00,2.969348907470703125e+00,3.056206464767456055e+00,3.055731296539306641e+00,3.055256366729736328e+00,3.054781436920166016e+00,3.054306983947753906e+00,3.053832292556762695e+00,3.053358078002929688e+00,3.052883863449096680e+00,3.052409648895263672e+00,3.051935911178588867e+00,3.051461935043334961e+00,3.050988435745239258e+00,3.050514936447143555e+00,3.050041675567626953e+00,3.049568414688110352e+00,3.049095392227172852e+00,3.048622608184814453e+00,3.048149824142456055e+00,3.047677278518676758e+00,3.047204732894897461e+00,3.046732425689697266e+00,3.046260356903076172e+00,3.045788288116455078e+00
2.605147600173950195e+00,2.604802370071411133e+00,2.604457378387451172e+00,2.604112386703491211e+00,2.603767395019531250e+00,2.603422403335571289e+00,2.603077650070190430e+00,2.602733373641967773e+00,2.602388620376586914e+00,2.602044105529785156e+00,2.601699829101562500e+00,2.601355314254760742e+00,2.601011037826538086e+00,2.600666999816894531e+00,2.600322961807250977e+00,2.599978923797607422e+00,2.599635124206542969e+00,2.599291324615478516e+00,2.598947763442993164e+00,2.598604202270507812e+00,2.598260641098022461e+00,2.597917318344116211e+00,2.597573995590209961e+00,2.597230672836303711e+00,2.596887588500976562e+00,2.596544504165649414e+00,2.596201658248901367e+00,2.595858812332153320e+00,2.595515966415405273e+00,2.595173358917236328e+00,2.594830751419067383e+00,2.594488382339477539e+00,2.594146013259887695e+00,2.593803644180297852e+00,2.593461275100708008e+00,2.593119144439697266e+00,2.592777252197265625e+00,2.592435359954833984e+00,2.592093467712402344e+00,2.591751575469970703e+00,2.591409921646118164e+00,2.591068506240844727e+00,2.590726613998413086e+00,2.590385198593139648e+00,2.590044021606445312e+00,2.589702844619750977e+00,2.589361667633056641e+00,2.589020490646362305e+00,2.588679552078247070e+00,2.588338851928710938e+00,2.587997913360595703e+00,2.587657213211059570e+00,2.587316751480102539e+00,2.586976289749145508e+00,2.586635828018188477e+00,2.586295366287231445e+00,2.585955142974853516e+00,2.585615158081054688e+00,2.585274934768676758e+00,2.584935188293457031e+00,2.584595203399658203e+00,2.584255456924438477e+00,2.583915710449218750e+00,2.583576202392578125e+00,2.583236694335937500e+00,2.582897186279296875e+00,2.582557916641235352e+00,2.582218647003173828e+00,2.581879377365112305e+00,2.581540346145629883e+00,2.581201314926147461e+00,2.580862522125244141e+00,2.580523490905761719e+00,2.580184698104858398e+00,2.579846143722534180e+00,2.579507589340209961e+00,2.579169034957885742e+00,2.578830718994140625e+00,2.578492403030395508e+00,2.578154325485229492e+00
2.255261659622192383e+00,2.255002975463867188e+00,2.254744291305541992e+00,2.254485607147216797e+00,2.254227161407470703e+00,2.253968715667724609e+00,2.253710269927978516e+00,2.253451824188232422e+00,2.253193616867065430e+00,2.252935409545898438e+00,2.252677202224731445e+00,2.252418994903564453e+00,2.252161026000976562e+00,2.251903057098388672e+00,2.251645088195800781e+00,2.251387119293212891e+00,2.251129388809204102e+00,2.250871419906616211e+00,2.250613927841186523e+00,2.250356197357177734e+00,2.250098466873168945e+00,2.249840974807739258e+00,2.249583482742309570e+00,2.249326229095458984e+00,2.249068737030029297e+00,2.248811483383178711e+00,2.248554229736328125e+00,2.248296976089477539e+00,2.248039960861206055e+00,2.247782945632934570e+00,2.247525930404663086e+00,2.247268915176391602e+00,2.247012138366699219e+00,2.246755123138427734e+00,2.246498346328735352e+00,2.246241569519042969e+00,2.245985031127929688e+00,2.245728254318237305e+00,2.245471715927124023e+00,2.245215177536010742e+00,2.244958877563476562e+00,2.244702577590942383e+00,2.244446277618408203e+00,2.244189977645874023e+00,2.243933677673339844e+00,2.243677616119384766e+00,2.243421554565429688e+00,2.243165493011474609e+00,2.242909669876098633e+00,2.242653846740722656e+00,2.242397785186767578e+00,2.242142200469970703e+00,2.241886377334594727e+00,2.241630792617797852e+00,2.241375207901000977e+00,2.241119623184204102e+00,2.240864038467407227e+00,2.240608692169189453e+00,2.240353345870971680e+00,2.240097999572753906e+00,2.239842653274536133e+00,2.239587545394897461e+00,2.239332437515258789e+00,2.239077329635620117e+00,2.238822221755981445e+00,2.238567113876342773e+00,2.238312244415283203e+00,2.238057374954223633e+00,2.237802743911743164e+00,2.237547874450683594e+00,2.237293243408203125e+00,2.237038612365722656e+00,2.236784219741821289e+00,2.236529588699340820e+00,2.236275196075439453e+00,2.236020803451538086e+00,2.235766410827636719e+00,2.235512256622314453e+00,2.235257863998413086e+00,2.235003709793090820e+00
1.988230943679809570e+00,1.988029718399047852e+00,1.987828850746154785e+00,1.987627744674682617e+00,1.987426877021789551e+00,1.987225890159606934e+00,1.987025022506713867e+00,1.986824393272399902e+00,1.986623406410217285e+00,1.986422777175903320e+00,1.986222028732299805e+00,1.986021399497985840e+00,1.985820651054382324e+00,1.985620260238647461e+00,1.985419511795043945e+00,1.985219120979309082e+00,1.985018610954284668e+00,1.984818220138549805e+00,1.984617710113525391e+00,1.984417438507080078e+00,1.984217047691345215e+00,1.984016895294189453e+00,1.983816623687744141e+00,1.983616471290588379e+00,1.983416199684143066e+00,1.983216285705566406e+00,1.983016014099121094e+00,1.982815861701965332e+00,1.982616066932678223e+00,1.982416033744812012e+00,1.982216238975524902e+00,1.982016205787658691e+00,1.981816530227661133e+00,1.981616616249084473e+00,1.981416940689086914e+00,1.981217145919799805e+00,1.981017589569091797e+00,1.980817914009094238e+00,1.980618357658386230e+00,1.980418682098388672e+00,1.980219364166259766e+00,1.980019807815551758e+00,1.979820489883422852e+00,1.979620933532714844e+00,1.979421734809875488e+00,1.979222297668457031e+00,1.979023098945617676e+00,1.978823781013488770e+00,1.978624701499938965e+00,1.978425502777099609e+00,1.978226423263549805e+00,1.978027343750000000e+00,1.977828383445739746e+00,1.977629303932189941e+00,1.977430462837219238e+00,1.977231383323669434e+00,1.977032661437988281e+00,1.976833701133728027e+00,1.976634860038757324e+00,1.976436257362365723e+00,1.976237416267395020e+00,1.976038813591003418e+00,1.975840091705322266e+00,1.975641608238220215e+00,1.975443005561828613e+00,1.975244522094726562e+00,1.975046038627624512e+00,1.974847674369812012e+00,1.974649190902709961e+00,1.974450945854187012e+00,1.974252462387084961e+00,1.974054336547851562e+00,1.973855972290039062e+00,1.973657965660095215e+00,1.973459720611572266e+00,1.973261713981628418e+00,1.973063468933105469e+00,1.972865581512451172e+00,1.972667455673217773e+00,1.972469687461853027e+00
1.777740478515625000e+00,1.777579665184020996e+00,1.777418971061706543e+00,1.777258157730102539e+00,1.777097582817077637e+00,1.776936888694763184e+00,1.776776313781738281e+00,1.776615738868713379e+00,1.776455163955688477e+00,1.776294589042663574e+00,1.776134252548217773e+00,1.775973677635192871e+00,1.775813341140747070e+00,1.775652766227722168e+00,1.775492429733276367e+00,1.775332093238830566e+00,1.775171756744384766e+00,1.775011420249938965e+00,1.774851202964782715e+00,1.774690866470336914e+00,1.774530768394470215e+00,1.774370551109313965e+00,1.774210453033447266e+00,1.774050235748291016e+00,1.773890256881713867e+00,1.773730039596557617e+00,1.773570179939270020e+00,1.773410081863403320e+00,1.773250102996826172e+00,1.773090124130249023e+00,1.772930264472961426e+00,1.772770285606384277e+00,1.772610545158386230e+00,1.772450566291809082e+00,1.772290825843811035e+00,1.772130966186523438e+00,1.771971344947814941e+00,1.771811485290527344e+00,1.771651864051818848e+00,1.771492123603820801e+00,1.771332621574401855e+00,1.771172881126403809e+00,1.771013498306274414e+00,1.770853757858276367e+00,1.770694375038146973e+00,1.770534753799438477e+00,1.770375370979309082e+00,1.770215868949890137e+00,1.770056605339050293e+00,1.769897103309631348e+00,1.769737720489501953e+00,1.769578456878662109e+00,1.769419074058532715e+00,1.769259929656982422e+00,1.769100546836853027e+00,1.768941402435302734e+00,1.768782138824462891e+00,1.768623113632202148e+00,1.768463969230651855e+00,1.768304944038391113e+00,1.768145799636840820e+00,1.767986893653869629e+00,1.767827749252319336e+00,1.767668843269348145e+00,1.767509818077087402e+00,1.767351031303405762e+00,1.767192006111145020e+00,1.767033219337463379e+00,1.766874313354492188e+00,1.766715645790100098e+00,1.766556739807128906e+00,1.766398072242736816e+00,1.766239285469055176e+00,1.766080737113952637e+00,1.765921950340270996e+00,1.765763401985168457e+00,1.765604734420776367e+00,1.765446305274963379e+00,1.765287637710571289e+00,1.765129208564758301e+00
1.607551693916320801e+00,1.607420325279235840e+00,1.607288837432861328e+00,1.607157468795776367e+00,1.607025980949401855e+00,1.606894731521606445e+00,1.606763243675231934e+00,1.606631994247436523e+00,1.606500744819641113e+00,1.606369376182556152e+00,1.606238245964050293e+00,1.606106877326965332e+00,1.605975747108459473e+00,1.605844497680664062e+00,1.605713367462158203e+00,1.605582237243652344e+00,1.605451107025146484e+00,1.605319976806640625e+00,1.605188965797424316e+00,1.605057716369628906e+00,1.604926824569702148e+00,1.604795694351196289e+00,1.604664802551269531e+00,1.604533672332763672e+00,1.604402780532836914e+00,1.604271769523620605e+00,1.604140996932983398e+00,1.604009985923767090e+00,1.603879213333129883e+00,1.603748202323913574e+00,1.603617548942565918e+00,1.603486657142639160e+00,1.603355884552001953e+00,1.603224992752075195e+00,1.603094339370727539e+00,1.602963566780090332e+00,1.602832913398742676e+00,1.602702140808105469e+00,1.602571606636047363e+00,1.602440834045410156e+00,1.602310299873352051e+00,1.602179646492004395e+00,1.602048993110656738e+00,1.601918578147888184e+00,1.601787924766540527e+00,1.601657509803771973e+00,1.601526856422424316e+00,1.601396560668945312e+00,1.601266026496887207e+00,1.601135611534118652e+00,1.601005196571350098e+00,1.600874900817871094e+00,1.600744366645812988e+00,1.600614190101623535e+00,1.600483775138854980e+00,1.600353479385375977e+00,1.600223183631896973e+00,1.600093007087707520e+00,1.599962592124938965e+00,1.599832534790039062e+00,1.599702239036560059e+00,1.599572062492370605e+00,1.599441885948181152e+00,1.599311828613281250e+00,1.599181652069091797e+00,1.599051594734191895e+00,1.598921537399291992e+00,1.598791480064392090e+00,1.598661422729492188e+00,1.598531484603881836e+00,1.598401427268981934e+00,1.598271489143371582e+00,1.598141551017761230e+00,1.598011493682861328e+00,1.597881674766540527e+00,1.597751736640930176e+00,1.597621917724609375e+00,1.597492098808288574e+00,1.597362279891967773e+00,1.597232460975646973e+00
1.467101454734802246e+00,1.466992020606994629e+00,1.466882467269897461e+00,1.466773152351379395e+00,1.466663599014282227e+00,1.466554284095764160e+00,1.466444730758666992e+00,1.466335415840148926e+00,1.466225981712341309e+00,1.466116666793823242e+00,1.466007351875305176e+00,1.465898036956787109e+00,1.465788602828979492e+00,1.465679407119750977e+00,1.465570092201232910e+00,1.465460896492004395e+00,1.465351581573486328e+00,1.465242385864257812e+00,1.465133190155029297e+00,1.465023994445800781e+00,1.464914798736572266e+00,1.464805603027343750e+00,1.464696526527404785e+00,1.464587330818176270e+00,1.464478373527526855e+00,1.464369177818298340e+00,1.464260101318359375e+00,1.464151024818420410e+00,1.464042067527770996e+00,1.463932871818542480e+00,1.463823914527893066e+00,1.463714957237243652e+00,1.463605999946594238e+00,1.463496923446655273e+00,1.463387966156005859e+00,1.463279008865356445e+00,1.463170051574707031e+00,1.463061213493347168e+00,1.462952256202697754e+00,1.462843537330627441e+00,1.462734580039978027e+00,1.462625741958618164e+00,1.462516903877258301e+00,1.462408185005187988e+00,1.462299346923828125e+00,1.462190628051757812e+00,1.462081789970397949e+00,1.461973071098327637e+00,1.461864352226257324e+00,1.461755633354187012e+00,1.461646914482116699e+00,1.461538314819335938e+00,1.461429595947265625e+00,1.461320996284484863e+00,1.461212277412414551e+00,1.461103796958923340e+00,1.460995078086853027e+00,1.460886597633361816e+00,1.460777997970581055e+00,1.460669517517089844e+00,1.460560917854309082e+00,1.460452437400817871e+00,1.460343837738037109e+00,1.460235476493835449e+00,1.460126996040344238e+00,1.460018396377563477e+00,1.459910035133361816e+00,1.459801554679870605e+00,1.459693193435668945e+00,1.459584832191467285e+00,1.459476470947265625e+00,1.459368109703063965e+00,1.459259748458862305e+00,1.459151387214660645e+00,1.459043145179748535e+00,1.458934783935546875e+00,1.458826541900634766e+00,1.458718299865722656e+00,1.458610057830810547e+00,1.458501815795898438e+00
1.349221229553222656e+00,1.349128603935241699e+00,1.349036097526550293e+00,1.348943471908569336e+00,1.348850965499877930e+00,1.348758339881896973e+00,1.348665833473205566e+00,1.348573446273803711e+00,1.348480820655822754e+00,1.348388433456420898e+00,1.348295807838439941e+00,1.348203420639038086e+00,1.348110914230346680e+00,1.348018527030944824e+00,1.347926020622253418e+00,1.347833633422851562e+00,1.347741127014160156e+00,1.347648859024047852e+00,1.347556352615356445e+00,1.347464084625244141e+00,1.347371697425842285e+00,1.347279429435729980e+00,1.347187042236328125e+00,1.347094774246215820e+00,1.347002387046813965e+00,1.346910119056701660e+00,1.346817851066589355e+00,1.346725583076477051e+00,1.346633315086364746e+00,1.346541047096252441e+00,1.346448779106140137e+00,1.346356630325317383e+00,1.346264362335205078e+00,1.346172213554382324e+00,1.346079945564270020e+00,1.345987915992736816e+00,1.345895648002624512e+00,1.345803618431091309e+00,1.345711350440979004e+00,1.345619320869445801e+00,1.345527172088623047e+00,1.345435142517089844e+00,1.345342993736267090e+00,1.345250964164733887e+00,1.345158815383911133e+00,1.345066905021667480e+00,1.344974756240844727e+00,1.344882845878601074e+00,1.344790697097778320e+00,1.344698786735534668e+00,1.344606757164001465e+00,1.344514846801757812e+00,1.344422817230224609e+00,1.344330906867980957e+00,1.344238996505737305e+00,1.344147086143493652e+00,1.344055175781250000e+00,1.343963146209716797e+00,1.343871355056762695e+00,1.343779444694519043e+00,1.343687653541564941e+00,1.343595743179321289e+00,1.343503952026367188e+00,1.343412041664123535e+00,1.343320250511169434e+00,1.343228459358215332e+00,1.343136787414550781e+00,1.343044877052307129e+00,1.342953205108642578e+00,1.342861413955688477e+00,1.342769742012023926e+00,1.342677950859069824e+00,1.342586278915405273e+00,1.342494606971740723e+00,1.342402935028076172e+00,1.342311143875122070e+00,1.342219591140747070e+00,1.342127919197082520e+00,1.342036366462707520e+00,1.341944694519042969e+00
1.248875379562377930e+00,1.248795986175537109e+00,1.248716711997985840e+00,1.248637318611145020e+00,1.248558044433593750e+00,1.248478770256042480e+00,1.248399496078491211e+00,1.248320221900939941e+00,1.248240947723388672e+00,1.248161673545837402e+00,1.248082399368286133e+00,1.248003125190734863e+00,1.247923970222473145e+00,1.247844696044921875e+00,1.247765541076660156e+00,1.247686266899108887e+00,1.247607111930847168e+00,1.247527956962585449e+00,1.247448801994323730e+00,1.247369647026062012e+00,1.247290492057800293e+00,1.247211456298828125e+00,1.247132182121276855e+00,1.247053146362304688e+00,1.246973991394042969e+00,1.246894955635070801e+00,1.246815800666809082e+00,1.246736764907836914e+00,1.246657729148864746e+00,1.246578693389892578e+00,1.246499538421630859e+00,1.246420621871948242e+00,1.246341466903686523e+00,1.246262550354003906e+00,1.246183514595031738e+00,1.246104478836059570e+00,1.246025443077087402e+00,1.245946526527404785e+00,1.245867490768432617e+00,1.245788574218750000e+00,1.245709657669067383e+00,1.245630741119384766e+00,1.245551705360412598e+00,1.245472908020019531e+00,1.245393872261047363e+00,1.245315074920654297e+00,1.245236158370971680e+00,1.245157361030578613e+00,1.245078444480895996e+00,1.244999527931213379e+00,1.244920730590820312e+00,1.244841814041137695e+00,1.244763016700744629e+00,1.244684100151062012e+00,1.244605422019958496e+00,1.244526505470275879e+00,1.244447827339172363e+00,1.244369029998779297e+00,1.244290232658386230e+00,1.244211435317993164e+00,1.244132757186889648e+00,1.244053959846496582e+00,1.243975281715393066e+00,1.243896484375000000e+00,1.243817806243896484e+00,1.243739128112792969e+00,1.243660449981689453e+00,1.243581771850585938e+00,1.243503093719482422e+00,1.243424415588378906e+00,1.243345856666564941e+00,1.243267178535461426e+00,1.243188500404357910e+00,1.243109941482543945e+00,1.243031263351440430e+00,1.242952704429626465e+00,1.242874145507812500e+00,1.242795467376708984e+00,1.242717027664184570e+00,1.242638349533081055e+00
1.162422299385070801e+00,1.162353634834289551e+00,1.162284851074218750e+00,1.162216186523437500e+00,1.162147402763366699e+00,1.162078738212585449e+00,1.162009954452514648e+00,1.161941289901733398e+00,1.161872744560241699e+00,1.161803960800170898e+00,1.161735415458679199e+00,1.161666631698608398e+00,1.161598086357116699e+00,1.161529421806335449e+00,1.161460757255554199e+00,1.161392092704772949e+00,1.161323547363281250e+00,1.161254882812500000e+00,1.161186337471008301e+00,1.161117672920227051e+00,1.161049127578735352e+00,1.160980582237243652e+00,1.160912036895751953e+00,1.160843491554260254e+00,1.160774946212768555e+00,1.160706400871276855e+00,1.160637855529785156e+00,1.160569310188293457e+00,1.160500764846801758e+00,1.160432219505310059e+00,1.160363793373107910e+00,1.160295248031616211e+00,1.160226821899414062e+00,1.160158276557922363e+00,1.160089850425720215e+00,1.160021424293518066e+00,1.159952998161315918e+00,1.159884572029113770e+00,1.159816026687622070e+00,1.159747719764709473e+00,1.159679174423217773e+00,1.159610867500305176e+00,1.159542441368103027e+00,1.159473896026611328e+00,1.159405589103698730e+00,1.159337162971496582e+00,1.159268856048583984e+00,1.159200429916381836e+00,1.159132122993469238e+00,1.159063696861267090e+00,1.158995389938354492e+00,1.158927083015441895e+00,1.158858776092529297e+00,1.158790469169616699e+00,1.158722162246704102e+00,1.158653855323791504e+00,1.158585548400878906e+00,1.158517241477966309e+00,1.158448934555053711e+00,1.158380627632141113e+00,1.158312439918518066e+00,1.158244252204895020e+00,1.158176064491271973e+00,1.158107757568359375e+00,1.158039569854736328e+00,1.157971262931823730e+00,1.157903075218200684e+00,1.157834887504577637e+00,1.157766699790954590e+00,1.157698512077331543e+00,1.157630324363708496e+00,1.157562136650085449e+00,1.157493948936462402e+00,1.157425880432128906e+00,1.157357692718505859e+00,1.157289505004882812e+00,1.157221317291259766e+00,1.157153248786926270e+00,1.157085180282592773e+00,1.157017111778259277e+00
1.087163686752319336e+00,1.087103605270385742e+00,1.087043404579162598e+00,1.086983323097229004e+00,1.086923241615295410e+00,1.086863160133361816e+00,1.086802959442138672e+00,1.086742997169494629e+00,1.086682796478271484e+00,1.086622834205627441e+00,1.086562752723693848e+00,1.086502671241760254e+00,1.086442589759826660e+00,1.086382627487182617e+00,1.086322546005249023e+00,1.086262583732604980e+00,1.086202502250671387e+00,1.086142539978027344e+00,1.086082458496093750e+00,1.086022496223449707e+00,1.085962414741516113e+00,1.085902452468872070e+00,1.085842490196228027e+00,1.085782527923583984e+00,1.085722565650939941e+00,1.085662603378295898e+00,1.085602641105651855e+00,1.085542678833007812e+00,1.085482716560363770e+00,1.085422754287719727e+00,1.085362911224365234e+00,1.085302948951721191e+00,1.085243105888366699e+00,1.085183143615722656e+00,1.085123300552368164e+00,1.085063338279724121e+00,1.085003495216369629e+00,1.084943532943725586e+00,1.084883689880371094e+00,1.084823846817016602e+00,1.084764003753662109e+00,1.084704041481018066e+00,1.084644198417663574e+00,1.084584355354309082e+00,1.084524512290954590e+00,1.084464669227600098e+00,1.084404945373535156e+00,1.084344983100891113e+00,1.084285259246826172e+00,1.084225416183471680e+00,1.084165692329406738e+00,1.084105849266052246e+00,1.084046125411987305e+00,1.083986282348632812e+00,1.083926558494567871e+00,1.083866715431213379e+00,1.083806991577148438e+00,1.083747267723083496e+00,1.083687543869018555e+00,1.083627700805664062e+00,1.083567976951599121e+00,1.083508253097534180e+00,1.083448529243469238e+00,1.083388805389404297e+00,1.083329200744628906e+00,1.083269476890563965e+00,1.083209753036499023e+00,1.083150029182434082e+00,1.083090305328369141e+00,1.083030700683593750e+00,1.082970976829528809e+00,1.082911372184753418e+00,1.082851648330688477e+00,1.082792043685913086e+00,1.082732319831848145e+00,1.082672715187072754e+00,1.082613110542297363e+00,1.082553505897521973e+00,1.082493901252746582e+00,1.082434296607971191e+00
1.021057367324829102e+00,1.021004319190979004e+00,1.020951390266418457e+00,1.020898342132568359e+00,1.020845293998718262e+00,1.020792245864868164e+00,1.020739316940307617e+00,1.020686268806457520e+00,1.020633339881896973e+00,1.020580291748046875e+00,1.020527362823486328e+00,1.020474314689636230e+00,1.020421385765075684e+00,1.020368456840515137e+00,1.020315408706665039e+00,1.020262479782104492e+00,1.020209550857543945e+00,1.020156621932983398e+00,1.020103693008422852e+00,1.020050764083862305e+00,1.019997715950012207e+00,1.019944906234741211e+00,1.019891977310180664e+00,1.019839048385620117e+00,1.019786119461059570e+00,1.019733190536499023e+00,1.019680261611938477e+00,1.019627451896667480e+00,1.019574522972106934e+00,1.019521713256835938e+00,1.019468784332275391e+00,1.019415974617004395e+00,1.019363045692443848e+00,1.019310235977172852e+00,1.019257426261901855e+00,1.019204497337341309e+00,1.019151687622070312e+00,1.019098877906799316e+00,1.019046068191528320e+00,1.018993139266967773e+00,1.018940448760986328e+00,1.018887519836425781e+00,1.018834710121154785e+00,1.018781900405883789e+00,1.018729209899902344e+00,1.018676280975341797e+00,1.018623590469360352e+00,1.018570780754089355e+00,1.018517971038818359e+00,1.018465280532836914e+00,1.018412470817565918e+00,1.018359661102294922e+00,1.018306970596313477e+00,1.018254160881042480e+00,1.018201470375061035e+00,1.018148660659790039e+00,1.018095970153808594e+00,1.018043279647827148e+00,1.017990469932556152e+00,1.017937779426574707e+00,1.017885088920593262e+00,1.017832398414611816e+00,1.017779707908630371e+00,1.017727017402648926e+00,1.017674326896667480e+00,1.017621636390686035e+00,1.017568945884704590e+00,1.017516255378723145e+00,1.017463564872741699e+00,1.017410993576049805e+00,1.017358303070068359e+00,1.017305612564086914e+00,1.017252922058105469e+00,1.017200350761413574e+00,1.017147660255432129e+00,1.017095088958740234e+00,1.017042398452758789e+00,1.016989827156066895e+00,1.016937255859375000e+00,1.016884565353393555e+00
9.625297188758850098e-01,9.624825716018676758e-01,9.624355435371398926e-01,9.623883366584777832e-01,9.623411893844604492e-01,9.622940421104431152e-01,9.622470736503601074e-01,9.621999263763427734e-01,9.621527791023254395e-01,9.621056914329528809e-01,9.620586633682250977e-01,9.620115756988525391e-01,9.619644284248352051e-01,9.619173407554626465e-01,9.618703722953796387e-01,9.618232846260070801e-01,9.617761969566345215e-01,9.617291092872619629e-01,9.616821408271789551e-01,9.616350531578063965e-01,9.615880250930786133e-01,9.615410566329956055e-01,9.614939689636230469e-01,9.614469408988952637e-01,9.613999128341674805e-01,9.613529443740844727e-01,9.613059163093566895e-01,9.612588882446289062e-01,9.612118601799011230e-01,9.611648917198181152e-01,9.611179232597351074e-01,9.610708951950073242e-01,9.610238671302795410e-01,9.609769582748413086e-01,9.609299898147583008e-01,9.608829617500305176e-01,9.608359932899475098e-01,9.607890844345092773e-01,9.607421159744262695e-01,9.606951475143432617e-01,9.606481194496154785e-01,9.606012701988220215e-01,9.605543017387390137e-01,9.605073332786560059e-01,9.604603648185729980e-01,9.604135155677795410e-01,9.603666067123413086e-01,9.603196382522583008e-01,9.602727890014648438e-01,9.602258801460266113e-01,9.601789712905883789e-01,9.601320028305053711e-01,9.600850939750671387e-01,9.600383043289184570e-01,9.599913954734802246e-01,9.599444866180419922e-01,9.598975777626037598e-01,9.598507881164550781e-01,9.598038792610168457e-01,9.597569704055786133e-01,9.597101211547851562e-01,9.596633315086364746e-01,9.596164822578430176e-01,9.595695734024047852e-01,9.595227241516113281e-01,9.594759345054626465e-01,9.594290852546691895e-01,9.593822360038757324e-01,9.593353867530822754e-01,9.592886567115783691e-01,9.592418074607849121e-01,9.591949582099914551e-01,9.591481685638427734e-01,9.591014385223388672e-01,9.590545892715454102e-01,9.590077996253967285e-01,9.589610099792480469e-01,9.589142799377441406e-01,9.588674902915954590e-01,9.588207006454467773e-01
9.103478789329528809e-01,9.103057980537414551e-01,9.102635979652404785e-01,9.102214574813842773e-01,9.101792573928833008e-01,9.101371765136718750e-01,9.100950360298156738e-01,9.100528955459594727e-01,9.100108146667480469e-01,9.099686741828918457e-01,9.099265336990356445e-01,9.098843932151794434e-01,9.098423123359680176e-01,9.098001718521118164e-01,9.097580909729003906e-01,9.097159504890441895e-01,9.096739292144775391e-01,9.096317887306213379e-01,9.095896482467651367e-01,9.095475673675537109e-01,9.095055460929870605e-01,9.094634652137756348e-01,9.094213247299194336e-01,9.093792438507080078e-01,9.093372821807861328e-01,9.092951416969299316e-01,9.092530608177185059e-01,9.092109799385070801e-01,9.091690182685852051e-01,9.091269373893737793e-01,9.090848565101623535e-01,9.090428352355957031e-01,9.090008735656738281e-01,9.089587926864624023e-01,9.089167118072509766e-01,9.088748097419738770e-01,9.088327288627624512e-01,9.087907075881958008e-01,9.087486863136291504e-01,9.087067246437072754e-01,9.086647033691406250e-01,9.086226820945739746e-01,9.085806608200073242e-01,9.085386991500854492e-01,9.084967374801635742e-01,9.084547162055969238e-01,9.084126949310302734e-01,9.083707928657531738e-01,9.083287715911865234e-01,9.082868099212646484e-01,9.082447886466979980e-01,9.082029461860656738e-01,9.081609249114990234e-01,9.081189632415771484e-01,9.080770015716552734e-01,9.080350995063781738e-01,9.079931378364562988e-01,9.079511761665344238e-01,9.079092144966125488e-01,9.078673720359802246e-01,9.078254103660583496e-01,9.077834486961364746e-01,9.077414870262145996e-01,9.076996445655822754e-01,9.076577425003051758e-01,9.076157808303833008e-01,9.075738787651062012e-01,9.075320363044738770e-01,9.074901342391967773e-01,9.074481725692749023e-01,9.074062705039978027e-01,9.073644876480102539e-01,9.073225855827331543e-01,9.072806835174560547e-01,9.072387814521789551e-01,9.071968793869018555e-01,9.071550965309143066e-01,9.071131944656372070e-01,9.070712924003601074e-01,9.070294499397277832e-01
8.635330796241760254e-01,8.634951114654541016e-01,8.634571433067321777e-01,8.634192943572998047e-01,8.633813261985778809e-01,8.633434176445007324e-01,8.633054494857788086e-01,8.632676005363464355e-01,8.632296919822692871e-01,8.631917834281921387e-01,8.631538152694702148e-01,8.631160259246826172e-01,8.630780577659606934e-01,8.630401492118835449e-01,8.630022406578063965e-01,8.629644513130187988e-01,8.629265427589416504e-01,8.628886342048645020e-01,8.628507256507873535e-01,8.628129363059997559e-01,8.627750277519226074e-01,8.627371191978454590e-01,8.626993298530578613e-01,8.626614809036254883e-01,8.626235723495483398e-01,8.625857234001159668e-01,8.625479340553283691e-01,8.625100255012512207e-01,8.624721765518188477e-01,8.624343276023864746e-01,8.623965382575988770e-01,8.623586893081665039e-01,8.623208403587341309e-01,8.622829914093017578e-01,8.622452616691589355e-01,8.622074127197265625e-01,8.621695637702941895e-01,8.621317148208618164e-01,8.620939850807189941e-01,8.620561361312866211e-01,8.620182871818542480e-01,8.619804978370666504e-01,8.619427680969238281e-01,8.619049191474914551e-01,8.618671298027038574e-01,8.618293404579162598e-01,8.617916107177734375e-01,8.617538213729858398e-01,8.617159724235534668e-01,8.616783022880554199e-01,8.616405129432678223e-01,8.616027235984802246e-01,8.615649342536926270e-01,8.615272045135498047e-01,8.614894747734069824e-01,8.614516854286193848e-01,8.614138960838317871e-01,8.613762259483337402e-01,8.613384366035461426e-01,8.613007068634033203e-01,8.612629175186157227e-01,8.612252473831176758e-01,8.611875176429748535e-01,8.611497879028320312e-01,8.611119985580444336e-01,8.610742688179016113e-01,8.610365986824035645e-01,8.609988689422607422e-01,8.609611392021179199e-01,8.609234094619750977e-01,8.608857989311218262e-01,8.608480691909790039e-01,8.608103394508361816e-01,8.607726097106933594e-01,8.607349991798400879e-01,8.606972694396972656e-01,8.606595993041992188e-01,8.606218695640563965e-01,8.605842590332031250e-01,8.605465888977050781e-01
8.212975859642028809e-01,8.212632536888122559e-01,8.212289810180664062e-01,8.211946487426757812e-01,8.211603760719299316e-01,8.211260437965393066e-01,8.210917711257934570e-01,8.210574984550476074e-01,8.210231661796569824e-01,8.209889531135559082e-01,8.209546208381652832e-01,8.209203481674194336e-01,8.208860158920288086e-01,8.208518028259277344e-01,8.208175301551818848e-01,8.207831978797912598e-01,8.207489252090454102e-01,8.207147121429443359e-01,8.206804394721984863e-01,8.206461668014526367e-01,8.206118941307067871e-01,8.205776810646057129e-01,8.205434083938598633e-01,8.205091357231140137e-01,8.204748630523681641e-01,8.204407095909118652e-01,8.204064369201660156e-01,8.203721642494201660e-01,8.203378915786743164e-01,8.203037381172180176e-01,8.202694654464721680e-01,8.202352523803710938e-01,8.202009797096252441e-01,8.201668262481689453e-01,8.201326131820678711e-01,8.200983405113220215e-01,8.200641870498657227e-01,8.200299739837646484e-01,8.199957609176635742e-01,8.199615478515625000e-01,8.199273943901062012e-01,8.198931813240051270e-01,8.198589682579040527e-01,8.198247551918029785e-01,8.197906017303466797e-01,8.197563886642456055e-01,8.197221755981445312e-01,8.196879625320434570e-01,8.196538686752319336e-01,8.196196556091308594e-01,8.195855021476745605e-01,8.195512890815734863e-01,8.195171952247619629e-01,8.194829821586608887e-01,8.194488286972045898e-01,8.194146156311035156e-01,8.193805217742919922e-01,8.193463683128356934e-01,8.193122148513793945e-01,8.192780017852783203e-01,8.192439079284667969e-01,8.192097544670104980e-01,8.191756010055541992e-01,8.191414475440979004e-01,8.191074132919311523e-01,8.190732598304748535e-01,8.190391063690185547e-01,8.190049529075622559e-01,8.189708590507507324e-01,8.189367651939392090e-01,8.189026117324829102e-01,8.188684582710266113e-01,8.188344240188598633e-01,8.188002705574035645e-01,8.187661767005920410e-01,8.187320232391357422e-01,8.186979889869689941e-01,8.186638951301574707e-01,8.186297416687011719e-01,8.185956478118896484e-01
7.830010652542114258e-01,7.829698324203491211e-01,7.829386591911315918e-01,7.829074263572692871e-01,7.828763127326965332e-01,7.828451395034790039e-01,7.828139066696166992e-01,7.827827334403991699e-01,7.827516198158264160e-01,7.827204465866088867e-01,7.826892137527465820e-01,7.826580405235290527e-01,7.826269268989562988e-01,7.825957536697387695e-01,7.825645804405212402e-01,7.825334072113037109e-01,7.825023531913757324e-01,7.824711799621582031e-01,7.824400067329406738e-01,7.824088335037231445e-01,7.823777794837951660e-01,7.823466062545776367e-01,7.823154330253601074e-01,7.822843790054321289e-01,7.822532057762145996e-01,7.822220325469970703e-01,7.821909189224243164e-01,7.821598649024963379e-01,7.821286916732788086e-01,7.820975780487060547e-01,7.820664048194885254e-01,7.820353507995605469e-01,7.820042371749877930e-01,7.819731235504150391e-01,7.819420099258422852e-01,7.819109559059143066e-01,7.818798422813415527e-01,7.818487286567687988e-01,7.818176150321960449e-01,7.817865610122680664e-01,7.817554473876953125e-01,7.817243337631225586e-01,7.816932201385498047e-01,7.816622257232666016e-01,7.816311120986938477e-01,7.815999984741210938e-01,7.815688848495483398e-01,7.815378904342651367e-01,7.815067768096923828e-01,7.814757227897644043e-01,7.814446687698364258e-01,7.814136147499084473e-01,7.813825011253356934e-01,7.813514471054077148e-01,7.813204526901245117e-01,7.812893986701965332e-01,7.812582850456237793e-01,7.812272310256958008e-01,7.811962366104125977e-01,7.811651825904846191e-01,7.811341285705566406e-01,7.811030745506286621e-01,7.810720801353454590e-01,7.810410261154174805e-01,7.810099720954895020e-01,7.809789180755615234e-01,7.809479236602783203e-01,7.809169292449951172e-01,7.808858752250671387e-01,7.808548212051391602e-01,7.808238863945007324e-01,7.807928323745727539e-01,7.807617783546447754e-01,7.807307839393615723e-01,7.806998491287231445e-01,7.806687951087951660e-01,7.806378006935119629e-01,7.806067466735839844e-01,7.805758118629455566e-01,7.805448174476623535e-01
7.481167912483215332e-01,7.480883002281188965e-01,7.480598092079162598e-01,7.480313777923583984e-01,7.480029463768005371e-01,7.479744553565979004e-01,7.479459643363952637e-01,7.479175329208374023e-01,7.478891015052795410e-01,7.478606104850769043e-01,7.478321790695190430e-01,7.478037476539611816e-01,7.477752566337585449e-01,7.477468252182006836e-01,7.477183938026428223e-01,7.476899623870849609e-01,7.476615309715270996e-01,7.476330399513244629e-01,7.476046681404113770e-01,7.475762367248535156e-01,7.475477457046508789e-01,7.475193142890930176e-01,7.474909424781799316e-01,7.474625110626220703e-01,7.474340796470642090e-01,7.474056482315063477e-01,7.473772764205932617e-01,7.473488450050354004e-01,7.473204135894775391e-01,7.472919821739196777e-01,7.472636103630065918e-01,7.472351789474487305e-01,7.472068071365356445e-01,7.471783757209777832e-01,7.471500039100646973e-01,7.471215724945068359e-01,7.470932006835937500e-01,7.470648288726806641e-01,7.470364570617675781e-01,7.470080256462097168e-01,7.469795942306518555e-01,7.469512820243835449e-01,7.469229102134704590e-01,7.468944787979125977e-01,7.468661069869995117e-01,7.468377947807312012e-01,7.468093633651733398e-01,7.467809915542602539e-01,7.467526197433471680e-01,7.467243075370788574e-01,7.466958761215209961e-01,7.466675043106079102e-01,7.466391324996948242e-01,7.466108202934265137e-01,7.465824484825134277e-01,7.465540766716003418e-01,7.465257048606872559e-01,7.464973926544189453e-01,7.464690804481506348e-01,7.464407086372375488e-01,7.464123368263244629e-01,7.463840246200561523e-01,7.463557124137878418e-01,7.463273406028747559e-01,7.462990283966064453e-01,7.462707161903381348e-01,7.462423443794250488e-01,7.462140321731567383e-01,7.461857199668884277e-01,7.461574077606201172e-01,7.461290359497070312e-01,7.461007237434387207e-01,7.460723519325256348e-01,7.460440993309020996e-01,7.460157871246337891e-01,7.459874749183654785e-01,7.459591031074523926e-01,7.459308505058288574e-01,7.459025382995605469e-01,7.458742260932922363e-01
7.162082791328430176e-01,7.161822319030761719e-01,7.161561250686645508e-01,7.161300182342529297e-01,7.161039113998413086e-01,7.160778641700744629e-01,7.160517573356628418e-01,7.160256505012512207e-01,7.159996032714843750e-01,7.159735560417175293e-01,7.159474492073059082e-01,7.159213423728942871e-01,7.158952951431274414e-01,7.158692479133605957e-01,7.158431410789489746e-01,7.158170938491821289e-01,7.157909870147705078e-01,7.157649993896484375e-01,7.157388925552368164e-01,7.157128453254699707e-01,7.156867384910583496e-01,7.156607508659362793e-01,7.156346440315246582e-01,7.156085968017578125e-01,7.155826091766357422e-01,7.155565619468688965e-01,7.155304551124572754e-01,7.155044078826904297e-01,7.154784202575683594e-01,7.154523730278015137e-01,7.154263257980346680e-01,7.154002785682678223e-01,7.153742909431457520e-01,7.153482437133789062e-01,7.153221964836120605e-01,7.152961492538452148e-01,7.152701616287231445e-01,7.152441143989562988e-01,7.152180671691894531e-01,7.151920199394226074e-01,7.151660323143005371e-01,7.151400446891784668e-01,7.151139974594116211e-01,7.150879502296447754e-01,7.150619626045227051e-01,7.150359749794006348e-01,7.150099277496337891e-01,7.149839997291564941e-01,7.149579524993896484e-01,7.149319648742675781e-01,7.149059176445007324e-01,7.148799896240234375e-01,7.148539423942565918e-01,7.148279547691345215e-01,7.148019671440124512e-01,7.147759795188903809e-01,7.147499918937683105e-01,7.147240042686462402e-01,7.146979570388793945e-01,7.146720290184020996e-01,7.146460413932800293e-01,7.146200537681579590e-01,7.145940661430358887e-01,7.145681381225585938e-01,7.145421504974365234e-01,7.145161628723144531e-01,7.144901752471923828e-01,7.144642472267150879e-01,7.144382596015930176e-01,7.144122719764709473e-01,7.143862843513488770e-01,7.143603563308715820e-01,7.143344283103942871e-01,7.143084406852722168e-01,7.142824530601501465e-01,7.142565250396728516e-01,7.142305970191955566e-01,7.142046093940734863e-01,7.141786813735961914e-01,7.141527533531188965e-01
6.869103908538818359e-01,6.868863701820373535e-01,6.868623495101928711e-01,6.868383288383483887e-01,6.868143677711486816e-01,6.867904067039489746e-01,6.867663860321044922e-01,6.867424249649047852e-01,6.867184042930603027e-01,6.866943836212158203e-01,6.866704225540161133e-01,6.866464614868164062e-01,6.866224408149719238e-01,6.865984797477722168e-01,6.865744590759277344e-01,6.865505576133728027e-01,6.865265369415283203e-01,6.865025758743286133e-01,6.864785552024841309e-01,6.864546537399291992e-01,6.864306330680847168e-01,6.864066720008850098e-01,6.863827109336853027e-01,6.863587498664855957e-01,6.863347887992858887e-01,6.863108277320861816e-01,6.862868070602416992e-01,6.862629055976867676e-01,6.862389445304870605e-01,6.862149834632873535e-01,6.861910223960876465e-01,6.861670613288879395e-01,6.861431002616882324e-01,6.861191391944885254e-01,6.860952377319335938e-01,6.860712766647338867e-01,6.860473155975341797e-01,6.860233545303344727e-01,6.859994530677795410e-01,6.859755516052246094e-01,6.859515905380249023e-01,6.859276294708251953e-01,6.859037280082702637e-01,6.858797669410705566e-01,6.858558654785156250e-01,6.858319044113159180e-01,6.858080029487609863e-01,6.857840418815612793e-01,6.857601404190063477e-01,6.857361793518066406e-01,6.857123374938964844e-01,6.856883764266967773e-01,6.856644749641418457e-01,6.856405138969421387e-01,6.856166720390319824e-01,6.855927109718322754e-01,6.855688095092773438e-01,6.855448484420776367e-01,6.855210065841674805e-01,6.854971051216125488e-01,6.854731440544128418e-01,6.854493021965026855e-01,6.854254007339477539e-01,6.854014992713928223e-01,6.853775382041931152e-01,6.853536963462829590e-01,6.853297948837280273e-01,6.853058934211730957e-01,6.852819919586181641e-01,6.852581501007080078e-01,6.852342486381530762e-01,6.852103471755981445e-01,6.851864457130432129e-01,6.851626038551330566e-01,6.851387023925781250e-01,6.851148009300231934e-01,6.850908994674682617e-01,6.850670576095581055e-01,6.850432157516479492e-01,6.850193142890930176e-01
6.599152088165283203e-01,6.598930358886718750e-01,6.598709225654602051e-01,6.598488092422485352e-01,6.598266363143920898e-01,6.598044633865356445e-01,6.597823500633239746e-01,6.597601771354675293e-01,6.597380638122558594e-01,6.597158908843994141e-01,6.596937775611877441e-01,6.596716642379760742e-01,6.596494913101196289e-01,6.596273183822631836e-01,6.596052646636962891e-01,6.595830917358398438e-01,6.595609784126281738e-01,6.595388054847717285e-01,6.595167517662048340e-01,6.594945788383483887e-01,6.594724655151367188e-01,6.594503521919250488e-01,6.594282388687133789e-01,6.594060659408569336e-01,6.593839526176452637e-01,6.593618988990783691e-01,6.593397259712219238e-01,6.593176126480102539e-01,6.592954993247985840e-01,6.592734456062316895e-01,6.592512726783752441e-01,6.592291593551635742e-01,6.592070460319519043e-01,6.591849923133850098e-01,6.591628789901733398e-01,6.591407656669616699e-01,6.591186523437500000e-01,6.590965986251831055e-01,6.590744853019714355e-01,6.590523719787597656e-01,6.590302586555480957e-01,6.590082049369812012e-01,6.589860916137695312e-01,6.589639782905578613e-01,6.589418649673461914e-01,6.589198112487792969e-01,6.588977575302124023e-01,6.588756442070007324e-01,6.588535904884338379e-01,6.588314771652221680e-01,6.588094234466552734e-01,6.587873101234436035e-01,6.587652564048767090e-01,6.587432026863098145e-01,6.587210893630981445e-01,6.586990356445312500e-01,6.586769819259643555e-01,6.586548686027526855e-01,6.586328148841857910e-01,6.586107015609741211e-01,6.585887074470520020e-01,6.585665941238403320e-01,6.585445404052734375e-01,6.585224866867065430e-01,6.585004329681396484e-01,6.584783792495727539e-01,6.584563255310058594e-01,6.584342122077941895e-01,6.584122180938720703e-01,6.583901643753051758e-01,6.583681106567382812e-01,6.583460569381713867e-01,6.583240032196044922e-01,6.583019495010375977e-01,6.582798957824707031e-01,6.582579016685485840e-01,6.582358479499816895e-01,6.582137942314147949e-01,6.581917405128479004e-01,6.581697463989257812e-01
6.349616050720214844e-01,6.349411606788635254e-01,6.349205970764160156e-01,6.349000930786132812e-01,6.348795890808105469e-01,6.348590850830078125e-01,6.348385810852050781e-01,6.348180770874023438e-01,6.347976326942443848e-01,6.347771286964416504e-01,6.347565650939941406e-01,6.347360610961914062e-01,6.347156167030334473e-01,6.346951127052307129e-01,6.346746087074279785e-01,6.346541047096252441e-01,6.346336603164672852e-01,6.346131563186645508e-01,6.345926523208618164e-01,6.345721483230590820e-01,6.345517039299011230e-01,6.345311999320983887e-01,6.345106959342956543e-01,6.344902515411376953e-01,6.344698071479797363e-01,6.344493031501770020e-01,6.344287991523742676e-01,6.344082951545715332e-01,6.343878507614135742e-01,6.343674063682556152e-01,6.343469023704528809e-01,6.343263983726501465e-01,6.343060135841369629e-01,6.342855095863342285e-01,6.342650651931762695e-01,6.342446208000183105e-01,6.342241168022155762e-01,6.342036724090576172e-01,6.341831684112548828e-01,6.341627836227416992e-01,6.341422796249389648e-01,6.341218352317810059e-01,6.341013312339782715e-01,6.340809464454650879e-01,6.340604424476623535e-01,6.340399980545043945e-01,6.340195536613464355e-01,6.339991092681884766e-01,6.339786648750305176e-01,6.339582204818725586e-01,6.339377760887145996e-01,6.339173316955566406e-01,6.338968873023986816e-01,6.338764429092407227e-01,6.338559985160827637e-01,6.338356137275695801e-01,6.338151693344116211e-01,6.337946653366088867e-01,6.337742209434509277e-01,6.337538361549377441e-01,6.337333917617797852e-01,6.337129473686218262e-01,6.336925625801086426e-01,6.336721181869506836e-01,6.336516737937927246e-01,6.336312294006347656e-01,6.336108446121215820e-01,6.335904002189636230e-01,6.335700154304504395e-01,6.335495710372924805e-01,6.335291862487792969e-01,6.335087418556213379e-01,6.334882974624633789e-01,6.334679126739501953e-01,6.334475278854370117e-01,6.334270834922790527e-01,6.334066390991210938e-01,6.333862543106079102e-01,6.333658695220947266e-01,6.333454251289367676e-01
