3.099994421005249023e+00,3.178394079208374023e+00,3.260861873626708984e+00,3.347723245620727539e+00,3.439338922500610352e+00,3.536110162734985352e+00,3.638484477996826172e+00,3.746963024139404297e+00,3.862108945846557617e+00,3.984556436538696289e+00,4.115022182464599609e+00,4.254321098327636719e+00,4.403381347656250000e+00,4.563266277313232422e+00,4.735198974609375000e+00,5.000000000000000000e+00,5.000000000000000000e+00,5.000000000000000000e+00,5.000000000000000000e+00,5.000000000000000000e+00,5.000000000000000000e+00,5.000000000000000000e+00,5.000000000000000000e+00,5.000000000000000000e+00,5.000000000000000000e+00,5.000000000000000000e+00,5.000000000000000000e+00,5.000000000000000000e+00,5.000000000000000000e+00,5.000000000000000000e+00,5.000000000000000000e+00,5.000000000000000000e+00,5.000000000000000000e+00,5.000000000000000000e+00,5.000000000000000000e+00,5.000000000000000000e+00,5.000000000000000000e+00,5.000000000000000000e+00,2.254413366317749023e+00,2.100317955017089844e+00,2.060233354568481445e+00,2.035100460052490234e+00,2.009690046310424805e+00,1.997853875160217285e+00,1.997245550155639648e+00,2.006791830062866211e+00,1.973590612411499023e+00,1.948824763298034668e+00,1.941378712654113770e+00,1.961231350898742676e+00,5.000000000000000000e+00,5.000000000000000000e+00,5.000000000000000000e+00,5.000000000000000000e+00,5.000000000000000000e+00,5.000000000000000000e+00,5.000000000000000000e+00,5.000000000000000000e+00,5.000000000000000000e+00,5.000000000000000000e+00,5.000000000000000000e+00,5.000000000000000000e+00,5.000000000000000000e+00,5.000000000000000000e+00,5.000000000000000000e+00,5.000000000000000000e+00,5.000000000000000000e+00,5.000000000000000000e+00,5.000000000000000000e+00,5.000000000000000000e+00,5.000000000000000000e+00,4.690157413482666016e+00,4.541143417358398438e+00,4.401306629180908203e+00,4.269818305969238281e+00,4.145913600921630859e+00,4.028997898101806641e+00,3.918495178222656250e+00,3.813892602920532227e+00,3.714728832244873047e+00
3.099931240081787109e+00,3.178330421447753906e+00,3.260795116424560547e+00,3.347652912139892578e+00,3.439264535903930664e+00,3.536031484603881836e+00,3.638400793075561523e+00,3.746874570846557617e+00,3.862015247344970703e+00,3.984456539154052734e+00,4.114915847778320312e+00,4.254207134246826172e+00,4.403259277343750000e+00,4.563135147094726562e+00,4.735057830810546875e+00,4.920442581176757812e+00,5.000000000000000000e+00,5.000000000000000000e+00,5.000000000000000000e+00,5.000000000000000000e+00,5.000000000000000000e+00,5.000000000000000000e+00,5.000000000000000000e+00,5.000000000000000000e+00,5.000000000000000000e+00,5.000000000000000000e+00,5.000000000000000000e+00,5.000000000000000000e+00,5.000000000000000000e+00,5.000000000000000000e+00,5.000000000000000000e+00,5.000000000000000000e+00,5.000000000000000000e+00,5.000000000000000000e+00,5.000000000000000000e+00,5.000000000000000000e+00,5.000000000000000000e+00,5.000000000000000000e+00,2.258186578750610352e+00,2.103707075119018555e+00,2.065179586410522461e+00,2.024245738983154297e+00,2.013556718826293945e+00,2.009341955184936523e+00,1.998565912246704102e+00,2.016549587249755859e+00,1.964991569519042969e+00,1.946369886398315430e+00,1.938359498977661133e+00,1.954357147216796875e+00,5.000000000000000000e+00,5.000000000000000000e+00,5.000000000000000000e+00,5.000000000000000000e+00,5.000000000000000000e+00,5.000000000000000000e+00,5.000000000000000000e+00,5.000000000000000000e+00,5.000000000000000000e+00,5.000000000000000000e+00,5.000000000000000000e+00,5.000000000000000000e+00,5.000000000000000000e+00,5.000000000000000000e+00,5.000000000000000000e+00,5.000000000000000000e+00,5.000000000000000000e+00,5.000000000000000000e+00,5.000000000000000000e+00,5.000000000000000000e+00,4.849503040313720703e+00,4.690363407135009766e+00,4.541337013244628906e+00,4.401473999023437500e+00,4.269928932189941406e+00,4.146018028259277344e+00,4.029096126556396484e+00,3.918588161468505859e+00,3.813980579376220703e+00,3.714812278747558594e+00
3.099865198135375977e+00,3.178263902664184570e+00,3.260728120803833008e+00,3.347582340240478516e+00,3.439189910888671875e+00,3.535952329635620117e+00,3.638317584991455078e+00,3.746786355972290039e+00,3.861921548843383789e+00,3.984356641769409180e+00,4.114809036254882812e+00,4.254093647003173828e+00,4.403137207031250000e+00,4.563004016876220703e+00,4.734916687011718750e+00,4.920290470123291016e+00,5.000000000000000000e+00,5.000000000000000000e+00,5.000000000000000000e+00,5.000000000000000000e+00,5.000000000000000000e+00,5.000000000000000000e+00,5.000000000000000000e+00,5.000000000000000000e+00,5.000000000000000000e+00,5.000000000000000000e+00,5.000000000000000000e+00,5.000000000000000000e+00,5.000000000000000000e+00,5.000000000000000000e+00,5.000000000000000000e+00,5.000000000000000000e+00,5.000000000000000000e+00,5.000000000000000000e+00,5.000000000000000000e+00,5.000000000000000000e+00,5.000000000000000000e+00,5.000000000000000000e+00,2.267729520797729492e+00,2.122329235076904297e+00,2.054874420166015625e+00,2.023337841033935547e+00,2.009695768356323242e+00,2.005144834518432617e+00,2.002741813659667969e+00,2.022219896316528320e+00,1.984114527702331543e+00,1.946167111396789551e+00,1.937704443931579590e+00,1.953189253807067871e+00,5.000000000000000000e+00,5.000000000000000000e+00,5.000000000000000000e+00,5.000000000000000000e+00,5.000000000000000000e+00,5.000000000000000000e+00,5.000000000000000000e+00,5.000000000000000000e+00,5.000000000000000000e+00,5.000000000000000000e+00,5.000000000000000000e+00,5.000000000000000000e+00,5.000000000000000000e+00,5.000000000000000000e+00,5.000000000000000000e+00,5.000000000000000000e+00,5.000000000000000000e+00,5.000000000000000000e+00,5.000000000000000000e+00,5.000000000000000000e+00,4.849723815917968750e+00,4.690569877624511719e+00,4.541506767272949219e+00,4.401591300964355469e+00,4.270039081573486328e+00,4.146121978759765625e+00,4.029194355010986328e+00,3.918681621551513672e+00,3.814068555831909180e+00,3.714896202087402344e+00
3.099799156188964844e+00,3.178194761276245117e+00,3.260658264160156250e+00,3.347511529922485352e+00,3.439115524291992188e+00,3.535873889923095703e+00,3.638234376907348633e+00,3.746698141098022461e+00,3.861827611923217773e+00,3.984256982803344727e+00,4.114702701568603516e+00,4.253979206085205078e+00,4.403015136718750000e+00,4.562872886657714844e+00,4.734775543212890625e+00,4.920137882232666016e+00,5.000000000000000000e+00,5.000000000000000000e+00,5.000000000000000000e+00,5.000000000000000000e+00,5.000000000000000000e+00,5.000000000000000000e+00,5.000000000000000000e+00,5.000000000000000000e+00,5.000000000000000000e+00,5.000000000000000000e+00,5.000000000000000000e+00,5.000000000000000000e+00,5.000000000000000000e+00,5.000000000000000000e+00,5.000000000000000000e+00,5.000000000000000000e+00,5.000000000000000000e+00,5.000000000000000000e+00,5.000000000000000000e+00,5.000000000000000000e+00,5.000000000000000000e+00,5.000000000000000000e+00,5.000000000000000000e+00,2.116058349609375000e+00,2.053460597991943359e+00,2.024278640747070312e+00,2.008915901184082031e+00,2.003296375274658203e+00,2.010997295379638672e+00,2.026715278625488281e+00,2.061070442199707031e+00,1.949313640594482422e+00,1.935719251632690430e+00,1.950366377830505371e+00,5.000000000000000000e+00,5.000000000000000000e+00,5.000000000000000000e+00,5.000000000000000000e+00,5.000000000000000000e+00,5.000000000000000000e+00,5.000000000000000000e+00,5.000000000000000000e+00,5.000000000000000000e+00,5.000000000000000000e+00,5.000000000000000000e+00,5.000000000000000000e+00,5.000000000000000000e+00,5.000000000000000000e+00,5.000000000000000000e+00,5.000000000000000000e+00,5.000000000000000000e+00,5.000000000000000000e+00,5.000000000000000000e+00,5.000000000000000000e+00,4.849944591522216797e+00,4.690742969512939453e+00,4.541631698608398438e+00,4.401708602905273438e+00,4.270149707794189453e+00,4.146226406097412109e+00,4.029293060302734375e+00,3.918774366378784180e+00,3.814156532287597656e+00,3.714979648590087891e+00
3.099733352661132812e+00,3.178125143051147461e+00,3.260585069656372070e+00,3.347438097000122070e+00,3.439041137695312500e+00,3.535795211791992188e+00,3.638151168823242188e+00,3.746609926223754883e+00,3.861733913421630859e+00,3.984157085418701172e+00,4.114595890045166016e+00,4.253865718841552734e+00,4.402893066406250000e+00,4.562742233276367188e+00,4.734634399414062500e+00,4.919985771179199219e+00,5.000000000000000000e+00,5.000000000000000000e+00,5.000000000000000000e+00,5.000000000000000000e+00,5.000000000000000000e+00,5.000000000000000000e+00,5.000000000000000000e+00,5.000000000000000000e+00,5.000000000000000000e+00,5.000000000000000000e+00,5.000000000000000000e+00,5.000000000000000000e+00,5.000000000000000000e+00,5.000000000000000000e+00,5.000000000000000000e+00,5.000000000000000000e+00,5.000000000000000000e+00,5.000000000000000000e+00,5.000000000000000000e+00,5.000000000000000000e+00,5.000000000000000000e+00,5.000000000000000000e+00,5.000000000000000000e+00,2.105904579162597656e+00,2.055922985076904297e+00,2.028337240219116211e+00,2.011745691299438477e+00,2.004312038421630859e+00,2.015101671218872070e+00,2.031247377395629883e+00,2.067690134048461914e+00,1.957565903663635254e+00,1.926013350486755371e+00,1.944018602371215820e+00,5.000000000000000000e+00,5.000000000000000000e+00,5.000000000000000000e+00,5.000000000000000000e+00,5.000000000000000000e+00,5.000000000000000000e+00,5.000000000000000000e+00,5.000000000000000000e+00,5.000000000000000000e+00,5.000000000000000000e+00,5.000000000000000000e+00,5.000000000000000000e+00,5.000000000000000000e+00,5.000000000000000000e+00,5.000000000000000000e+00,5.000000000000000000e+00,5.000000000000000000e+00,5.000000000000000000e+00,5.000000000000000000e+00,5.000000000000000000e+00,4.850120544433593750e+00,4.690876483917236328e+00,4.541757106781005859e+00,4.401825904846191406e+00,4.270259857177734375e+00,4.146330356597900391e+00,4.029391288757324219e+00,3.918867349624633789e+00,3.814244985580444336e+00,3.715063095092773438e+00
3.099667072296142578e+00,3.178056001663208008e+00,3.260512113571166992e+00,3.347361087799072266e+00,3.438963651657104492e+00,3.535716533660888672e+00,3.638067960739135742e+00,3.746521472930908203e+00,3.861639738082885742e+00,3.984056711196899414e+00,4.114489555358886719e+00,4.253751754760742188e+00,4.402770996093750000e+00,4.562610626220703125e+00,4.734493255615234375e+00,4.919833183288574219e+00,5.000000000000000000e+00,5.000000000000000000e+00,5.000000000000000000e+00,5.000000000000000000e+00,5.000000000000000000e+00,5.000000000000000000e+00,5.000000000000000000e+00,5.000000000000000000e+00,5.000000000000000000e+00,5.000000000000000000e+00,5.000000000000000000e+00,5.000000000000000000e+00,5.000000000000000000e+00,5.000000000000000000e+00,5.000000000000000000e+00,5.000000000000000000e+00,5.000000000000000000e+00,5.000000000000000000e+00,5.000000000000000000e+00,5.000000000000000000e+00,5.000000000000000000e+00,5.000000000000000000e+00,5.000000000000000000e+00,2.108870029449462891e+00,2.062223434448242188e+00,2.020279884338378906e+00,2.000446081161499023e+00,1.995784759521484375e+00,2.005964040756225586e+00,2.020366430282592773e+00,2.082254409790039062e+00,1.919737935066223145e+00,1.904712438583374023e+00,1.935253262519836426e+00,5.000000000000000000e+00,5.000000000000000000e+00,5.000000000000000000e+00,5.000000000000000000e+00,5.000000000000000000e+00,5.000000000000000000e+00,5.000000000000000000e+00,5.000000000000000000e+00,5.000000000000000000e+00,5.000000000000000000e+00,5.000000000000000000e+00,5.000000000000000000e+00,5.000000000000000000e+00,5.000000000000000000e+00,5.000000000000000000e+00,5.000000000000000000e+00,5.000000000000000000e+00,5.000000000000000000e+00,5.000000000000000000e+00,5.000000000000000000e+00,4.850262641906738281e+00,4.691009521484375000e+00,4.541882038116455078e+00,4.401943206787109375e+00,4.270370483398437500e+00,4.146434783935546875e+00,4.029489517211914062e+00,3.918960332870483398e+00,3.814333200454711914e+00,3.715146541595458984e+00
3.099601268768310547e+00,3.177986383438110352e+00,3.260439157485961914e+00,3.347284078598022461e+00,3.438882112503051758e+00,3.535634517669677734e+00,3.637984752655029297e+00,3.746432781219482422e+00,3.861545801162719727e+00,3.983957052230834961e+00,4.114383220672607422e+00,4.253637790679931641e+00,4.402649402618408203e+00,4.562479972839355469e+00,4.734352588653564453e+00,4.919680595397949219e+00,5.000000000000000000e+00,5.000000000000000000e+00,5.000000000000000000e+00,5.000000000000000000e+00,5.000000000000000000e+00,5.000000000000000000e+00,5.000000000000000000e+00,5.000000000000000000e+00,5.000000000000000000e+00,5.000000000000000000e+00,5.000000000000000000e+00,5.000000000000000000e+00,5.000000000000000000e+00,5.000000000000000000e+00,5.000000000000000000e+00,5.000000000000000000e+00,5.000000000000000000e+00,5.000000000000000000e+00,5.000000000000000000e+00,5.000000000000000000e+00,5.000000000000000000e+00,5.000000000000000000e+00,5.000000000000000000e+00,2.087125539779663086e+00,2.050665855407714844e+00,2.014564037322998047e+00,2.001832485198974609e+00,2.001220464706420898e+00,2.001129150390625000e+00,2.015072584152221680e+00,2.043713569641113281e+00,1.894643783569335938e+00,1.889884591102600098e+00,1.946619510650634766e+00,5.000000000000000000e+00,5.000000000000000000e+00,5.000000000000000000e+00,5.000000000000000000e+00,5.000000000000000000e+00,5.000000000000000000e+00,5.000000000000000000e+00,5.000000000000000000e+00,5.000000000000000000e+00,5.000000000000000000e+00,5.000000000000000000e+00,5.000000000000000000e+00,5.000000000000000000e+00,5.000000000000000000e+00,5.000000000000000000e+00,5.000000000000000000e+00,5.000000000000000000e+00,5.000000000000000000e+00,5.000000000000000000e+00,5.000000000000000000e+00,4.850405216217041016e+00,4.691143035888671875e+00,4.542006969451904297e+00,4.402060985565185547e+00,4.270480632781982422e+00,4.146538734436035156e+00,4.029587745666503906e+00,3.919053554534912109e+00,3.814421176910400391e+00,3.715230464935302734e+00
3.099534988403320312e+00,3.177917242050170898e+00,3.260365962982177734e+00,3.347207069396972656e+00,3.438801050186157227e+00,3.535548448562622070e+00,3.637897968292236328e+00,3.746344566345214844e+00,3.861452102661132812e+00,3.983857154846191406e+00,4.114276409149169922e+00,4.253523826599121094e+00,4.402527332305908203e+00,4.562348842620849609e+00,4.734211444854736328e+00,4.919528484344482422e+00,5.000000000000000000e+00,5.000000000000000000e+00,5.000000000000000000e+00,5.000000000000000000e+00,5.000000000000000000e+00,5.000000000000000000e+00,5.000000000000000000e+00,5.000000000000000000e+00,5.000000000000000000e+00,5.000000000000000000e+00,5.000000000000000000e+00,5.000000000000000000e+00,5.000000000000000000e+00,5.000000000000000000e+00,5.000000000000000000e+00,5.000000000000000000e+00,5.000000000000000000e+00,5.000000000000000000e+00,5.000000000000000000e+00,5.000000000000000000e+00,5.000000000000000000e+00,5.000000000000000000e+00,5.000000000000000000e+00,2.080376386642456055e+00,2.046817302703857422e+00,2.025049448013305664e+00,2.005029201507568359e+00,2.000046968460083008e+00,1.995881319046020508e+00,2.013299226760864258e+00,2.051868438720703125e+00,1.872619509696960449e+00,1.877695560455322266e+00,5.000000000000000000e+00,5.000000000000000000e+00,5.000000000000000000e+00,5.000000000000000000e+00,5.000000000000000000e+00,5.000000000000000000e+00,5.000000000000000000e+00,5.000000000000000000e+00,5.000000000000000000e+00,5.000000000000000000e+00,5.000000000000000000e+00,5.000000000000000000e+00,5.000000000000000000e+00,5.000000000000000000e+00,5.000000000000000000e+00,5.000000000000000000e+00,5.000000000000000000e+00,5.000000000000000000e+00,5.000000000000000000e+00,5.000000000000000000e+00,5.000000000000000000e+00,4.850547790527343750e+00,4.691276073455810547e+00,4.542131900787353516e+00,4.402178287506103516e+00,4.270591259002685547e+00,4.146642684936523438e+00,4.029686450958251953e+00,3.919145584106445312e+00,3.814506053924560547e+00,3.715308189392089844e+00
3.099469184875488281e+00,3.177847623825073242e+00,3.260293245315551758e+00,3.347130298614501953e+00,3.438719749450683594e+00,3.535462856292724609e+00,3.637806892395019531e+00,3.746252536773681641e+00,3.861358404159545898e+00,3.983757257461547852e+00,4.114170074462890625e+00,4.253410339355468750e+00,4.402405261993408203e+00,4.562217712402343750e+00,4.734070301055908203e+00,4.919376373291015625e+00,5.000000000000000000e+00,5.000000000000000000e+00,5.000000000000000000e+00,5.000000000000000000e+00,5.000000000000000000e+00,5.000000000000000000e+00,5.000000000000000000e+00,5.000000000000000000e+00,5.000000000000000000e+00,5.000000000000000000e+00,5.000000000000000000e+00,5.000000000000000000e+00,5.000000000000000000e+00,5.000000000000000000e+00,5.000000000000000000e+00,5.000000000000000000e+00,5.000000000000000000e+00,5.000000000000000000e+00,5.000000000000000000e+00,5.000000000000000000e+00,5.000000000000000000e+00,5.000000000000000000e+00,5.000000000000000000e+00,2.103815555572509766e+00,2.052797079086303711e+00,2.026582479476928711e+00,2.008136987686157227e+00,1.997373104095458984e+00,1.990967988967895508e+00,2.002363920211791992e+00,1.876970291137695312e+00,1.856640934944152832e+00,1.866082549095153809e+00,5.000000000000000000e+00,5.000000000000000000e+00,5.000000000000000000e+00,5.000000000000000000e+00,5.000000000000000000e+00,5.000000000000000000e+00,5.000000000000000000e+00,5.000000000000000000e+00,5.000000000000000000e+00,5.000000000000000000e+00,5.000000000000000000e+00,5.000000000000000000e+00,5.000000000000000000e+00,5.000000000000000000e+00,5.000000000000000000e+00,5.000000000000000000e+00,5.000000000000000000e+00,5.000000000000000000e+00,5.000000000000000000e+00,5.000000000000000000e+00,5.000000000000000000e+00,4.850690364837646484e+00,4.691409587860107422e+00,4.542256832122802734e+00,4.402295589447021484e+00,4.270701885223388672e+00,4.146743774414062500e+00,4.029778957366943359e+00,3.919231176376342773e+00,3.814586877822875977e+00,3.715385198593139648e+00
3.099403142929077148e+00,3.177778482437133789e+00,3.260220050811767578e+00,3.347053527832031250e+00,3.438638687133789062e+00,3.535376787185668945e+00,3.637716054916381836e+00,3.746156454086303711e+00,3.861260652542114258e+00,3.983657598495483398e+00,4.114063739776611328e+00,4.253296375274658203e+00,4.402283191680908203e+00,4.562087059020996094e+00,4.733929157257080078e+00,4.919223785400390625e+00,5.000000000000000000e+00,5.000000000000000000e+00,5.000000000000000000e+00,5.000000000000000000e+00,5.000000000000000000e+00,5.000000000000000000e+00,5.000000000000000000e+00,5.000000000000000000e+00,5.000000000000000000e+00,5.000000000000000000e+00,5.000000000000000000e+00,5.000000000000000000e+00,5.000000000000000000e+00,5.000000000000000000e+00,5.000000000000000000e+00,5.000000000000000000e+00,5.000000000000000000e+00,5.000000000000000000e+00,5.000000000000000000e+00,5.000000000000000000e+00,5.000000000000000000e+00,5.000000000000000000e+00,5.000000000000000000e+00,2.121103048324584961e+00,2.069930315017700195e+00,2.041290760040283203e+00,2.020156860351562500e+00,1.994453430175781250e+00,1.986924767494201660e+00,1.996460199356079102e+00,1.885561347007751465e+00,1.850192308425903320e+00,1.862332940101623535e+00,5.000000000000000000e+00,5.000000000000000000e+00,5.000000000000000000e+00,5.000000000000000000e+00,5.000000000000000000e+00,5.000000000000000000e+00,5.000000000000000000e+00,5.000000000000000000e+00,5.000000000000000000e+00,5.000000000000000000e+00,5.000000000000000000e+00,5.000000000000000000e+00,5.000000000000000000e+00,5.000000000000000000e+00,5.000000000000000000e+00,5.000000000000000000e+00,5.000000000000000000e+00,5.000000000000000000e+00,5.000000000000000000e+00,5.000000000000000000e+00,5.000000000000000000e+00,4.850832939147949219e+00,4.691542625427246094e+00,4.542378902435302734e+00,4.402406692504882812e+00,4.270803451538085938e+00,4.146839618682861328e+00,4.029869079589843750e+00,3.919316768646240234e+00,3.814667940139770508e+00,3.715462207794189453e+00
3.099337339401245117e+00,3.177708864212036133e+00,3.260147094726562500e+00,3.346976280212402344e+00,3.438557386398315430e+00,3.535291194915771484e+00,3.637624979019165039e+00,3.746060132980346680e+00,3.861158370971679688e+00,3.983553647994995117e+00,4.113956928253173828e+00,4.253182411193847656e+00,4.402161598205566406e+00,4.561955928802490234e+00,4.733788013458251953e+00,4.919071674346923828e+00,5.000000000000000000e+00,5.000000000000000000e+00,5.000000000000000000e+00,5.000000000000000000e+00,5.000000000000000000e+00,5.000000000000000000e+00,5.000000000000000000e+00,5.000000000000000000e+00,5.000000000000000000e+00,5.000000000000000000e+00,5.000000000000000000e+00,5.000000000000000000e+00,5.000000000000000000e+00,5.000000000000000000e+00,5.000000000000000000e+00,5.000000000000000000e+00,5.000000000000000000e+00,5.000000000000000000e+00,5.000000000000000000e+00,5.000000000000000000e+00,5.000000000000000000e+00,5.000000000000000000e+00,5.000000000000000000e+00,2.100020647048950195e+00,2.094030380249023438e+00,2.052595376968383789e+00,2.030670642852783203e+00,1.990586519241333008e+00,1.980278849601745605e+00,1.991537928581237793e+00,1.831932783126831055e+00,1.831496238708496094e+00,5.000000000000000000e+00,5.000000000000000000e+00,5.000000000000000000e+00,5.000000000000000000e+00,5.000000000000000000e+00,5.000000000000000000e+00,5.000000000000000000e+00,5.000000000000000000e+00,5.000000000000000000e+00,5.000000000000000000e+00,5.000000000000000000e+00,5.000000000000000000e+00,5.000000000000000000e+00,5.000000000000000000e+00,5.000000000000000000e+00,5.000000000000000000e+00,5.000000000000000000e+00,5.000000000000000000e+00,5.000000000000000000e+00,5.000000000000000000e+00,5.000000000000000000e+00,5.000000000000000000e+00,4.850969314575195312e+00,4.691666603088378906e+00,4.542493820190429688e+00,4.402514457702636719e+00,4.270905017852783203e+00,4.146935462951660156e+00,4.029959678649902344e+00,3.919402122497558594e+00,3.814749002456665039e+00,3.715538740158081055e+00
3.099271059036254883e+00,3.177639722824096680e+00,3.260073900222778320e+00,3.346899509429931641e+00,3.438476324081420898e+00,3.535205125808715820e+00,3.637534379959106445e+00,3.745963573455810547e+00,3.861055850982666016e+00,3.983444690704345703e+00,4.113846302032470703e+00,4.253068447113037109e+00,4.402039051055908203e+00,4.561824798583984375e+00,4.733647346496582031e+00,4.918919563293457031e+00,5.000000000000000000e+00,5.000000000000000000e+00,5.000000000000000000e+00,5.000000000000000000e+00,5.000000000000000000e+00,5.000000000000000000e+00,5.000000000000000000e+00,5.000000000000000000e+00,5.000000000000000000e+00,5.000000000000000000e+00,5.000000000000000000e+00,5.000000000000000000e+00,5.000000000000000000e+00,5.000000000000000000e+00,5.000000000000000000e+00,5.000000000000000000e+00,5.000000000000000000e+00,5.000000000000000000e+00,5.000000000000000000e+00,5.000000000000000000e+00,5.000000000000000000e+00,5.000000000000000000e+00,2.057341337203979492e+00,2.042516231536865234e+00,2.058645009994506836e+00,2.081366539001464844e+00,2.011846065521240234e+00,1.983427166938781738e+00,1.972857594490051270e+00,1.844632983207702637e+00,1.810609340667724609e+00,1.814602494239807129e+00,1.841520190238952637e+00,5.000000000000000000e+00,5.000000000000000000e+00,5.000000000000000000e+00,5.000000000000000000e+00,5.000000000000000000e+00,5.000000000000000000e+00,5.000000000000000000e+00,5.000000000000000000e+00,5.000000000000000000e+00,5.000000000000000000e+00,5.000000000000000000e+00,5.000000000000000000e+00,5.000000000000000000e+00,5.000000000000000000e+00,5.000000000000000000e+00,5.000000000000000000e+00,5.000000000000000000e+00,5.000000000000000000e+00,5.000000000000000000e+00,5.000000000000000000e+00,5.000000000000000000e+00,4.851099967956542969e+00,4.691788673400878906e+00,4.542608737945556641e+00,4.402622699737548828e+00,4.271006107330322266e+00,4.147030830383300781e+00,4.030049800872802734e+00,3.919487714767456055e+00,3.814829587936401367e+00,3.715615510940551758e+00
3.099205255508422852e+00,3.177570104598999023e+00,3.260001182556152344e+00,3.346822500228881836e+00,3.438395261764526367e+00,3.535119533538818359e+00,3.637443304061889648e+00,3.745867490768432617e+00,3.860953569412231445e+00,3.983335494995117188e+00,4.113729953765869141e+00,4.252950668334960938e+00,4.401917457580566406e+00,4.561694145202636719e+00,4.733506202697753906e+00,4.918766975402832031e+00,5.000000000000000000e+00,5.000000000000000000e+00,5.000000000000000000e+00,5.000000000000000000e+00,5.000000000000000000e+00,5.000000000000000000e+00,5.000000000000000000e+00,5.000000000000000000e+00,5.000000000000000000e+00,5.000000000000000000e+00,5.000000000000000000e+00,5.000000000000000000e+00,5.000000000000000000e+00,5.000000000000000000e+00,5.000000000000000000e+00,5.000000000000000000e+00,5.000000000000000000e+00,5.000000000000000000e+00,5.000000000000000000e+00,5.000000000000000000e+00,5.000000000000000000e+00,2.050655364990234375e+00,2.035925865173339844e+00,2.034564495086669922e+00,2.050938367843627930e+00,2.069703817367553711e+00,1.991487860679626465e+00,1.981317400932312012e+00,1.973741888999938965e+00,1.837158441543579102e+00,2.021382808685302734e+00,1.807237505912780762e+00,1.826057434082031250e+00,5.000000000000000000e+00,5.000000000000000000e+00,5.000000000000000000e+00,5.000000000000000000e+00,5.000000000000000000e+00,5.000000000000000000e+00,5.000000000000000000e+00,5.000000000000000000e+00,5.000000000000000000e+00,5.000000000000000000e+00,5.000000000000000000e+00,5.000000000000000000e+00,5.000000000000000000e+00,5.000000000000000000e+00,5.000000000000000000e+00,5.000000000000000000e+00,5.000000000000000000e+00,5.000000000000000000e+00,5.000000000000000000e+00,5.000000000000000000e+00,5.000000000000000000e+00,4.851231098175048828e+00,4.691911220550537109e+00,4.542723178863525391e+00,4.402730464935302734e+00,4.271107673645019531e+00,4.147126674652099609e+00,4.030139923095703125e+00,3.919573307037353516e+00,3.814910650253295898e+00,3.715692520141601562e+00
3.099139451980590820e+00,3.177500963211059570e+00,3.259927988052368164e+00,3.346745729446411133e+00,3.438313722610473633e+00,3.535033464431762695e+00,3.637352466583251953e+00,3.745770692825317383e+00,3.860851287841796875e+00,3.983226776123046875e+00,4.113614082336425781e+00,4.252826213836669922e+00,4.401791095733642578e+00,4.561563014984130859e+00,4.733365058898925781e+00,4.918614864349365234e+00,5.000000000000000000e+00,5.000000000000000000e+00,5.000000000000000000e+00,5.000000000000000000e+00,5.000000000000000000e+00,5.000000000000000000e+00,5.000000000000000000e+00,5.000000000000000000e+00,5.000000000000000000e+00,5.000000000000000000e+00,5.000000000000000000e+00,5.000000000000000000e+00,5.000000000000000000e+00,5.000000000000000000e+00,5.000000000000000000e+00,5.000000000000000000e+00,5.000000000000000000e+00,5.000000000000000000e+00,5.000000000000000000e+00,5.000000000000000000e+00,5.000000000000000000e+00,2.033283233642578125e+00,2.016724348068237305e+00,2.029999494552612305e+00,2.047348499298095703e+00,2.080929040908813477e+00,1.989851236343383789e+00,1.982709646224975586e+00,1.975664854049682617e+00,1.776771068572998047e+00,1.778947234153747559e+00,1.790083527565002441e+00,5.000000000000000000e+00,5.000000000000000000e+00,5.000000000000000000e+00,5.000000000000000000e+00,5.000000000000000000e+00,5.000000000000000000e+00,5.000000000000000000e+00,5.000000000000000000e+00,5.000000000000000000e+00,5.000000000000000000e+00,5.000000000000000000e+00,5.000000000000000000e+00,5.000000000000000000e+00,5.000000000000000000e+00,5.000000000000000000e+00,5.000000000000000000e+00,5.000000000000000000e+00,5.000000000000000000e+00,5.000000000000000000e+00,5.000000000000000000e+00,5.000000000000000000e+00,5.000000000000000000e+00,4.851361751556396484e+00,4.692033767700195312e+00,4.542838096618652344e+00,4.402838230133056641e+00,4.271209239959716797e+00,4.147222518920898438e+00,4.030230522155761719e+00,3.919658422470092773e+00,3.814991950988769531e+00,3.715769052505493164e+00
3.099073410034179688e+00,3.177431344985961914e+00,3.259855031967163086e+00,3.346668481826782227e+00,3.438232660293579102e+00,3.534947872161865234e+00,3.637261390686035156e+00,3.745674610137939453e+00,3.860748767852783203e+00,3.983117580413818359e+00,4.113497734069824219e+00,4.252702236175537109e+00,4.401658058166503906e+00,4.561427593231201172e+00,4.733224391937255859e+00,4.918462753295898438e+00,5.000000000000000000e+00,5.000000000000000000e+00,5.000000000000000000e+00,5.000000000000000000e+00,5.000000000000000000e+00,5.000000000000000000e+00,5.000000000000000000e+00,5.000000000000000000e+00,5.000000000000000000e+00,5.000000000000000000e+00,5.000000000000000000e+00,5.000000000000000000e+00,5.000000000000000000e+00,5.000000000000000000e+00,5.000000000000000000e+00,5.000000000000000000e+00,5.000000000000000000e+00,5.000000000000000000e+00,5.000000000000000000e+00,5.000000000000000000e+00,5.000000000000000000e+00,2.013530731201171875e+00,2.007526874542236328e+00,2.025282144546508789e+00,2.047962903976440430e+00,2.086223363876342773e+00,1.995575070381164551e+00,1.985960841178894043e+00,1.979479670524597168e+00,1.994183659553527832e+00,2.037699937820434570e+00,5.000000000000000000e+00,5.000000000000000000e+00,5.000000000000000000e+00,5.000000000000000000e+00,5.000000000000000000e+00,5.000000000000000000e+00,5.000000000000000000e+00,5.000000000000000000e+00,5.000000000000000000e+00,5.000000000000000000e+00,5.000000000000000000e+00,5.000000000000000000e+00,5.000000000000000000e+00,5.000000000000000000e+00,5.000000000000000000e+00,5.000000000000000000e+00,5.000000000000000000e+00,5.000000000000000000e+00,5.000000000000000000e+00,5.000000000000000000e+00,5.000000000000000000e+00,5.000000000000000000e+00,5.000000000000000000e+00,4.851492881774902344e+00,4.692156314849853516e+00,4.542953014373779297e+00,4.402945995330810547e+00,4.271310806274414062e+00,4.147317886352539062e+00,4.030321121215820312e+00,3.919744014739990234e+00,3.815072536468505859e+00,3.715846061706542969e+00
3.098979473114013672e+00,3.177349090576171875e+00,3.259782075881958008e+00,3.346591711044311523e+00,3.438151359558105469e+00,3.534861803054809570e+00,3.637170791625976562e+00,3.745578050613403320e+00,3.860646724700927734e+00,3.983008861541748047e+00,4.113381385803222656e+00,4.252577781677246094e+00,4.401525020599365234e+00,4.561284542083740234e+00,4.733078479766845703e+00,4.918310165405273438e+00,5.000000000000000000e+00,5.000000000000000000e+00,5.000000000000000000e+00,5.000000000000000000e+00,5.000000000000000000e+00,5.000000000000000000e+00,5.000000000000000000e+00,5.000000000000000000e+00,5.000000000000000000e+00,5.000000000000000000e+00,5.000000000000000000e+00,5.000000000000000000e+00,5.000000000000000000e+00,5.000000000000000000e+00,5.000000000000000000e+00,5.000000000000000000e+00,5.000000000000000000e+00,5.000000000000000000e+00,5.000000000000000000e+00,5.000000000000000000e+00,2.010671377182006836e+00,1.992708325386047363e+00,2.002791166305541992e+00,2.020586967468261719e+00,2.050684690475463867e+00,5.000000000000000000e+00,2.003757953643798828e+00,1.989222526550292969e+00,1.984115481376647949e+00,2.003796100616455078e+00,2.051506757736206055e+00,5.000000000000000000e+00,5.000000000000000000e+00,5.000000000000000000e+00,5.000000000000000000e+00,5.000000000000000000e+00,5.000000000000000000e+00,5.000000000000000000e+00,5.000000000000000000e+00,5.000000000000000000e+00,5.000000000000000000e+00,5.000000000000000000e+00,5.000000000000000000e+00,5.000000000000000000e+00,5.000000000000000000e+00,5.000000000000000000e+00,5.000000000000000000e+00,5.000000000000000000e+00,5.000000000000000000e+00,5.000000000000000000e+00,5.000000000000000000e+00,5.000000000000000000e+00,5.000000000000000000e+00,5.000000000000000000e+00,4.851624011993408203e+00,4.692278385162353516e+00,4.543067932128906250e+00,4.403053760528564453e+00,4.271412372589111328e+00,4.147413730621337891e+00,4.030411243438720703e+00,3.919829607009887695e+00,3.815153598785400391e+00,3.715922594070434570e+00
3.098880052566528320e+00,3.177244663238525391e+00,3.259675264358520508e+00,3.346497058868408203e+00,3.438070297241210938e+00,3.534775972366333008e+00,3.637079715728759766e+00,3.745481967926025391e+00,3.860543966293334961e+00,3.982900142669677734e+00,4.113265037536621094e+00,4.252453804016113281e+00,4.401391983032226562e+00,4.561141967773437500e+00,4.732924461364746094e+00,4.918153285980224609e+00,5.000000000000000000e+00,5.000000000000000000e+00,5.000000000000000000e+00,5.000000000000000000e+00,5.000000000000000000e+00,5.000000000000000000e+00,5.000000000000000000e+00,5.000000000000000000e+00,5.000000000000000000e+00,5.000000000000000000e+00,5.000000000000000000e+00,5.000000000000000000e+00,5.000000000000000000e+00,5.000000000000000000e+00,5.000000000000000000e+00,5.000000000000000000e+00,5.000000000000000000e+00,5.000000000000000000e+00,5.000000000000000000e+00,5.000000000000000000e+00,1.989766240119934082e+00,1.980430603027343750e+00,1.995653271675109863e+00,2.017888069152832031e+00,2.058738946914672852e+00,5.000000000000000000e+00,2.011917829513549805e+00,1.993541836738586426e+00,1.988772749900817871e+00,2.013177394866943359e+00,2.064221620559692383e+00,5.000000000000000000e+00,5.000000000000000000e+00,5.000000000000000000e+00,5.000000000000000000e+00,5.000000000000000000e+00,5.000000000000000000e+00,5.000000000000000000e+00,5.000000000000000000e+00,5.000000000000000000e+00,5.000000000000000000e+00,5.000000000000000000e+00,5.000000000000000000e+00,5.000000000000000000e+00,5.000000000000000000e+00,5.000000000000000000e+00,5.000000000000000000e+00,5.000000000000000000e+00,5.000000000000000000e+00,5.000000000000000000e+00,5.000000000000000000e+00,5.000000000000000000e+00,5.000000000000000000e+00,5.000000000000000000e+00,4.851754665374755859e+00,4.692401409149169922e+00,4.543182849884033203e+00,4.403161525726318359e+00,4.271513938903808594e+00,4.147509574890136719e+00,4.030501842498779297e+00,3.919914722442626953e+00,3.815234661102294922e+00,3.715999603271484375e+00
3.098780870437622070e+00,3.177140235900878906e+00,3.259565353393554688e+00,3.346381187438964844e+00,3.437948226928710938e+00,3.534667015075683594e+00,3.636985540390014648e+00,3.745385408401489258e+00,3.860441923141479492e+00,3.982790946960449219e+00,4.113149166107177734e+00,4.252329349517822266e+00,4.401258945465087891e+00,4.560998916625976562e+00,4.732770442962646484e+00,4.917986869812011719e+00,5.000000000000000000e+00,5.000000000000000000e+00,5.000000000000000000e+00,5.000000000000000000e+00,5.000000000000000000e+00,5.000000000000000000e+00,5.000000000000000000e+00,5.000000000000000000e+00,5.000000000000000000e+00,5.000000000000000000e+00,5.000000000000000000e+00,5.000000000000000000e+00,5.000000000000000000e+00,5.000000000000000000e+00,5.000000000000000000e+00,5.000000000000000000e+00,5.000000000000000000e+00,5.000000000000000000e+00,5.000000000000000000e+00,1.986832618713378906e+00,1.963372349739074707e+00,1.973806738853454590e+00,1.988554954528808594e+00,2.024889469146728516e+00,5.000000000000000000e+00,5.000000000000000000e+00,2.015835285186767578e+00,1.996193647384643555e+00,1.991579055786132812e+00,2.023497581481933594e+00,5.000000000000000000e+00,5.000000000000000000e+00,5.000000000000000000e+00,5.000000000000000000e+00,5.000000000000000000e+00,5.000000000000000000e+00,5.000000000000000000e+00,5.000000000000000000e+00,5.000000000000000000e+00,5.000000000000000000e+00,5.000000000000000000e+00,5.000000000000000000e+00,5.000000000000000000e+00,5.000000000000000000e+00,5.000000000000000000e+00,5.000000000000000000e+00,5.000000000000000000e+00,5.000000000000000000e+00,5.000000000000000000e+00,5.000000000000000000e+00,5.000000000000000000e+00,5.000000000000000000e+00,5.000000000000000000e+00,5.000000000000000000e+00,4.851885795593261719e+00,4.692523479461669922e+00,4.543297290802001953e+00,4.403269767761230469e+00,4.271615028381347656e+00,4.147604942321777344e+00,4.030591964721679688e+00,3.920000553131103516e+00,3.815315485000610352e+00,3.716076374053955078e+00
3.098711013793945312e+00,3.177050828933715820e+00,3.259455442428588867e+00,3.346265554428100586e+00,3.437825918197631836e+00,3.534537792205810547e+00,3.636848688125610352e+00,3.745259523391723633e+00,3.860331773757934570e+00,3.982682228088378906e+00,4.113032817840576172e+00,4.252205371856689453e+00,4.401125907897949219e+00,4.560855865478515625e+00,4.732616901397705078e+00,4.917820930480957031e+00,5.000000000000000000e+00,5.000000000000000000e+00,5.000000000000000000e+00,5.000000000000000000e+00,5.000000000000000000e+00,5.000000000000000000e+00,5.000000000000000000e+00,5.000000000000000000e+00,5.000000000000000000e+00,5.000000000000000000e+00,5.000000000000000000e+00,5.000000000000000000e+00,5.000000000000000000e+00,5.000000000000000000e+00,5.000000000000000000e+00,5.000000000000000000e+00,5.000000000000000000e+00,5.000000000000000000e+00,5.000000000000000000e+00,1.965162992477416992e+00,1.956575274467468262e+00,1.967086911201477051e+00,1.992603063583374023e+00,2.042167186737060547e+00,5.000000000000000000e+00,5.000000000000000000e+00,2.021323680877685547e+00,1.996999621391296387e+00,1.997127652168273926e+00,2.035398244857788086e+00,5.000000000000000000e+00,5.000000000000000000e+00,5.000000000000000000e+00,5.000000000000000000e+00,5.000000000000000000e+00,5.000000000000000000e+00,5.000000000000000000e+00,5.000000000000000000e+00,5.000000000000000000e+00,5.000000000000000000e+00,5.000000000000000000e+00,5.000000000000000000e+00,5.000000000000000000e+00,5.000000000000000000e+00,5.000000000000000000e+00,5.000000000000000000e+00,5.000000000000000000e+00,5.000000000000000000e+00,5.000000000000000000e+00,5.000000000000000000e+00,5.000000000000000000e+00,5.000000000000000000e+00,5.000000000000000000e+00,5.000000000000000000e+00,4.852016925811767578e+00,4.692646026611328125e+00,4.543412208557128906e+00,4.403377532958984375e+00,4.271717071533203125e+00,4.147700786590576172e+00,4.030682563781738281e+00,3.920086145401000977e+00,3.815396547317504883e+00,3.716153144836425781e+00
3.098644733428955078e+00,3.176980972290039062e+00,3.259381055831909180e+00,3.346168994903564453e+00,3.437705516815185547e+00,3.534408569335937500e+00,3.636711835861206055e+00,3.745114326477050781e+00,3.860177516937255859e+00,3.982535123825073242e+00,4.112903594970703125e+00,4.252080917358398438e+00,4.400992870330810547e+00,4.560713291168212891e+00,4.732463359832763672e+00,4.917654991149902344e+00,5.000000000000000000e+00,5.000000000000000000e+00,5.000000000000000000e+00,5.000000000000000000e+00,5.000000000000000000e+00,5.000000000000000000e+00,5.000000000000000000e+00,5.000000000000000000e+00,5.000000000000000000e+00,5.000000000000000000e+00,5.000000000000000000e+00,5.000000000000000000e+00,5.000000000000000000e+00,5.000000000000000000e+00,5.000000000000000000e+00,5.000000000000000000e+00,5.000000000000000000e+00,5.000000000000000000e+00,1.981711387634277344e+00,1.956096410751342773e+00,1.954009413719177246e+00,1.962031364440917969e+00,2.013311624526977539e+00,5.000000000000000000e+00,5.000000000000000000e+00,5.000000000000000000e+00,2.025773286819458008e+00,1.997805953025817871e+00,2.006025075912475586e+00,2.050820112228393555e+00,5.000000000000000000e+00,5.000000000000000000e+00,5.000000000000000000e+00,5.000000000000000000e+00,5.000000000000000000e+00,5.000000000000000000e+00,5.000000000000000000e+00,5.000000000000000000e+00,5.000000000000000000e+00,5.000000000000000000e+00,5.000000000000000000e+00,5.000000000000000000e+00,5.000000000000000000e+00,5.000000000000000000e+00,5.000000000000000000e+00,5.000000000000000000e+00,5.000000000000000000e+00,5.000000000000000000e+00,5.000000000000000000e+00,5.000000000000000000e+00,5.000000000000000000e+00,5.000000000000000000e+00,5.000000000000000000e+00,5.000000000000000000e+00,4.852147579193115234e+00,4.692768573760986328e+00,4.543527126312255859e+00,4.403485298156738281e+00,4.271818161010742188e+00,4.147796630859375000e+00,4.030772686004638672e+00,3.920171260833740234e+00,3.815477609634399414e+00,3.716229915618896484e+00
3.098578453063964844e+00,3.176911354064941406e+00,3.259307622909545898e+00,3.346091985702514648e+00,3.437623739242553711e+00,3.534304380416870117e+00,3.636580705642700195e+00,3.744969367980957031e+00,3.860023498535156250e+00,3.982371091842651367e+00,4.112728118896484375e+00,4.251908779144287109e+00,4.400839328765869141e+00,4.560570240020751953e+00,4.732309341430664062e+00,4.917488574981689453e+00,5.000000000000000000e+00,5.000000000000000000e+00,5.000000000000000000e+00,5.000000000000000000e+00,5.000000000000000000e+00,5.000000000000000000e+00,5.000000000000000000e+00,5.000000000000000000e+00,5.000000000000000000e+00,5.000000000000000000e+00,5.000000000000000000e+00,5.000000000000000000e+00,5.000000000000000000e+00,5.000000000000000000e+00,5.000000000000000000e+00,5.000000000000000000e+00,5.000000000000000000e+00,5.000000000000000000e+00,5.000000000000000000e+00,1.965656638145446777e+00,1.958499193191528320e+00,1.968200445175170898e+00,2.017928361892700195e+00,5.000000000000000000e+00,5.000000000000000000e+00,5.000000000000000000e+00,2.025586843490600586e+00,2.003003597259521484e+00,2.016445875167846680e+00,2.059126377105712891e+00,5.000000000000000000e+00,5.000000000000000000e+00,5.000000000000000000e+00,5.000000000000000000e+00,5.000000000000000000e+00,5.000000000000000000e+00,5.000000000000000000e+00,5.000000000000000000e+00,5.000000000000000000e+00,5.000000000000000000e+00,5.000000000000000000e+00,5.000000000000000000e+00,5.000000000000000000e+00,5.000000000000000000e+00,5.000000000000000000e+00,5.000000000000000000e+00,5.000000000000000000e+00,5.000000000000000000e+00,5.000000000000000000e+00,5.000000000000000000e+00,5.000000000000000000e+00,5.000000000000000000e+00,5.000000000000000000e+00,5.000000000000000000e+00,4.852278709411621094e+00,4.692891120910644531e+00,4.543642044067382812e+00,4.403593063354492188e+00,4.271919727325439453e+00,4.147891998291015625e+00,4.030863285064697266e+00,3.920256853103637695e+00,3.815558433532714844e+00,3.716306924819946289e+00
3.098512172698974609e+00,3.176841735839843750e+00,3.259234189987182617e+00,3.346014499664306641e+00,3.437542438507080078e+00,3.534218072891235352e+00,3.636489152908325195e+00,3.744855642318725586e+00,3.859878778457641602e+00,3.982207059860229492e+00,4.112553596496582031e+00,4.251721858978271484e+00,4.400639057159423828e+00,4.560366153717041016e+00,4.732125759124755859e+00,4.917322635650634766e+00,5.000000000000000000e+00,5.000000000000000000e+00,5.000000000000000000e+00,5.000000000000000000e+00,5.000000000000000000e+00,5.000000000000000000e+00,5.000000000000000000e+00,5.000000000000000000e+00,5.000000000000000000e+00,5.000000000000000000e+00,5.000000000000000000e+00,5.000000000000000000e+00,5.000000000000000000e+00,5.000000000000000000e+00,5.000000000000000000e+00,5.000000000000000000e+00,5.000000000000000000e+00,5.000000000000000000e+00,5.000000000000000000e+00,1.982526898384094238e+00,1.968447804450988770e+00,1.978530645370483398e+00,2.001538991928100586e+00,5.000000000000000000e+00,5.000000000000000000e+00,5.000000000000000000e+00,2.031818628311157227e+00,2.008315324783325195e+00,2.028656959533691406e+00,2.072958946228027344e+00,5.000000000000000000e+00,5.000000000000000000e+00,5.000000000000000000e+00,5.000000000000000000e+00,5.000000000000000000e+00,5.000000000000000000e+00,5.000000000000000000e+00,5.000000000000000000e+00,5.000000000000000000e+00,5.000000000000000000e+00,5.000000000000000000e+00,5.000000000000000000e+00,5.000000000000000000e+00,5.000000000000000000e+00,5.000000000000000000e+00,5.000000000000000000e+00,5.000000000000000000e+00,5.000000000000000000e+00,5.000000000000000000e+00,5.000000000000000000e+00,5.000000000000000000e+00,5.000000000000000000e+00,5.000000000000000000e+00,5.000000000000000000e+00,4.852409839630126953e+00,4.693013668060302734e+00,4.543756961822509766e+00,4.403701305389404297e+00,4.272021293640136719e+00,4.147987842559814453e+00,4.030953407287597656e+00,3.920342683792114258e+00,3.815639495849609375e+00,3.716384410858154297e+00
3.098445653915405273e+00,3.176772117614746094e+00,3.259160995483398438e+00,3.345937013626098633e+00,3.437460660934448242e+00,3.534131526947021484e+00,3.636397838592529297e+00,3.744758844375610352e+00,3.859775781631469727e+00,3.982082366943359375e+00,4.112393856048583984e+00,4.251534938812255859e+00,4.400438785552978516e+00,4.560151100158691406e+00,4.731894016265869141e+00,4.917079448699951172e+00,5.000000000000000000e+00,5.000000000000000000e+00,5.000000000000000000e+00,5.000000000000000000e+00,5.000000000000000000e+00,5.000000000000000000e+00,5.000000000000000000e+00,5.000000000000000000e+00,5.000000000000000000e+00,5.000000000000000000e+00,5.000000000000000000e+00,5.000000000000000000e+00,5.000000000000000000e+00,5.000000000000000000e+00,5.000000000000000000e+00,5.000000000000000000e+00,5.000000000000000000e+00,5.000000000000000000e+00,5.000000000000000000e+00,5.000000000000000000e+00,1.985206007957458496e+00,1.983507633209228516e+00,1.998976111412048340e+00,5.000000000000000000e+00,5.000000000000000000e+00,5.000000000000000000e+00,2.058921813964843750e+00,2.021728038787841797e+00,2.035865306854248047e+00,2.067765951156616211e+00,5.000000000000000000e+00,5.000000000000000000e+00,5.000000000000000000e+00,5.000000000000000000e+00,5.000000000000000000e+00,5.000000000000000000e+00,5.000000000000000000e+00,5.000000000000000000e+00,5.000000000000000000e+00,5.000000000000000000e+00,5.000000000000000000e+00,5.000000000000000000e+00,5.000000000000000000e+00,5.000000000000000000e+00,5.000000000000000000e+00,5.000000000000000000e+00,5.000000000000000000e+00,5.000000000000000000e+00,5.000000000000000000e+00,5.000000000000000000e+00,5.000000000000000000e+00,5.000000000000000000e+00,5.000000000000000000e+00,5.000000000000000000e+00,4.852540493011474609e+00,4.693136215209960938e+00,4.543871402740478516e+00,4.403809070587158203e+00,4.272122859954833984e+00,4.148083686828613281e+00,4.031044006347656250e+00,3.920430660247802734e+00,3.815725564956665039e+00,3.716467380523681641e+00
3.098379373550415039e+00,3.176702260971069336e+00,3.259087562561035156e+00,3.345859766006469727e+00,3.437379121780395508e+00,3.534045696258544922e+00,3.636306524276733398e+00,3.744661808013916016e+00,3.859673261642456055e+00,3.981972694396972656e+00,4.112277030944824219e+00,4.251397132873535156e+00,4.400260448455810547e+00,4.559936046600341797e+00,4.731662273406982422e+00,4.916829109191894531e+00,5.000000000000000000e+00,5.000000000000000000e+00,5.000000000000000000e+00,5.000000000000000000e+00,5.000000000000000000e+00,5.000000000000000000e+00,5.000000000000000000e+00,5.000000000000000000e+00,5.000000000000000000e+00,5.000000000000000000e+00,5.000000000000000000e+00,5.000000000000000000e+00,5.000000000000000000e+00,5.000000000000000000e+00,5.000000000000000000e+00,5.000000000000000000e+00,5.000000000000000000e+00,5.000000000000000000e+00,5.000000000000000000e+00,5.000000000000000000e+00,1.998983383178710938e+00,1.987759113311767578e+00,2.001691341400146484e+00,2.048655509948730469e+00,5.000000000000000000e+00,5.000000000000000000e+00,5.000000000000000000e+00,2.052742004394531250e+00,2.055924415588378906e+00,2.068424940109252930e+00,2.113938331604003906e+00,5.000000000000000000e+00,5.000000000000000000e+00,5.000000000000000000e+00,5.000000000000000000e+00,5.000000000000000000e+00,5.000000000000000000e+00,5.000000000000000000e+00,5.000000000000000000e+00,5.000000000000000000e+00,5.000000000000000000e+00,5.000000000000000000e+00,5.000000000000000000e+00,5.000000000000000000e+00,5.000000000000000000e+00,5.000000000000000000e+00,5.000000000000000000e+00,5.000000000000000000e+00,5.000000000000000000e+00,5.000000000000000000e+00,5.000000000000000000e+00,5.000000000000000000e+00,5.000000000000000000e+00,5.000000000000000000e+00,4.852671623229980469e+00,4.693258762359619141e+00,4.543986797332763672e+00,4.403916835784912109e+00,4.272226333618164062e+00,4.148184299468994141e+00,4.031141757965087891e+00,3.920523166656494141e+00,3.815813541412353516e+00,3.716551065444946289e+00
3.098313331604003906e+00,3.176632404327392578e+00,3.259014129638671875e+00,3.345782756805419922e+00,3.437297344207763672e+00,3.533959388732910156e+00,3.636215448379516602e+00,3.744564771652221680e+00,3.859570264816284180e+00,3.981863498687744141e+00,4.112160205841064453e+00,4.251272201538085938e+00,4.400126934051513672e+00,4.559782981872558594e+00,4.731462001800537109e+00,4.916579246520996094e+00,5.000000000000000000e+00,5.000000000000000000e+00,5.000000000000000000e+00,5.000000000000000000e+00,5.000000000000000000e+00,5.000000000000000000e+00,5.000000000000000000e+00,5.000000000000000000e+00,5.000000000000000000e+00,5.000000000000000000e+00,5.000000000000000000e+00,5.000000000000000000e+00,5.000000000000000000e+00,5.000000000000000000e+00,5.000000000000000000e+00,5.000000000000000000e+00,5.000000000000000000e+00,5.000000000000000000e+00,5.000000000000000000e+00,5.000000000000000000e+00,2.002440929412841797e+00,1.990605831146240234e+00,2.001264095306396484e+00,2.045993804931640625e+00,5.000000000000000000e+00,5.000000000000000000e+00,5.000000000000000000e+00,5.000000000000000000e+00,2.077799558639526367e+00,2.081611871719360352e+00,2.102042913436889648e+00,5.000000000000000000e+00,5.000000000000000000e+00,5.000000000000000000e+00,5.000000000000000000e+00,5.000000000000000000e+00,5.000000000000000000e+00,5.000000000000000000e+00,5.000000000000000000e+00,5.000000000000000000e+00,5.000000000000000000e+00,5.000000000000000000e+00,5.000000000000000000e+00,5.000000000000000000e+00,5.000000000000000000e+00,5.000000000000000000e+00,5.000000000000000000e+00,5.000000000000000000e+00,5.000000000000000000e+00,5.000000000000000000e+00,5.000000000000000000e+00,5.000000000000000000e+00,5.000000000000000000e+00,5.000000000000000000e+00,4.852802753448486328e+00,4.693382263183593750e+00,4.544106006622314453e+00,4.404032707214355469e+00,4.272336483001708984e+00,4.148288249969482422e+00,4.031239986419677734e+00,3.920616149902343750e+00,3.815901279449462891e+00,3.716634511947631836e+00
3.098246812820434570e+00,3.176563024520874023e+00,3.258940696716308594e+00,3.345705270767211914e+00,3.437216043472290039e+00,3.533872842788696289e+00,3.636123895645141602e+00,3.744468212127685547e+00,3.859467267990112305e+00,3.981753826141357422e+00,4.112043380737304688e+00,4.251147747039794922e+00,4.399992942810058594e+00,4.559639930725097656e+00,4.731307506561279297e+00,4.916407108306884766e+00,5.000000000000000000e+00,5.000000000000000000e+00,5.000000000000000000e+00,5.000000000000000000e+00,5.000000000000000000e+00,5.000000000000000000e+00,5.000000000000000000e+00,5.000000000000000000e+00,5.000000000000000000e+00,5.000000000000000000e+00,5.000000000000000000e+00,5.000000000000000000e+00,5.000000000000000000e+00,5.000000000000000000e+00,5.000000000000000000e+00,5.000000000000000000e+00,5.000000000000000000e+00,5.000000000000000000e+00,5.000000000000000000e+00,5.000000000000000000e+00,2.005910634994506836e+00,1.993460893630981445e+00,2.001000165939331055e+00,2.043339252471923828e+00,5.000000000000000000e+00,5.000000000000000000e+00,5.000000000000000000e+00,5.000000000000000000e+00,2.094808816909790039e+00,2.094445466995239258e+00,2.114690065383911133e+00,5.000000000000000000e+00,5.000000000000000000e+00,5.000000000000000000e+00,5.000000000000000000e+00,5.000000000000000000e+00,5.000000000000000000e+00,5.000000000000000000e+00,5.000000000000000000e+00,5.000000000000000000e+00,5.000000000000000000e+00,5.000000000000000000e+00,5.000000000000000000e+00,5.000000000000000000e+00,5.000000000000000000e+00,5.000000000000000000e+00,5.000000000000000000e+00,5.000000000000000000e+00,5.000000000000000000e+00,5.000000000000000000e+00,5.000000000000000000e+00,5.000000000000000000e+00,5.000000000000000000e+00,5.000000000000000000e+00,4.852941513061523438e+00,4.693515300750732422e+00,4.544230461120605469e+00,4.404149532318115234e+00,4.272446632385253906e+00,4.148392200469970703e+00,4.031338214874267578e+00,3.920709133148193359e+00,3.815989255905151367e+00,3.716717720031738281e+00
3.098180532455444336e+00,3.176493167877197266e+00,3.258867740631103516e+00,3.345627784729003906e+00,3.437134265899658203e+00,3.533787012100219727e+00,3.636032581329345703e+00,3.744371414184570312e+00,3.859364748001098633e+00,3.981644392013549805e+00,4.111926555633544922e+00,4.251022815704345703e+00,4.399859428405761719e+00,4.559495925903320312e+00,4.731152534484863281e+00,4.916240215301513672e+00,5.000000000000000000e+00,5.000000000000000000e+00,5.000000000000000000e+00,5.000000000000000000e+00,5.000000000000000000e+00,5.000000000000000000e+00,5.000000000000000000e+00,5.000000000000000000e+00,5.000000000000000000e+00,5.000000000000000000e+00,5.000000000000000000e+00,5.000000000000000000e+00,5.000000000000000000e+00,5.000000000000000000e+00,5.000000000000000000e+00,5.000000000000000000e+00,5.000000000000000000e+00,5.000000000000000000e+00,5.000000000000000000e+00,5.000000000000000000e+00,2.009392499923706055e+00,1.996324181556701660e+00,2.001800537109375000e+00,2.040691137313842773e+00,5.000000000000000000e+00,5.000000000000000000e+00,5.000000000000000000e+00,5.000000000000000000e+00,2.106758832931518555e+00,2.107316017150878906e+00,2.127358436584472656e+00,5.000000000000000000e+00,5.000000000000000000e+00,5.000000000000000000e+00,5.000000000000000000e+00,5.000000000000000000e+00,5.000000000000000000e+00,5.000000000000000000e+00,5.000000000000000000e+00,5.000000000000000000e+00,5.000000000000000000e+00,5.000000000000000000e+00,5.000000000000000000e+00,5.000000000000000000e+00,5.000000000000000000e+00,5.000000000000000000e+00,5.000000000000000000e+00,5.000000000000000000e+00,5.000000000000000000e+00,5.000000000000000000e+00,5.000000000000000000e+00,5.000000000000000000e+00,5.000000000000000000e+00,5.000000000000000000e+00,4.853083610534667969e+00,4.693648338317871094e+00,4.544355392456054688e+00,4.404266834259033203e+00,4.272556781768798828e+00,4.148496150970458984e+00,4.031436443328857422e+00,3.920801639556884766e+00,3.816077470779418945e+00,3.716801404953002930e+00
3.098114490509033203e+00,3.176423549652099609e+00,3.258794307708740234e+00,3.345550775527954102e+00,3.437052726745605469e+00,3.533700704574584961e+00,3.635941267013549805e+00,3.744274377822875977e+00,3.859261751174926758e+00,3.981534719467163086e+00,4.111809730529785156e+00,4.250897884368896484e+00,4.399725437164306641e+00,4.559352397918701172e+00,4.730998039245605469e+00,4.916073322296142578e+00,5.000000000000000000e+00,5.000000000000000000e+00,5.000000000000000000e+00,5.000000000000000000e+00,5.000000000000000000e+00,5.000000000000000000e+00,5.000000000000000000e+00,5.000000000000000000e+00,5.000000000000000000e+00,5.000000000000000000e+00,5.000000000000000000e+00,5.000000000000000000e+00,5.000000000000000000e+00,5.000000000000000000e+00,5.000000000000000000e+00,5.000000000000000000e+00,5.000000000000000000e+00,5.000000000000000000e+00,5.000000000000000000e+00,5.000000000000000000e+00,2.012888669967651367e+00,2.000032424926757812e+00,2.004702091217041016e+00,2.039019584655761719e+00,5.000000000000000000e+00,5.000000000000000000e+00,5.000000000000000000e+00,5.000000000000000000e+00,2.136313915252685547e+00,2.120884656906127930e+00,2.140344142913818359e+00,5.000000000000000000e+00,5.000000000000000000e+00,5.000000000000000000e+00,5.000000000000000000e+00,5.000000000000000000e+00,5.000000000000000000e+00,5.000000000000000000e+00,5.000000000000000000e+00,5.000000000000000000e+00,5.000000000000000000e+00,5.000000000000000000e+00,5.000000000000000000e+00,5.000000000000000000e+00,5.000000000000000000e+00,5.000000000000000000e+00,5.000000000000000000e+00,5.000000000000000000e+00,5.000000000000000000e+00,5.000000000000000000e+00,5.000000000000000000e+00,5.000000000000000000e+00,5.000000000000000000e+00,5.000000000000000000e+00,4.853226184844970703e+00,4.693781375885009766e+00,4.544480323791503906e+00,4.404384136199951172e+00,4.272667407989501953e+00,4.148599624633789062e+00,4.031534671783447266e+00,3.920894622802734375e+00,3.816165447235107422e+00,3.716884851455688477e+00
3.098048210144042969e+00,3.176353693008422852e+00,3.258720874786376953e+00,3.345473527908325195e+00,3.436970949172973633e+00,3.533614397048950195e+00,3.635850191116333008e+00,3.744177579879760742e+00,3.859158754348754883e+00,3.981425523757934570e+00,4.111692905426025391e+00,4.250773429870605469e+00,4.399591922760009766e+00,4.559208869934082031e+00,4.730843544006347656e+00,4.915906429290771484e+00,5.000000000000000000e+00,5.000000000000000000e+00,5.000000000000000000e+00,5.000000000000000000e+00,5.000000000000000000e+00,5.000000000000000000e+00,5.000000000000000000e+00,5.000000000000000000e+00,5.000000000000000000e+00,5.000000000000000000e+00,5.000000000000000000e+00,5.000000000000000000e+00,5.000000000000000000e+00,5.000000000000000000e+00,5.000000000000000000e+00,5.000000000000000000e+00,5.000000000000000000e+00,5.000000000000000000e+00,5.000000000000000000e+00,5.000000000000000000e+00,5.000000000000000000e+00,2.004233121871948242e+00,2.007999658584594727e+00,2.037559270858764648e+00,5.000000000000000000e+00,5.000000000000000000e+00,5.000000000000000000e+00,5.000000000000000000e+00,2.164899110794067383e+00,2.136291742324829102e+00,2.154157638549804688e+00,5.000000000000000000e+00,5.000000000000000000e+00,5.000000000000000000e+00,5.000000000000000000e+00,5.000000000000000000e+00,5.000000000000000000e+00,5.000000000000000000e+00,5.000000000000000000e+00,5.000000000000000000e+00,5.000000000000000000e+00,5.000000000000000000e+00,5.000000000000000000e+00,5.000000000000000000e+00,5.000000000000000000e+00,5.000000000000000000e+00,5.000000000000000000e+00,5.000000000000000000e+00,5.000000000000000000e+00,5.000000000000000000e+00,5.000000000000000000e+00,5.000000000000000000e+00,5.000000000000000000e+00,5.000000000000000000e+00,4.853368282318115234e+00,4.693914413452148438e+00,4.544605255126953125e+00,4.404500961303710938e+00,4.272777557373046875e+00,4.148704051971435547e+00,4.031632423400878906e+00,3.920987606048583984e+00,3.816253185272216797e+00,3.716968536376953125e+00
3.097981691360473633e+00,3.176284313201904297e+00,3.258647441864013672e+00,3.345396041870117188e+00,3.436889648437500000e+00,3.533528089523315430e+00,3.635758638381958008e+00,3.744081020355224609e+00,3.859055757522583008e+00,3.981315851211547852e+00,4.111576557159423828e+00,4.250648498535156250e+00,4.399457931518554688e+00,4.559065341949462891e+00,4.730689048767089844e+00,4.915739536285400391e+00,5.000000000000000000e+00,5.000000000000000000e+00,5.000000000000000000e+00,5.000000000000000000e+00,5.000000000000000000e+00,5.000000000000000000e+00,5.000000000000000000e+00,5.000000000000000000e+00,5.000000000000000000e+00,5.000000000000000000e+00,5.000000000000000000e+00,5.000000000000000000e+00,5.000000000000000000e+00,5.000000000000000000e+00,5.000000000000000000e+00,5.000000000000000000e+00,5.000000000000000000e+00,5.000000000000000000e+00,5.000000000000000000e+00,5.000000000000000000e+00,5.000000000000000000e+00,2.008451700210571289e+00,2.010709524154663086e+00,2.036101341247558594e+00,5.000000000000000000e+00,5.000000000000000000e+00,5.000000000000000000e+00,5.000000000000000000e+00,5.000000000000000000e+00,2.155870437622070312e+00,2.168914318084716797e+00,5.000000000000000000e+00,5.000000000000000000e+00,5.000000000000000000e+00,5.000000000000000000e+00,5.000000000000000000e+00,5.000000000000000000e+00,5.000000000000000000e+00,5.000000000000000000e+00,5.000000000000000000e+00,5.000000000000000000e+00,5.000000000000000000e+00,5.000000000000000000e+00,5.000000000000000000e+00,5.000000000000000000e+00,5.000000000000000000e+00,5.000000000000000000e+00,5.000000000000000000e+00,5.000000000000000000e+00,5.000000000000000000e+00,5.000000000000000000e+00,5.000000000000000000e+00,5.000000000000000000e+00,5.000000000000000000e+00,4.853510856628417969e+00,4.694047451019287109e+00,4.544729709625244141e+00,4.404618263244628906e+00,4.272887706756591797e+00,4.148808002471923828e+00,4.031730651855468750e+00,3.921080589294433594e+00,3.816341400146484375e+00,3.717051744461059570e+00
3.097915410995483398e+00,3.176214456558227539e+00,3.258574247360229492e+00,3.345318555831909180e+00,3.436807870864868164e+00,3.533442020416259766e+00,3.635667324066162109e+00,3.743983983993530273e+00,3.858953237533569336e+00,3.981206417083740234e+00,4.111459255218505859e+00,4.250524044036865234e+00,4.399324417114257812e+00,4.558921813964843750e+00,4.730534553527832031e+00,4.854144096374511719e+00,4.852940559387207031e+00,4.851737022399902344e+00,4.850534439086914062e+00,4.849332332611083984e+00,4.848130702972412109e+00,4.846930027008056641e+00,4.845729351043701172e+00,4.844529628753662109e+00,4.843330383300781250e+00,4.842132091522216797e+00,4.840933799743652344e+00,4.839736461639404297e+00,4.838539600372314453e+00,4.837343215942382812e+00,4.836147785186767578e+00,4.834952831268310547e+00,4.833758354187011719e+00,4.832564353942871094e+00,4.831370830535888672e+00,4.830178737640380859e+00,4.828986644744873047e+00,2.012687921524047852e+00,2.013411760330200195e+00,2.036900997161865234e+00,4.824223995208740234e+00,4.823034763336181641e+00,4.821846485137939453e+00,4.820658206939697266e+00,4.819470882415771484e+00,2.174330234527587891e+00,2.184110164642333984e+00,4.815912246704101562e+00,4.814726829528808594e+00,4.813542842864990234e+00,4.812358856201171875e+00,4.811175346374511719e+00,4.809992790222167969e+00,4.808810710906982422e+00,4.807629108428955078e+00,4.806447982788085938e+00,4.805267810821533203e+00,4.804087638854980469e+00,4.802908897399902344e+00,4.801730155944824219e+00,4.800551891326904297e+00,4.799374103546142578e+00,4.798197269439697266e+00,4.797021389007568359e+00,4.795845508575439453e+00,4.794670104980468750e+00,4.793495178222656250e+00,4.792321681976318359e+00,4.791148185729980469e+00,4.789975166320800781e+00,4.788802623748779297e+00,4.694180965423583984e+00,4.544854640960693359e+00,4.404735565185546875e+00,4.272998332977294922e+00,4.148911952972412109e+00,4.031828880310058594e+00,3.921173095703125000e+00,3.816429376602172852e+00,3.717135190963745117e+00
3.097849369049072266e+00,3.176144838333129883e+00,3.258500814437866211e+00,3.345241546630859375e+00,3.436726331710815430e+00,3.533355712890625000e+00,3.635576248168945312e+00,3.743887186050415039e+00,3.770673036575317383e+00,3.769946098327636719e+00,3.769219875335693359e+00,3.768494367599487305e+00,3.767768621444702148e+00,3.767043113708496094e+00,3.766317844390869141e+00,3.765593051910400391e+00,3.764868497848510742e+00,3.764144182205200195e+00,3.763420104980468750e+00,3.762696266174316406e+00,3.761972904205322266e+00,3.761250019073486328e+00,3.760527133941650391e+00,3.759804487228393555e+00,3.759082078933715820e+00,3.758360147476196289e+00,3.757638216018676758e+00,3.756916761398315430e+00,3.756195545196533203e+00,3.755474328994750977e+00,3.754754066467285156e+00,3.754033803939819336e+00,3.753313541412353516e+00,3.752593755722045898e+00,3.751873970031738281e+00,3.751154661178588867e+00,3.750435590744018555e+00,3.749716997146606445e+00,2.024469852447509766e+00,2.042224168777465820e+00,3.747562646865844727e+00,3.746845006942749023e+00,3.746127605438232422e+00,3.745410442352294922e+00,3.744693517684936523e+00,2.193108320236206055e+00,2.210605621337890625e+00,3.742544651031494141e+00,3.741828918457031250e+00,3.741113901138305664e+00,3.740398645401000977e+00,3.739683866500854492e+00,3.738969087600708008e+00,3.738254785537719727e+00,3.737540721893310547e+00,3.736826658248901367e+00,3.736113071441650391e+00,3.735399961471557617e+00,3.734687328338623047e+00,3.733974456787109375e+00,3.733262062072753906e+00,3.732549905776977539e+00,3.731837987899780273e+00,3.731126308441162109e+00,3.730414867401123047e+00,3.729703664779663086e+00,3.728992938995361328e+00,3.728282690048217773e+00,3.727572441101074219e+00,3.726862192153930664e+00,3.726152420043945312e+00,3.725442886352539062e+00,3.724733829498291016e+00,3.724024772644042969e+00,3.723316192626953125e+00,3.722607612609863281e+00,3.721899986267089844e+00,3.721192121505737305e+00,3.720484495162963867e+00,3.717218875885009766e+00
3.083102703094482422e+00,3.082616806030273438e+00,3.082131147384643555e+00,3.081645727157592773e+00,3.081160545349121094e+00,3.080675363540649414e+00,3.080190420150756836e+00,3.079705476760864258e+00,3.079220771789550781e+00,3.078736305236816406e+00,3.078251838684082031e+00,3.077767610549926758e+00,3.077283382415771484e+00,3.076799392700195312e+00,3.076315402984619141e+00,3.075831651687622070e+00,3.075348377227783203e+00,3.074865102767944336e+00,3.074382066726684570e+00,3.073899030685424805e+00,3.073415994644165039e+00,3.072933435440063477e+00,3.072450876235961914e+00,3.071968317031860352e+00,3.071486234664916992e+00,3.071004390716552734e+00,3.070522308349609375e+00,3.070040464401245117e+00,3.069558858871459961e+00,3.069077491760253906e+00,3.068596124649047852e+00,3.068114757537841797e+00,3.067633867263793945e+00,3.067152976989746094e+00,3.066672086715698242e+00,3.066191911697387695e+00,3.065711498260498047e+00,2.006904840469360352e+00,2.014423847198486328e+00,2.038879871368408203e+00,3.063791275024414062e+00,3.063311576843261719e+00,3.062831878662109375e+00,3.062352657318115234e+00,3.061873674392700195e+00,2.202212810516357422e+00,2.215917348861694336e+00,3.060436725616455078e+00,3.059958219528198242e+00,3.059479713439941406e+00,3.059001207351684570e+00,3.058523178100585938e+00,3.058044910430908203e+00,3.057567358016967773e+00,3.057089567184448242e+00,3.056612014770507812e+00,3.056134462356567383e+00,3.055657148361206055e+00,3.055180072784423828e+00,3.054702997207641602e+00,3.054226160049438477e+00,3.053749561309814453e+00,3.053272962570190430e+00,3.052796840667724609e+00,3.052320480346679688e+00,3.051844596862792969e+00,3.051368474960327148e+00,3.050892591476440430e+00,3.050416946411132812e+00,3.049941539764404297e+00,3.049466133117675781e+00,3.048990964889526367e+00,3.048516035079956055e+00,3.048041343688964844e+00,3.047566413879394531e+00,3.047091722488403320e+00,3.046617269515991211e+00,3.046143054962158203e+00,3.045668840408325195e+00,3.045194864273071289e+00
2.604835271835327148e+00,2.604488372802734375e+00,2.604141712188720703e+00,2.603795051574707031e+00,2.603448629379272461e+00,2.603102207183837891e+00,2.602755784988403320e+00,2.602409601211547852e+00,2.602063655853271484e+00,2.601717472076416016e+00,2.601371526718139648e+00,2.601025819778442383e+00,2.600680112838745117e+00,2.600334405899047852e+00,2.599988937377929688e+00,2.599643468856811523e+00,2.599298000335693359e+00,2.598952770233154297e+00,2.598607540130615234e+00,2.598262548446655273e+00,2.597917079925537109e+00,2.597572326660156250e+00,2.597227573394775391e+00,2.596882820129394531e+00,2.596538066864013672e+00,2.596193552017211914e+00,2.595849275588989258e+00,2.595504760742187500e+00,2.595160484313964844e+00,2.594816446304321289e+00,2.594472408294677734e+00,2.594128370285034180e+00,2.593784570693969727e+00,2.593440771102905273e+00,2.593096971511840820e+00,2.592753410339355469e+00,1.970581889152526855e+00,1.985608339309692383e+00,2.016122341156005859e+00,2.037362813949584961e+00,2.591036796569824219e+00,2.590693712234497070e+00,2.590350627899169922e+00,2.590007781982421875e+00,2.174979686737060547e+00,2.178521871566772461e+00,2.202357769012451172e+00,2.588637113571166992e+00,2.588294744491577148e+00,2.587952375411987305e+00,2.587610244750976562e+00,2.587268114089965820e+00,2.586925983428955078e+00,2.586583852767944336e+00,2.586241960525512695e+00,2.585900306701660156e+00,2.585558414459228516e+00,2.585216999053955078e+00,2.584875583648681641e+00,2.584534168243408203e+00,2.584192752838134766e+00,2.583851575851440430e+00,2.583510160446166992e+00,2.583169221878051758e+00,2.582828283309936523e+00,2.582487344741821289e+00,2.582146406173706055e+00,2.581805944442749023e+00,2.581465244293212891e+00,2.581124782562255859e+00,2.580784320831298828e+00,2.580443859100341797e+00,2.580103635787963867e+00,2.579763412475585938e+00,2.579423189163208008e+00,2.579083204269409180e+00,2.578743457794189453e+00,2.578403711318969727e+00,2.578063964843750000e+00,2.577724218368530273e+00
2.255023717880249023e+00,2.254763841629028320e+00,2.254503965377807617e+00,2.254244327545166016e+00,2.253984451293945312e+00,2.253724813461303711e+00,2.253465414047241211e+00,2.253205776214599609e+00,2.252946376800537109e+00,2.252686977386474609e+00,2.252427577972412109e+00,2.252168416976928711e+00,2.251909255981445312e+00,2.251650094985961914e+00,2.251390933990478516e+00,2.251131772994995117e+00,2.250872850418090820e+00,2.250613927841186523e+00,2.250355005264282227e+00,2.250096082687377930e+00,2.249837398529052734e+00,2.249578714370727539e+00,2.249320030212402344e+00,2.249061584472656250e+00,2.248803138732910156e+00,2.248544454574584961e+00,2.248286008834838867e+00,2.248027801513671875e+00,2.247769594192504883e+00,2.247511386871337891e+00,2.247253179550170898e+00,2.246994972229003906e+00,2.246737003326416016e+00,2.246479034423828125e+00,1.933962106704711914e+00,1.935016393661499023e+00,1.955489516258239746e+00,2.245447874069213867e+00,2.245190143585205078e+00,2.244932651519775391e+00,2.244674921035766602e+00,2.244417428970336914e+00,2.154505252838134766e+00,2.139984846115112305e+00,2.137146472930908203e+00,2.152863502502441406e+00,2.243131160736083984e+00,2.242873907089233398e+00,2.242616891860961914e+00,2.242359876632690430e+00,2.242102861404418945e+00,2.241845846176147461e+00,2.241589069366455078e+00,2.241332530975341797e+00,2.241075754165649414e+00,2.240818977355957031e+00,2.240562438964843750e+00,2.240305900573730469e+00,2.240049362182617188e+00,2.239793062210083008e+00,2.239536523818969727e+00,2.239280223846435547e+00,2.239023923873901367e+00,2.238767862319946289e+00,2.238511800765991211e+00,2.238255739212036133e+00,2.237999677658081055e+00,2.237743854522705078e+00,2.237487792968750000e+00,2.237231969833374023e+00,2.236976146697998047e+00,2.236720561981201172e+00,2.236464977264404297e+00,2.236209392547607422e+00,2.235953807830810547e+00,2.235698223114013672e+00,2.235442876815795898e+00,2.235187292098999023e+00,2.234932184219360352e+00,2.234676837921142578e+00
1.988043189048767090e+00,1.987841367721557617e+00,1.987639188766479492e+00,1.987437486648559570e+00,1.987235546112060547e+00,1.987033843994140625e+00,1.986831903457641602e+00,1.986630320549011230e+00,1.986428499221801758e+00,1.986226677894592285e+00,1.986025214195251465e+00,1.985823512077331543e+00,1.985622048377990723e+00,1.985420465469360352e+00,1.985219120979309082e+00,1.985017657279968262e+00,1.984816431999206543e+00,1.984614968299865723e+00,1.984413743019104004e+00,1.984212398529052734e+00,1.984011292457580566e+00,1.983809947967529297e+00,1.983608961105346680e+00,1.983407855033874512e+00,1.983206868171691895e+00,1.983005762100219727e+00,1.982804894447326660e+00,1.982603907585144043e+00,1.982403159141540527e+00,1.982202172279357910e+00,1.982001185417175293e+00,1.981800317764282227e+00,1.981599807739257812e+00,1.981398940086364746e+00,1.981198430061340332e+00,1.980997681617736816e+00,1.980797290802001953e+00,1.980596661567687988e+00,1.980396270751953125e+00,1.980195999145507812e+00,1.979995489120483398e+00,1.979795217514038086e+00,1.979594826698303223e+00,1.979394674301147461e+00,1.979194283485412598e+00,1.978994250297546387e+00,1.978793978691101074e+00,1.978593945503234863e+00,1.978393793106079102e+00,1.978193759918212891e+00,1.977993965148925781e+00,1.977793812751770020e+00,1.977594137191772461e+00,1.977394104003906250e+00,1.977194428443908691e+00,1.976994514465332031e+00,1.976794838905334473e+00,1.976595044136047363e+00,1.976395487785339355e+00,1.976195931434631348e+00,1.975996255874633789e+00,1.975796818733215332e+00,1.975597143173217773e+00,1.975397825241088867e+00,1.975198268890380859e+00,1.974999070167541504e+00,1.974799513816833496e+00,1.974600315093994141e+00,1.974401235580444336e+00,1.974201917648315430e+00,1.974002838134765625e+00,1.973803520202636719e+00,1.973604559898376465e+00,1.973405361175537109e+00,1.973206520080566406e+00,1.973007321357727051e+00,1.972808480262756348e+00,1.972609758377075195e+00,1.972410798072814941e+00,1.972212076187133789e+00
1.777588129043579102e+00,1.777426481246948242e+00,1.777265191078186035e+00,1.777103662490844727e+00,1.776942372322082520e+00,1.776780843734741211e+00,1.776619672775268555e+00,1.776458263397216797e+00,1.776297092437744141e+00,1.776135683059692383e+00,1.775974512100219727e+00,1.775813341140747070e+00,1.775652170181274414e+00,1.775490999221801758e+00,1.775329947471618652e+00,1.775168776512145996e+00,1.775007843971252441e+00,1.774846792221069336e+00,1.774685859680175781e+00,1.774524807929992676e+00,1.774363994598388672e+00,1.774202942848205566e+00,1.774042129516601562e+00,1.773881196975708008e+00,1.773720502853393555e+00,1.773559689521789551e+00,1.773398756980895996e+00,1.773238182067871094e+00,1.773077368736267090e+00,1.772916793823242188e+00,1.772756099700927734e+00,1.772595524787902832e+00,1.772434830665588379e+00,1.772274374961853027e+00,1.772113800048828125e+00,1.771953344345092773e+00,1.771792650222778320e+00,1.771632313728332520e+00,1.771471738815307617e+00,1.771311521530151367e+00,1.771151065826416016e+00,1.770990848541259766e+00,1.770830392837524414e+00,1.770670294761657715e+00,1.770510077476501465e+00,1.770349860191345215e+00,1.770189762115478516e+00,1.770029544830322266e+00,1.769869446754455566e+00,1.769709348678588867e+00,1.769549369812011719e+00,1.769389152526855469e+00,1.769229292869567871e+00,1.769069433212280273e+00,1.768909335136413574e+00,1.768749594688415527e+00,1.768589615821838379e+00,1.768429756164550781e+00,1.768269896507263184e+00,1.768110156059265137e+00,1.767950296401977539e+00,1.767790675163269043e+00,1.767630815505981445e+00,1.767471313476562500e+00,1.767311692237854004e+00,1.767151951789855957e+00,1.766992449760437012e+00,1.766832828521728516e+00,1.766673326492309570e+00,1.766513824462890625e+00,1.766354441642761230e+00,1.766194820404052734e+00,1.766035556793212891e+00,1.765876173973083496e+00,1.765716791152954102e+00,1.765557527542114258e+00,1.765398144721984863e+00,1.765239000320434570e+00,1.765079617500305176e+00,1.764920473098754883e+00
1.607425332069396973e+00,1.607293248176574707e+00,1.607161283493041992e+00,1.607029199600219727e+00,1.606897354125976562e+00,1.606765270233154297e+00,1.606633424758911133e+00,1.606501460075378418e+00,1.606369614601135254e+00,1.606237649917602539e+00,1.606105804443359375e+00,1.605973958969116211e+00,1.605842232704162598e+00,1.605710387229919434e+00,1.605578660964965820e+00,1.605446815490722656e+00,1.605314970016479492e+00,1.605183362960815430e+00,1.605051636695861816e+00,1.604920029640197754e+00,1.604788303375244141e+00,1.604656815528869629e+00,1.604525089263916016e+00,1.604393601417541504e+00,1.604261994361877441e+00,1.604130506515502930e+00,1.603998899459838867e+00,1.603867530822753906e+00,1.603736042976379395e+00,1.603604674339294434e+00,1.603473067283630371e+00,1.603341817855834961e+00,1.603210330009460449e+00,1.603079080581665039e+00,1.602947592735290527e+00,1.602816462516784668e+00,1.602684974670410156e+00,1.602553844451904297e+00,1.602422475814819336e+00,1.602291345596313477e+00,1.602160096168518066e+00,1.602028608322143555e+00,1.601897597312927246e+00,1.601766347885131836e+00,1.601635336875915527e+00,1.601504087448120117e+00,1.601373076438903809e+00,1.601241946220397949e+00,1.601111054420471191e+00,1.600980043411254883e+00,1.600849032402038574e+00,1.600718140602111816e+00,1.600587129592895508e+00,1.600456237792968750e+00,1.600325226783752441e+00,1.600194454193115234e+00,1.600063562393188477e+00,1.599932670593261719e+00,1.599802017211914062e+00,1.599671125411987305e+00,1.599540352821350098e+00,1.599409580230712891e+00,1.599278926849365234e+00,1.599148154258728027e+00,1.599017500877380371e+00,1.598886728286743164e+00,1.598756194114685059e+00,1.598625659942626953e+00,1.598494887351989746e+00,1.598364472389221191e+00,1.598233819007873535e+00,1.598103284835815430e+00,1.597972750663757324e+00,1.597842335700988770e+00,1.597711682319641113e+00,1.597581386566162109e+00,1.597450971603393555e+00,1.597320556640625000e+00,1.597190141677856445e+00,1.597059726715087891e+00
1.466994762420654297e+00,1.466884732246398926e+00,1.466774821281433105e+00,1.466664791107177734e+00,1.466554880142211914e+00,1.466444849967956543e+00,1.466334939002990723e+00,1.466225147247314453e+00,1.466115117073059082e+00,1.466005325317382812e+00,1.465895414352416992e+00,1.465785741806030273e+00,1.465675830841064453e+00,1.465566158294677734e+00,1.465456247329711914e+00,1.465346574783325195e+00,1.465236783027648926e+00,1.465127110481262207e+00,1.465017318725585938e+00,1.464907765388488770e+00,1.464797973632812500e+00,1.464688420295715332e+00,1.464578628540039062e+00,1.464469075202941895e+00,1.464359402656555176e+00,1.464249968528747559e+00,1.464140295982360840e+00,1.464030742645263672e+00,1.463921189308166504e+00,1.463811755180358887e+00,1.463702082633972168e+00,1.463592648506164551e+00,1.463483214378356934e+00,1.463373661041259766e+00,1.463264226913452148e+00,1.463154792785644531e+00,1.463045477867126465e+00,1.462935924530029297e+00,1.462826609611511230e+00,1.462717175483703613e+00,1.462607979774475098e+00,1.462498545646667480e+00,1.462389349937438965e+00,1.462279915809631348e+00,1.462170720100402832e+00,1.462061405181884766e+00,1.461952209472656250e+00,1.461842775344848633e+00,1.461733579635620117e+00,1.461624383926391602e+00,1.461515188217163086e+00,1.461405992507934570e+00,1.461296796798706055e+00,1.461187720298767090e+00,1.461078763008117676e+00,1.460969567298889160e+00,1.460860490798950195e+00,1.460751414299011230e+00,1.460642457008361816e+00,1.460533261299133301e+00,1.460424304008483887e+00,1.460315346717834473e+00,1.460206389427185059e+00,1.460097432136535645e+00,1.459988474845886230e+00,1.459879517555236816e+00,1.459770560264587402e+00,1.459661722183227539e+00,1.459552764892578125e+00,1.459443926811218262e+00,1.459335088729858398e+00,1.459226250648498535e+00,1.459117531776428223e+00,1.459008693695068359e+00,1.458899974822998047e+00,1.458791017532348633e+00,1.458682417869567871e+00,1.458573579788208008e+00,1.458464860916137695e+00,1.458356142044067383e+00
1.349129557609558105e+00,1.349036693572998047e+00,1.348943591117858887e+00,1.348850607872009277e+00,1.348757624626159668e+00,1.348664641380310059e+00,1.348571658134460449e+00,1.348478794097900391e+00,1.348385810852050781e+00,1.348292946815490723e+00,1.348199963569641113e+00,1.348107099533081055e+00,1.348014116287231445e+00,1.347921371459960938e+00,1.347828507423400879e+00,1.347735643386840820e+00,1.347642779350280762e+00,1.347550034523010254e+00,1.347457170486450195e+00,1.347364425659179688e+00,1.347271561622619629e+00,1.347178936004638672e+00,1.347086071968078613e+00,1.346993327140808105e+00,1.346900582313537598e+00,1.346807837486267090e+00,1.346715211868286133e+00,1.346622467041015625e+00,1.346529841423034668e+00,1.346437096595764160e+00,1.346344470977783203e+00,1.346251845359802246e+00,1.346159219741821289e+00,1.346066594123840332e+00,1.345974087715148926e+00,1.345881462097167969e+00,1.345788836479187012e+00,1.345696210861206055e+00,1.345603823661804199e+00,1.345511198043823242e+00,1.345418691635131836e+00,1.345326185226440430e+00,1.345233678817749023e+00,1.345141172409057617e+00,1.345048785209655762e+00,1.344956159591674805e+00,1.344863772392272949e+00,1.344771385192871094e+00,1.344678878784179688e+00,1.344586491584777832e+00,1.344493985176086426e+00,1.344401717185974121e+00,1.344309210777282715e+00,1.344216704368591309e+00,1.344124436378479004e+00,1.344032049179077148e+00,1.343939781188964844e+00,1.343847393989562988e+00,1.343755245208740234e+00,1.343662977218627930e+00,1.343570590019226074e+00,1.343478441238403320e+00,1.343386173248291016e+00,1.343293905258178711e+00,1.343201637268066406e+00,1.343109488487243652e+00,1.343017220497131348e+00,1.342925190925598145e+00,1.342833042144775391e+00,1.342740774154663086e+00,1.342648744583129883e+00,1.342556595802307129e+00,1.342464447021484375e+00,1.342372298240661621e+00,1.342280268669128418e+00,1.342188119888305664e+00,1.342096090316772461e+00,1.342004060745239258e+00,1.341912031173706055e+00,1.341820001602172852e+00
1.248795747756958008e+00,1.248716115951538086e+00,1.248636364936828613e+00,1.248556733131408691e+00,1.248476982116699219e+00,1.248397350311279297e+00,1.248317718505859375e+00,1.248238086700439453e+00,1.248158454895019531e+00,1.248078823089599609e+00,1.247999191284179688e+00,1.247919678688049316e+00,1.247839927673339844e+00,1.247760415077209473e+00,1.247680783271789551e+00,1.247601270675659180e+00,1.247521758079528809e+00,1.247442126274108887e+00,1.247362613677978516e+00,1.247283101081848145e+00,1.247203588485717773e+00,1.247124075889587402e+00,1.247044682502746582e+00,1.246965169906616211e+00,1.246885657310485840e+00,1.246806144714355469e+00,1.246726751327514648e+00,1.246647238731384277e+00,1.246567964553833008e+00,1.246488451957702637e+00,1.246409058570861816e+00,1.246329665184020996e+00,1.246250271797180176e+00,1.246170878410339355e+00,1.246091604232788086e+00,1.246012210845947266e+00,1.245932817459106445e+00,1.245853424072265625e+00,1.245774149894714355e+00,1.245694875717163086e+00,1.245615482330322266e+00,1.245536208152770996e+00,1.245456933975219727e+00,1.245377659797668457e+00,1.245298385620117188e+00,1.245219111442565918e+00,1.245139837265014648e+00,1.245060682296752930e+00,1.244981408119201660e+00,1.244902253150939941e+00,1.244822978973388672e+00,1.244743824005126953e+00,1.244664549827575684e+00,1.244585394859313965e+00,1.244506239891052246e+00,1.244427084922790527e+00,1.244347929954528809e+00,1.244268655776977539e+00,1.244189500808715820e+00,1.244110465049743652e+00,1.244031310081481934e+00,1.243952274322509766e+00,1.243873119354248047e+00,1.243794083595275879e+00,1.243715047836303711e+00,1.243635892868041992e+00,1.243556976318359375e+00,1.243477821350097656e+00,1.243398904800415039e+00,1.243319869041442871e+00,1.243240833282470703e+00,1.243161797523498535e+00,1.243082880973815918e+00,1.243003964424133301e+00,1.242924928665161133e+00,1.242846012115478516e+00,1.242767095565795898e+00,1.242688179016113281e+00,1.242609262466430664e+00,1.242530345916748047e+00
1.162352323532104492e+00,1.162283420562744141e+00,1.162214279174804688e+00,1.162145256996154785e+00,1.162076234817504883e+00,1.162007212638854980e+00,1.161938190460205078e+00,1.161869168281555176e+00,1.161800265312194824e+00,1.161731123924255371e+00,1.161662220954895020e+00,1.161593198776245117e+00,1.161524295806884766e+00,1.161455273628234863e+00,1.161386370658874512e+00,1.161317467689514160e+00,1.161248564720153809e+00,1.161179542541503906e+00,1.161110758781433105e+00,1.161041736602783203e+00,1.160972952842712402e+00,1.160904049873352051e+00,1.160835146903991699e+00,1.160766243934631348e+00,1.160697460174560547e+00,1.160628557205200195e+00,1.160559773445129395e+00,1.160490870475769043e+00,1.160421967506408691e+00,1.160353183746337891e+00,1.160284399986267090e+00,1.160215616226196289e+00,1.160146713256835938e+00,1.160078048706054688e+00,1.160009145736694336e+00,1.159940481185913086e+00,1.159871578216552734e+00,1.159802913665771484e+00,1.159734129905700684e+00,1.159665465354919434e+00,1.159596681594848633e+00,1.159528017044067383e+00,1.159459233283996582e+00,1.159390568733215332e+00,1.159321784973144531e+00,1.159253120422363281e+00,1.159184455871582031e+00,1.159115791320800781e+00,1.159047126770019531e+00,1.158978462219238281e+00,1.158909797668457031e+00,1.158841133117675781e+00,1.158772468566894531e+00,1.158703923225402832e+00,1.158635258674621582e+00,1.158566594123840332e+00,1.158498048782348633e+00,1.158429384231567383e+00,1.158360838890075684e+00,1.158292293548583984e+00,1.158223748207092285e+00,1.158155083656311035e+00,1.158086657524108887e+00,1.158017873764038086e+00,1.157949447631835938e+00,1.157880783081054688e+00,1.157812356948852539e+00,1.157743930816650391e+00,1.157675385475158691e+00,1.157606840133666992e+00,1.157538294792175293e+00,1.157469868659973145e+00,1.157401442527770996e+00,1.157333016395568848e+00,1.157264471054077148e+00,1.157196044921875000e+00,1.157127618789672852e+00,1.157059192657470703e+00,1.156990766525268555e+00,1.156922340393066406e+00
1.087101697921752930e+00,1.087041258811950684e+00,1.086980819702148438e+00,1.086920499801635742e+00,1.086860060691833496e+00,1.086799740791320801e+00,1.086739420890808105e+00,1.086678981781005859e+00,1.086618661880493164e+00,1.086558222770690918e+00,1.086498022079467773e+00,1.086437582969665527e+00,1.086377263069152832e+00,1.086316943168640137e+00,1.086256742477416992e+00,1.086196303367614746e+00,1.086136102676391602e+00,1.086075782775878906e+00,1.086015462875366211e+00,1.085955142974853516e+00,1.085894942283630371e+00,1.085834622383117676e+00,1.085774421691894531e+00,1.085714101791381836e+00,1.085653901100158691e+00,1.085593700408935547e+00,1.085533380508422852e+00,1.085473179817199707e+00,1.085412979125976562e+00,1.085352778434753418e+00,1.085292577743530273e+00,1.085232377052307129e+00,1.085172176361083984e+00,1.085111975669860840e+00,1.085051774978637695e+00,1.084991693496704102e+00,1.084931492805480957e+00,1.084871411323547363e+00,1.084811210632324219e+00,1.084751009941101074e+00,1.084690809249877930e+00,1.084630727767944336e+00,1.084570646286010742e+00,1.084510564804077148e+00,1.084450364112854004e+00,1.084390282630920410e+00,1.084330201148986816e+00,1.084270000457763672e+00,1.084210038185119629e+00,1.084149837493896484e+00,1.084089875221252441e+00,1.084029793739318848e+00,1.083969712257385254e+00,1.083909630775451660e+00,1.083849668502807617e+00,1.083789587020874023e+00,1.083729624748229980e+00,1.083669543266296387e+00,1.083609580993652344e+00,1.083549499511718750e+00,1.083489537239074707e+00,1.083429455757141113e+00,1.083369493484497070e+00,1.083309531211853027e+00,1.083249568939208984e+00,1.083189606666564941e+00,1.083129644393920898e+00,1.083069682121276855e+00,1.083009481430053711e+00,1.082949638366699219e+00,1.082889556884765625e+00,1.082829713821411133e+00,1.082769870758056641e+00,1.082709908485412598e+00,1.082649946212768555e+00,1.082590103149414062e+00,1.082530140876770020e+00,1.082470297813415527e+00,1.082410454750061035e+00,1.082350492477416992e+00
1.021001935005187988e+00,1.020948648452758789e+00,1.020895481109619141e+00,1.020842194557189941e+00,1.020788908004760742e+00,1.020735621452331543e+00,1.020682454109191895e+00,1.020629167556762695e+00,1.020575881004333496e+00,1.020522713661193848e+00,1.020469427108764648e+00,1.020416259765625000e+00,1.020362973213195801e+00,1.020309805870056152e+00,1.020256519317626953e+00,1.020203351974487305e+00,1.020150184631347656e+00,1.020097017288208008e+00,1.020043730735778809e+00,1.019990682601928711e+00,1.019937396049499512e+00,1.019884347915649414e+00,1.019831061363220215e+00,1.019778013229370117e+00,1.019724845886230469e+00,1.019671678543090820e+00,1.019618511199951172e+00,1.019565463066101074e+00,1.019512295722961426e+00,1.019459128379821777e+00,1.019406080245971680e+00,1.019352912902832031e+00,1.019299864768981934e+00,1.019246697425842285e+00,1.019193649291992188e+00,1.019140481948852539e+00,1.019087433815002441e+00,1.019034385681152344e+00,1.018981337547302246e+00,1.018928170204162598e+00,1.018875122070312500e+00,1.018822073936462402e+00,1.018769025802612305e+00,1.018715977668762207e+00,1.018662929534912109e+00,1.018609881401062012e+00,1.018556952476501465e+00,1.018503904342651367e+00,1.018450856208801270e+00,1.018397808074951172e+00,1.018344879150390625e+00,1.018291831016540527e+00,1.018238902091979980e+00,1.018185853958129883e+00,1.018132925033569336e+00,1.018079876899719238e+00,1.018026947975158691e+00,1.017973899841308594e+00,1.017920970916748047e+00,1.017868041992187500e+00,1.017815113067626953e+00,1.017762184143066406e+00,1.017709136009216309e+00,1.017656207084655762e+00,1.017603278160095215e+00,1.017550349235534668e+00,1.017497420310974121e+00,1.017444610595703125e+00,1.017391681671142578e+00,1.017338752746582031e+00,1.017285823822021484e+00,1.017233014106750488e+00,1.017180085182189941e+00,1.017127037048339844e+00,1.017074227333068848e+00,1.017021298408508301e+00,1.016968488693237305e+00,1.016915678977966309e+00,1.016862750053405762e+00,1.016809940338134766e+00
9.624797701835632324e-01,9.624324440956115723e-01,9.623850584030151367e-01,9.623377919197082520e-01,9.622904062271118164e-01,9.622430801391601562e-01,9.621956944465637207e-01,9.621484875679016113e-01,9.621011614799499512e-01,9.620538353919982910e-01,9.620065093040466309e-01,9.619592428207397461e-01,9.619119763374328613e-01,9.618646502494812012e-01,9.618173241615295410e-01,9.617701172828674316e-01,9.617228507995605469e-01,9.616755247116088867e-01,9.616282582283020020e-01,9.615810513496398926e-01,9.615337848663330078e-01,9.614865183830261230e-01,9.614391922950744629e-01,9.613920450210571289e-01,9.613447785377502441e-01,9.612975120544433594e-01,9.612503051757812500e-01,9.612030386924743652e-01,9.611558914184570312e-01,9.611086249351501465e-01,9.610614180564880371e-01,9.610141515731811523e-01,9.609670639038085938e-01,9.609198570251464844e-01,9.608725905418395996e-01,9.608253836631774902e-01,9.607782959938049316e-01,9.607310891151428223e-01,9.606838822364807129e-01,9.606366753578186035e-01,9.605896472930908203e-01,9.605424404144287109e-01,9.604952335357666016e-01,9.604480862617492676e-01,9.604009985923767090e-01,9.603538513183593750e-01,9.603067040443420410e-01,9.602594971656799316e-01,9.602124691009521484e-01,9.601653218269348145e-01,9.601181745529174805e-01,9.600710272789001465e-01,9.600238800048828125e-01,9.599768519401550293e-01,9.599297642707824707e-01,9.598826169967651367e-01,9.598355293273925781e-01,9.597885012626647949e-01,9.597414135932922363e-01,9.596943259239196777e-01,9.596471786499023438e-01,9.596002101898193359e-01,9.595531225204467773e-01,9.595060348510742188e-01,9.594589471817016602e-01,9.594119787216186523e-01,9.593648910522460938e-01,9.593178629875183105e-01,9.592707753181457520e-01,9.592238664627075195e-01,9.591767787933349609e-01,9.591297507286071777e-01,9.590826630592346191e-01,9.590357542037963867e-01,9.589887261390686035e-01,9.589416980743408203e-01,9.588946700096130371e-01,9.588477611541748047e-01,9.588007330894470215e-01,9.587536454200744629e-01
9.103026390075683594e-01,9.102603197097778320e-01,9.102180004119873047e-01,9.101756215095520020e-01,9.101332426071166992e-01,9.100909829139709473e-01,9.100486040115356445e-01,9.100062847137451172e-01,9.099639058113098145e-01,9.099217057228088379e-01,9.098793268203735352e-01,9.098370075225830078e-01,9.097946882247924805e-01,9.097524285316467285e-01,9.097101092338562012e-01,9.096677899360656738e-01,9.096254706382751465e-01,9.095831513404846191e-01,9.095409512519836426e-01,9.094986319541931152e-01,9.094563722610473633e-01,9.094140529632568359e-01,9.093718528747558594e-01,9.093295931816101074e-01,9.092872738838195801e-01,9.092450141906738281e-01,9.092028141021728516e-01,9.091605544090270996e-01,9.091182947158813477e-01,9.090760350227355957e-01,9.090338349342346191e-01,9.089915752410888672e-01,9.089493155479431152e-01,9.089071154594421387e-01,9.088649153709411621e-01,9.088227152824401855e-01,9.087804555892944336e-01,9.087382555007934570e-01,9.086961150169372559e-01,9.086538553237915039e-01,9.086116552352905273e-01,9.085694551467895508e-01,9.085271954536437988e-01,9.084851145744323730e-01,9.084429144859313965e-01,9.084007143974304199e-01,9.083585143089294434e-01,9.083163738250732422e-01,9.082742333412170410e-01,9.082320332527160645e-01,9.081898331642150879e-01,9.081477522850036621e-01,9.081056118011474609e-01,9.080634117126464844e-01,9.080212712287902832e-01,9.079791903495788574e-01,9.079370498657226562e-01,9.078948497772216797e-01,9.078527092933654785e-01,9.078106880187988281e-01,9.077684879302978516e-01,9.077263474464416504e-01,9.076842665672302246e-01,9.076421856880187988e-01,9.076001048088073730e-01,9.075579643249511719e-01,9.075158238410949707e-01,9.074738025665283203e-01,9.074317216873168945e-01,9.073895812034606934e-01,9.073475003242492676e-01,9.073053598403930664e-01,9.072633981704711914e-01,9.072213172912597656e-01,9.071792364120483398e-01,9.071370959281921387e-01,9.070951342582702637e-01,9.070530533790588379e-01,9.070109724998474121e-01,9.069689512252807617e-01
8.634918332099914551e-01,8.634536862373352051e-01,8.634155392646789551e-01,8.633775115013122559e-01,8.633394241333007812e-01,8.633012771606445312e-01,8.632631897926330566e-01,8.632250428199768066e-01,8.631870746612548828e-01,8.631489276885986328e-01,8.631108403205871582e-01,8.630727529525756836e-01,8.630347251892089844e-01,8.629966378211975098e-01,8.629585504531860352e-01,8.629204630851745605e-01,8.628824949264526367e-01,8.628444075584411621e-01,8.628063201904296875e-01,8.627682924270629883e-01,8.627303242683410645e-01,8.626922369003295898e-01,8.626542091369628906e-01,8.626161217689514160e-01,8.625781536102294922e-01,8.625401258468627930e-01,8.625020384788513184e-01,8.624640107154846191e-01,8.624261021614074707e-01,8.623880147933959961e-01,8.623499870300292969e-01,8.623119592666625977e-01,8.622739315032958984e-01,8.622360229492187500e-01,8.621979951858520508e-01,8.621599674224853516e-01,8.621219396591186523e-01,8.620840311050415039e-01,8.620460629463195801e-01,8.620080351829528809e-01,8.619700074195861816e-01,8.619321584701538086e-01,8.618941307067871094e-01,8.618561625480651855e-01,8.618181943893432617e-01,8.617802858352661133e-01,8.617423176765441895e-01,8.617042899131774902e-01,8.616663217544555664e-01,8.616284728050231934e-01,8.615905046463012695e-01,8.615525364875793457e-01,8.615145683288574219e-01,8.614767193794250488e-01,8.614387512207031250e-01,8.614007830619812012e-01,8.613628745079040527e-01,8.613250255584716797e-01,8.612870573997497559e-01,8.612491488456726074e-01,8.612111806869506836e-01,8.611732721328735352e-01,8.611354231834411621e-01,8.610975146293640137e-01,8.610596060752868652e-01,8.610216975212097168e-01,8.609838485717773438e-01,8.609459400177001953e-01,8.609080314636230469e-01,8.608701229095458984e-01,8.608323335647583008e-01,8.607944250106811523e-01,8.607565760612487793e-01,8.607186675071716309e-01,8.606808781623840332e-01,8.606429696083068848e-01,8.606051206588745117e-01,8.605672121047973633e-01,8.605294227600097656e-01,8.604915738105773926e-01
