3.096130132675170898e+00,3.174334049224853516e+00,3.256591081619262695e+00,3.343224525451660156e+00,3.434592962265014648e+00,3.531095981597900391e+00,3.633178949356079102e+00,3.741339921951293945e+00,3.856138467788696289e+00,3.978204727172851562e+00,4.108252525329589844e+00,4.247089385986328125e+00,4.395638465881347656e+00,4.554955482482910156e+00,5.000000000000000000e+00,5.000000000000000000e+00,5.000000000000000000e+00,5.000000000000000000e+00,5.000000000000000000e+00,5.000000000000000000e+00,5.000000000000000000e+00,5.000000000000000000e+00,5.000000000000000000e+00,5.000000000000000000e+00,5.000000000000000000e+00,5.000000000000000000e+00,5.000000000000000000e+00,5.000000000000000000e+00,5.000000000000000000e+00,5.000000000000000000e+00,5.000000000000000000e+00,5.000000000000000000e+00,5.000000000000000000e+00,5.000000000000000000e+00,5.000000000000000000e+00,5.000000000000000000e+00,5.000000000000000000e+00,5.000000000000000000e+00,5.000000000000000000e+00,5.000000000000000000e+00,5.000000000000000000e+00,1.130945801734924316e+00,1.098669648170471191e+00,1.090703725814819336e+00,1.100505352020263672e+00,1.105143070220947266e+00,1.080723047256469727e+00,1.060394525527954102e+00,1.042406201362609863e+00,1.039182066917419434e+00,1.038252592086791992e+00,1.037704110145568848e+00,1.037156343460083008e+00,1.036609172821044922e+00,1.213562488555908203e+00,1.219194293022155762e+00,1.381898760795593262e+00,5.000000000000000000e+00,5.000000000000000000e+00,5.000000000000000000e+00,5.000000000000000000e+00,5.000000000000000000e+00,5.000000000000000000e+00,5.000000000000000000e+00,5.000000000000000000e+00,5.000000000000000000e+00,5.000000000000000000e+00,5.000000000000000000e+00,5.000000000000000000e+00,5.000000000000000000e+00,5.000000000000000000e+00,5.000000000000000000e+00,4.548407077789306641e+00,4.408136844635009766e+00,4.276259422302246094e+00,4.152043342590332031e+00,4.034795284271240234e+00,3.923985004425048828e+00,3.819098711013793945e+00,3.719673156738281250e+00
3.096070051193237305e+00,3.174270868301391602e+00,3.256524324417114258e+00,3.343154191970825195e+00,3.434518814086914062e+00,3.531017780303955078e+00,3.633095979690551758e+00,3.741252422332763672e+00,3.856045484542846680e+00,3.978105783462524414e+00,4.108146190643310547e+00,4.246975898742675781e+00,4.395516872406005859e+00,4.554824829101562500e+00,4.726115226745605469e+00,5.000000000000000000e+00,5.000000000000000000e+00,5.000000000000000000e+00,5.000000000000000000e+00,5.000000000000000000e+00,5.000000000000000000e+00,5.000000000000000000e+00,5.000000000000000000e+00,5.000000000000000000e+00,5.000000000000000000e+00,5.000000000000000000e+00,5.000000000000000000e+00,5.000000000000000000e+00,5.000000000000000000e+00,5.000000000000000000e+00,5.000000000000000000e+00,5.000000000000000000e+00,5.000000000000000000e+00,5.000000000000000000e+00,5.000000000000000000e+00,5.000000000000000000e+00,5.000000000000000000e+00,5.000000000000000000e+00,5.000000000000000000e+00,5.000000000000000000e+00,5.000000000000000000e+00,5.000000000000000000e+00,1.103172540664672852e+00,1.091379284858703613e+00,1.090801119804382324e+00,1.107184052467346191e+00,1.080313324928283691e+00,1.062509298324584961e+00,1.044600367546081543e+00,1.033043622970581055e+00,1.031557679176330566e+00,1.030325293540954590e+00,1.029785275459289551e+00,1.029245853424072266e+00,1.093921780586242676e+00,1.204290986061096191e+00,1.209828495979309082e+00,5.000000000000000000e+00,5.000000000000000000e+00,5.000000000000000000e+00,5.000000000000000000e+00,5.000000000000000000e+00,5.000000000000000000e+00,5.000000000000000000e+00,5.000000000000000000e+00,5.000000000000000000e+00,5.000000000000000000e+00,5.000000000000000000e+00,5.000000000000000000e+00,5.000000000000000000e+00,5.000000000000000000e+00,4.698103427886962891e+00,4.548600196838378906e+00,4.408318042755126953e+00,4.276425838470458984e+00,4.152150154113769531e+00,4.034893989562988281e+00,3.924078226089477539e+00,3.819186925888061523e+00,3.719756841659545898e+00
3.096006155014038086e+00,3.174207448959350586e+00,3.256457805633544922e+00,3.343083858489990234e+00,3.434444665908813477e+00,3.530939817428588867e+00,3.633013486862182617e+00,3.741164445877075195e+00,3.855952024459838867e+00,3.978006362915039062e+00,4.108040332794189453e+00,4.246862411499023438e+00,4.395395278930664062e+00,4.554694652557373047e+00,4.725975036621093750e+00,4.910640716552734375e+00,5.000000000000000000e+00,5.000000000000000000e+00,5.000000000000000000e+00,5.000000000000000000e+00,5.000000000000000000e+00,5.000000000000000000e+00,5.000000000000000000e+00,5.000000000000000000e+00,5.000000000000000000e+00,5.000000000000000000e+00,5.000000000000000000e+00,5.000000000000000000e+00,5.000000000000000000e+00,5.000000000000000000e+00,5.000000000000000000e+00,5.000000000000000000e+00,5.000000000000000000e+00,5.000000000000000000e+00,5.000000000000000000e+00,5.000000000000000000e+00,5.000000000000000000e+00,5.000000000000000000e+00,5.000000000000000000e+00,5.000000000000000000e+00,5.000000000000000000e+00,5.000000000000000000e+00,1.102225184440612793e+00,1.082838416099548340e+00,1.072778820991516113e+00,1.075138807296752930e+00,1.082508444786071777e+00,1.064632534980773926e+00,1.046803832054138184e+00,1.028521656990051270e+00,1.025508761405944824e+00,1.024044275283813477e+00,1.022583961486816406e+00,1.021986365318298340e+00,1.054788112640380859e+00,1.193436741828918457e+00,1.199642658233642578e+00,1.378880977630615234e+00,5.000000000000000000e+00,5.000000000000000000e+00,5.000000000000000000e+00,5.000000000000000000e+00,5.000000000000000000e+00,5.000000000000000000e+00,5.000000000000000000e+00,5.000000000000000000e+00,5.000000000000000000e+00,5.000000000000000000e+00,5.000000000000000000e+00,5.000000000000000000e+00,4.857989311218261719e+00,4.698309421539306641e+00,4.548792839050292969e+00,4.408487796783447266e+00,4.276536464691162109e+00,4.152254581451416016e+00,4.034992218017578125e+00,3.924171447753906250e+00,3.819275140762329102e+00,3.719840526580810547e+00
3.095940351486206055e+00,3.174140691757202148e+00,3.256391286849975586e+00,3.343014001846313477e+00,3.434370994567871094e+00,3.530861377716064453e+00,3.632930517196655273e+00,3.741076231002807617e+00,3.855858325958251953e+00,3.977906703948974609e+00,4.107934474945068359e+00,4.246749401092529297e+00,4.395274162292480469e+00,4.554564476013183594e+00,4.725834369659423828e+00,4.910489082336425781e+00,5.000000000000000000e+00,5.000000000000000000e+00,5.000000000000000000e+00,5.000000000000000000e+00,5.000000000000000000e+00,5.000000000000000000e+00,5.000000000000000000e+00,5.000000000000000000e+00,5.000000000000000000e+00,5.000000000000000000e+00,5.000000000000000000e+00,5.000000000000000000e+00,5.000000000000000000e+00,5.000000000000000000e+00,5.000000000000000000e+00,5.000000000000000000e+00,5.000000000000000000e+00,5.000000000000000000e+00,5.000000000000000000e+00,5.000000000000000000e+00,5.000000000000000000e+00,5.000000000000000000e+00,5.000000000000000000e+00,5.000000000000000000e+00,5.000000000000000000e+00,5.000000000000000000e+00,1.098714590072631836e+00,1.076626300811767578e+00,1.063138008117675781e+00,1.054522514343261719e+00,1.068616509437561035e+00,1.066764116287231445e+00,1.049016356468200684e+00,1.030657768249511719e+00,1.019530415534973145e+00,1.018082976341247559e+00,1.016639590263366699e+00,1.015200257301330566e+00,1.018357515335083008e+00,1.189105391502380371e+00,1.194711923599243164e+00,1.368875741958618164e+00,5.000000000000000000e+00,5.000000000000000000e+00,5.000000000000000000e+00,5.000000000000000000e+00,5.000000000000000000e+00,5.000000000000000000e+00,5.000000000000000000e+00,5.000000000000000000e+00,5.000000000000000000e+00,5.000000000000000000e+00,5.000000000000000000e+00,5.000000000000000000e+00,4.858209133148193359e+00,4.698515415191650391e+00,4.548965930938720703e+00,4.408605098724365234e+00,4.276647090911865234e+00,4.152359008789062500e+00,4.035090923309326172e+00,3.924264669418334961e+00,3.819363355636596680e+00,3.719924211502075195e+00
3.095874309539794922e+00,3.174071311950683594e+00,3.256320953369140625e+00,3.342943668365478516e+00,3.434296607971191406e+00,3.530782938003540039e+00,3.632847547531127930e+00,3.740988254547119141e+00,3.855764865875244141e+00,3.977807283401489258e+00,4.107828140258789062e+00,4.246635913848876953e+00,4.395152568817138672e+00,4.554433822631835938e+00,4.725694179534912109e+00,4.910337448120117188e+00,5.000000000000000000e+00,5.000000000000000000e+00,5.000000000000000000e+00,5.000000000000000000e+00,5.000000000000000000e+00,5.000000000000000000e+00,5.000000000000000000e+00,5.000000000000000000e+00,5.000000000000000000e+00,5.000000000000000000e+00,5.000000000000000000e+00,5.000000000000000000e+00,5.000000000000000000e+00,5.000000000000000000e+00,5.000000000000000000e+00,5.000000000000000000e+00,5.000000000000000000e+00,5.000000000000000000e+00,5.000000000000000000e+00,5.000000000000000000e+00,5.000000000000000000e+00,5.000000000000000000e+00,5.000000000000000000e+00,5.000000000000000000e+00,5.000000000000000000e+00,5.000000000000000000e+00,1.096129775047302246e+00,1.070865869522094727e+00,1.056480884552001953e+00,1.046284794807434082e+00,1.075904130935668945e+00,1.061881303787231445e+00,1.051238536834716797e+00,1.032802700996398926e+00,1.015002250671386719e+00,1.012085080146789551e+00,1.010458946228027344e+00,1.008838057518005371e+00,1.007222294807434082e+00,1.059016108512878418e+00,1.191875576972961426e+00,1.369898438453674316e+00,5.000000000000000000e+00,5.000000000000000000e+00,5.000000000000000000e+00,5.000000000000000000e+00,5.000000000000000000e+00,5.000000000000000000e+00,5.000000000000000000e+00,5.000000000000000000e+00,5.000000000000000000e+00,5.000000000000000000e+00,5.000000000000000000e+00,5.000000000000000000e+00,4.858429431915283203e+00,4.698691368103027344e+00,4.549090862274169922e+00,4.408722877502441406e+00,4.276757717132568359e+00,4.152463436126708984e+00,4.035189151763916016e+00,3.924357652664184570e+00,3.819451570510864258e+00,3.720008134841918945e+00
3.095808029174804688e+00,3.174001693725585938e+00,3.256247758865356445e+00,3.342869758605957031e+00,3.434222459793090820e+00,3.530704498291015625e+00,3.632764577865600586e+00,3.740900278091430664e+00,3.855671405792236328e+00,3.977707862854003906e+00,4.107722282409667969e+00,4.246522426605224609e+00,4.395030975341796875e+00,4.554303646087646484e+00,4.725553989410400391e+00,4.910186290740966797e+00,5.000000000000000000e+00,5.000000000000000000e+00,5.000000000000000000e+00,5.000000000000000000e+00,5.000000000000000000e+00,5.000000000000000000e+00,5.000000000000000000e+00,5.000000000000000000e+00,5.000000000000000000e+00,5.000000000000000000e+00,5.000000000000000000e+00,5.000000000000000000e+00,5.000000000000000000e+00,5.000000000000000000e+00,5.000000000000000000e+00,5.000000000000000000e+00,5.000000000000000000e+00,5.000000000000000000e+00,5.000000000000000000e+00,5.000000000000000000e+00,5.000000000000000000e+00,5.000000000000000000e+00,5.000000000000000000e+00,5.000000000000000000e+00,5.000000000000000000e+00,5.000000000000000000e+00,1.092566967010498047e+00,1.068348407745361328e+00,1.051260113716125488e+00,1.053430676460266113e+00,1.034799456596374512e+00,1.056029319763183594e+00,1.053470015525817871e+00,1.034956455230712891e+00,1.017354726791381836e+00,1.004762172698974609e+00,1.003122210502624512e+00,1.001524806022644043e+00,9.999324679374694824e-01,1.026253819465637207e+00,1.190714597702026367e+00,1.276452779769897461e+00,5.000000000000000000e+00,5.000000000000000000e+00,5.000000000000000000e+00,5.000000000000000000e+00,5.000000000000000000e+00,5.000000000000000000e+00,5.000000000000000000e+00,5.000000000000000000e+00,5.000000000000000000e+00,5.000000000000000000e+00,5.000000000000000000e+00,5.000000000000000000e+00,4.858608722686767578e+00,4.698824882507324219e+00,4.549216270446777344e+00,4.408840179443359375e+00,4.276868343353271484e+00,4.152567386627197266e+00,4.035287857055664062e+00,3.924450874328613281e+00,3.819539785385131836e+00,3.720091819763183594e+00
3.095741987228393555e+00,3.173932313919067383e+00,3.256174802780151367e+00,3.342792510986328125e+00,3.434144496917724609e+00,3.530626058578491211e+00,3.632681369781494141e+00,3.740812301635742188e+00,3.855577945709228516e+00,3.977608203887939453e+00,4.107615947723388672e+00,4.246409416198730469e+00,4.394909858703613281e+00,4.554173469543457031e+00,4.725413799285888672e+00,4.910034656524658203e+00,5.000000000000000000e+00,5.000000000000000000e+00,5.000000000000000000e+00,5.000000000000000000e+00,5.000000000000000000e+00,5.000000000000000000e+00,5.000000000000000000e+00,5.000000000000000000e+00,5.000000000000000000e+00,5.000000000000000000e+00,5.000000000000000000e+00,5.000000000000000000e+00,5.000000000000000000e+00,5.000000000000000000e+00,5.000000000000000000e+00,5.000000000000000000e+00,5.000000000000000000e+00,5.000000000000000000e+00,5.000000000000000000e+00,5.000000000000000000e+00,5.000000000000000000e+00,5.000000000000000000e+00,5.000000000000000000e+00,5.000000000000000000e+00,5.000000000000000000e+00,5.000000000000000000e+00,1.093079924583435059e+00,1.066952824592590332e+00,1.046388626098632812e+00,5.000000000000000000e+00,1.026654839515686035e+00,1.080434918403625488e+00,1.055638074874877930e+00,1.037363290786743164e+00,1.019773960113525391e+00,1.001689314842224121e+00,9.958914518356323242e-01,9.943169355392456055e-01,9.927473068237304688e-01,1.000581026077270508e+00,1.189555764198303223e+00,1.230652570724487305e+00,1.361923813819885254e+00,5.000000000000000000e+00,5.000000000000000000e+00,5.000000000000000000e+00,5.000000000000000000e+00,5.000000000000000000e+00,5.000000000000000000e+00,5.000000000000000000e+00,5.000000000000000000e+00,5.000000000000000000e+00,5.000000000000000000e+00,5.000000000000000000e+00,4.858751773834228516e+00,4.698958396911621094e+00,4.549341678619384766e+00,4.408957958221435547e+00,4.276978969573974609e+00,4.152671813964843750e+00,4.035386562347412109e+00,3.924544095993041992e+00,3.819628238677978516e+00,3.720175504684448242e+00
3.095676183700561523e+00,3.173862934112548828e+00,3.256101608276367188e+00,3.342715501785278320e+00,3.434063434600830078e+00,3.530544042587280273e+00,3.632598400115966797e+00,3.740724325180053711e+00,3.855484962463378906e+00,3.977509260177612305e+00,4.107510089874267578e+00,4.246295928955078125e+00,4.394788265228271484e+00,4.554042816162109375e+00,4.725273132324218750e+00,4.909883022308349609e+00,5.000000000000000000e+00,5.000000000000000000e+00,5.000000000000000000e+00,5.000000000000000000e+00,5.000000000000000000e+00,5.000000000000000000e+00,5.000000000000000000e+00,5.000000000000000000e+00,5.000000000000000000e+00,5.000000000000000000e+00,5.000000000000000000e+00,5.000000000000000000e+00,5.000000000000000000e+00,5.000000000000000000e+00,5.000000000000000000e+00,5.000000000000000000e+00,5.000000000000000000e+00,5.000000000000000000e+00,5.000000000000000000e+00,5.000000000000000000e+00,5.000000000000000000e+00,5.000000000000000000e+00,5.000000000000000000e+00,5.000000000000000000e+00,5.000000000000000000e+00,5.000000000000000000e+00,1.092634320259094238e+00,1.063326716423034668e+00,5.000000000000000000e+00,1.037341356277465820e+00,1.027410984039306641e+00,1.017207145690917969e+00,1.060718774795532227e+00,1.039878606796264648e+00,1.022204637527465820e+00,1.004611492156982422e+00,9.917035698890686035e-01,9.872120022773742676e-01,9.856646656990051270e-01,9.841222167015075684e-01,1.032165884971618652e+00,1.193874835968017578e+00,1.332646131515502930e+00,5.000000000000000000e+00,5.000000000000000000e+00,5.000000000000000000e+00,5.000000000000000000e+00,5.000000000000000000e+00,5.000000000000000000e+00,5.000000000000000000e+00,5.000000000000000000e+00,5.000000000000000000e+00,5.000000000000000000e+00,5.000000000000000000e+00,4.858894348144531250e+00,4.699092388153076172e+00,4.549466609954833984e+00,4.409075736999511719e+00,4.277090072631835938e+00,4.152776241302490234e+00,4.035484790802001953e+00,3.924637317657470703e+00,3.819716453552246094e+00,3.720259189605712891e+00
3.095609903335571289e+00,3.173793315887451172e+00,3.256028652191162109e+00,3.342638731002807617e+00,3.433982133865356445e+00,3.530457973480224609e+00,3.632511615753173828e+00,3.740636825561523438e+00,3.855391502380371094e+00,3.977409839630126953e+00,4.107404232025146484e+00,4.246182441711425781e+00,4.394667148590087891e+00,4.553912639617919922e+00,4.725132942199707031e+00,4.909731864929199219e+00,5.000000000000000000e+00,5.000000000000000000e+00,5.000000000000000000e+00,5.000000000000000000e+00,5.000000000000000000e+00,5.000000000000000000e+00,5.000000000000000000e+00,5.000000000000000000e+00,5.000000000000000000e+00,5.000000000000000000e+00,5.000000000000000000e+00,5.000000000000000000e+00,5.000000000000000000e+00,5.000000000000000000e+00,5.000000000000000000e+00,5.000000000000000000e+00,5.000000000000000000e+00,5.000000000000000000e+00,5.000000000000000000e+00,5.000000000000000000e+00,5.000000000000000000e+00,5.000000000000000000e+00,5.000000000000000000e+00,5.000000000000000000e+00,5.000000000000000000e+00,5.000000000000000000e+00,5.000000000000000000e+00,1.089276790618896484e+00,1.056637048721313477e+00,1.027683258056640625e+00,5.000000000000000000e+00,1.091123461723327637e+00,1.066576361656188965e+00,1.043259620666503906e+00,1.024646878242492676e+00,1.007482409477233887e+00,9.885364174842834473e-01,9.829238057136535645e-01,9.786824584007263184e-01,9.771617650985717773e-01,1.008090853691101074e+00,1.192709803581237793e+00,1.323447108268737793e+00,1.350074529647827148e+00,5.000000000000000000e+00,5.000000000000000000e+00,5.000000000000000000e+00,5.000000000000000000e+00,5.000000000000000000e+00,5.000000000000000000e+00,5.000000000000000000e+00,5.000000000000000000e+00,5.000000000000000000e+00,5.000000000000000000e+00,4.859037399291992188e+00,4.699225902557373047e+00,4.549592018127441406e+00,4.409193038940429688e+00,4.277200698852539062e+00,4.152880668640136719e+00,4.035583496093750000e+00,3.924730539321899414e+00,3.819801568984985352e+00,3.720337152481079102e+00
3.095543861389160156e+00,3.173723936080932617e+00,3.255955696105957031e+00,3.342561721801757812e+00,3.433900594711303711e+00,3.530372142791748047e+00,3.632420778274536133e+00,3.740544557571411133e+00,3.855298042297363281e+00,3.977310180664062500e+00,4.107297897338867188e+00,4.246069431304931641e+00,4.394545555114746094e+00,4.553782463073730469e+00,4.724992752075195312e+00,4.909580230712890625e+00,5.000000000000000000e+00,5.000000000000000000e+00,5.000000000000000000e+00,5.000000000000000000e+00,5.000000000000000000e+00,5.000000000000000000e+00,5.000000000000000000e+00,5.000000000000000000e+00,5.000000000000000000e+00,5.000000000000000000e+00,5.000000000000000000e+00,5.000000000000000000e+00,5.000000000000000000e+00,5.000000000000000000e+00,5.000000000000000000e+00,5.000000000000000000e+00,5.000000000000000000e+00,5.000000000000000000e+00,5.000000000000000000e+00,5.000000000000000000e+00,5.000000000000000000e+00,5.000000000000000000e+00,5.000000000000000000e+00,5.000000000000000000e+00,5.000000000000000000e+00,5.000000000000000000e+00,5.000000000000000000e+00,1.077192783355712891e+00,1.044040203094482422e+00,1.022211194038391113e+00,5.000000000000000000e+00,5.000000000000000000e+00,1.072498917579650879e+00,1.048925518989562988e+00,1.027100801467895508e+00,1.009854793548583984e+00,9.913823604583740234e-01,9.789797663688659668e-01,9.742980003356933594e-01,9.702990055084228516e-01,9.846350550651550293e-01,1.022400379180908203e+00,1.324407696723937988e+00,1.347101449966430664e+00,5.000000000000000000e+00,5.000000000000000000e+00,5.000000000000000000e+00,5.000000000000000000e+00,5.000000000000000000e+00,5.000000000000000000e+00,5.000000000000000000e+00,5.000000000000000000e+00,5.000000000000000000e+00,5.000000000000000000e+00,4.859179973602294922e+00,4.699359416961669922e+00,4.549716949462890625e+00,4.409310817718505859e+00,4.277311325073242188e+00,4.152981758117675781e+00,4.035675525665283203e+00,3.924814939498901367e+00,3.819881677627563477e+00,3.720412969589233398e+00
3.095477819442749023e+00,3.173654794692993164e+00,3.255882263183593750e+00,3.342484474182128906e+00,3.433819532394409180e+00,3.530286312103271484e+00,3.632329940795898438e+00,3.740447759628295898e+00,3.855200052261352539e+00,3.977210760116577148e+00,4.107192039489746094e+00,4.245955944061279297e+00,4.394424438476562500e+00,4.553651809692382812e+00,4.724852561950683594e+00,4.909428596496582031e+00,5.000000000000000000e+00,5.000000000000000000e+00,5.000000000000000000e+00,5.000000000000000000e+00,5.000000000000000000e+00,5.000000000000000000e+00,5.000000000000000000e+00,5.000000000000000000e+00,5.000000000000000000e+00,5.000000000000000000e+00,5.000000000000000000e+00,5.000000000000000000e+00,5.000000000000000000e+00,5.000000000000000000e+00,5.000000000000000000e+00,5.000000000000000000e+00,5.000000000000000000e+00,5.000000000000000000e+00,5.000000000000000000e+00,5.000000000000000000e+00,5.000000000000000000e+00,5.000000000000000000e+00,5.000000000000000000e+00,5.000000000000000000e+00,5.000000000000000000e+00,5.000000000000000000e+00,5.000000000000000000e+00,5.000000000000000000e+00,5.000000000000000000e+00,5.000000000000000000e+00,5.000000000000000000e+00,5.000000000000000000e+00,1.077106714248657227e+00,1.054653167724609375e+00,1.031849384307861328e+00,1.012238383293151855e+00,9.942445755004882812e-01,9.757243394851684570e-01,9.704228043556213379e-01,9.658223390579223633e-01,9.620579481124877930e-01,9.987735748291015625e-01,1.402676343917846680e+00,1.370430350303649902e+00,1.334406971931457520e+00,5.000000000000000000e+00,5.000000000000000000e+00,5.000000000000000000e+00,5.000000000000000000e+00,5.000000000000000000e+00,5.000000000000000000e+00,5.000000000000000000e+00,5.000000000000000000e+00,5.000000000000000000e+00,4.859323024749755859e+00,4.699492931365966797e+00,4.549839973449707031e+00,4.409421920776367188e+00,4.277411937713623047e+00,4.153076648712158203e+00,4.035765171051025391e+00,3.924899339675903320e+00,3.819961786270141602e+00,3.720489025115966797e+00
3.095412015914916992e+00,3.173584938049316406e+00,3.255809307098388672e+00,3.342407464981079102e+00,3.433738231658935547e+00,3.530200242996215820e+00,3.632238626480102539e+00,3.740351676940917969e+00,3.855097770690917969e+00,3.977107048034667969e+00,4.107086181640625000e+00,4.245842456817626953e+00,4.394302845001220703e+00,4.553521633148193359e+00,4.724712371826171875e+00,4.909277439117431641e+00,5.000000000000000000e+00,5.000000000000000000e+00,5.000000000000000000e+00,5.000000000000000000e+00,5.000000000000000000e+00,5.000000000000000000e+00,5.000000000000000000e+00,5.000000000000000000e+00,5.000000000000000000e+00,5.000000000000000000e+00,5.000000000000000000e+00,5.000000000000000000e+00,5.000000000000000000e+00,5.000000000000000000e+00,5.000000000000000000e+00,5.000000000000000000e+00,5.000000000000000000e+00,5.000000000000000000e+00,5.000000000000000000e+00,5.000000000000000000e+00,5.000000000000000000e+00,5.000000000000000000e+00,5.000000000000000000e+00,5.000000000000000000e+00,5.000000000000000000e+00,5.000000000000000000e+00,5.000000000000000000e+00,5.000000000000000000e+00,5.000000000000000000e+00,5.000000000000000000e+00,5.000000000000000000e+00,5.000000000000000000e+00,5.000000000000000000e+00,1.058454990386962891e+00,1.037105321884155273e+00,1.015320301055908203e+00,9.971234798431396484e-01,9.784967303276062012e-01,9.670572876930236816e-01,9.629802703857421875e-01,9.589376449584960938e-01,9.788558483123779297e-01,5.000000000000000000e+00,1.373607516288757324e+00,1.333194255828857422e+00,5.000000000000000000e+00,5.000000000000000000e+00,5.000000000000000000e+00,5.000000000000000000e+00,5.000000000000000000e+00,5.000000000000000000e+00,5.000000000000000000e+00,5.000000000000000000e+00,5.000000000000000000e+00,4.859459400177001953e+00,4.699615955352783203e+00,4.549953460693359375e+00,4.409528732299804688e+00,4.277512550354003906e+00,4.153171062469482422e+00,4.035854339599609375e+00,3.924983978271484375e+00,3.820041656494140625e+00,3.720564842224121094e+00
3.095345735549926758e+00,3.173515796661376953e+00,3.255736351013183594e+00,3.342330694198608398e+00,3.433656692504882812e+00,3.530114412307739258e+00,3.632147789001464844e+00,3.740255355834960938e+00,3.854995012283325195e+00,3.976997852325439453e+00,4.106975555419921875e+00,4.245729446411132812e+00,4.394181728363037109e+00,4.553391456604003906e+00,4.724571704864501953e+00,4.909125804901123047e+00,5.000000000000000000e+00,5.000000000000000000e+00,5.000000000000000000e+00,5.000000000000000000e+00,5.000000000000000000e+00,5.000000000000000000e+00,5.000000000000000000e+00,5.000000000000000000e+00,5.000000000000000000e+00,5.000000000000000000e+00,5.000000000000000000e+00,5.000000000000000000e+00,5.000000000000000000e+00,5.000000000000000000e+00,5.000000000000000000e+00,5.000000000000000000e+00,5.000000000000000000e+00,5.000000000000000000e+00,5.000000000000000000e+00,5.000000000000000000e+00,5.000000000000000000e+00,5.000000000000000000e+00,5.000000000000000000e+00,5.000000000000000000e+00,5.000000000000000000e+00,5.000000000000000000e+00,5.000000000000000000e+00,5.000000000000000000e+00,5.000000000000000000e+00,5.000000000000000000e+00,5.000000000000000000e+00,5.000000000000000000e+00,5.000000000000000000e+00,5.000000000000000000e+00,1.040438294410705566e+00,1.019802212715148926e+00,1.000018954277038574e+00,9.815695881843566895e-01,9.672704935073852539e-01,9.618454575538635254e-01,9.578122496604919434e-01,9.767688512802124023e-01,5.000000000000000000e+00,1.393369197845458984e+00,1.362827777862548828e+00,5.000000000000000000e+00,5.000000000000000000e+00,5.000000000000000000e+00,5.000000000000000000e+00,5.000000000000000000e+00,5.000000000000000000e+00,5.000000000000000000e+00,5.000000000000000000e+00,5.000000000000000000e+00,4.859588623046875000e+00,4.699737071990966797e+00,4.550066947937011719e+00,4.409635543823242188e+00,4.277612686157226562e+00,4.153265476226806641e+00,4.035943984985351562e+00,3.925068378448486328e+00,3.820121765136718750e+00,3.720640897750854492e+00
3.095279693603515625e+00,3.173446416854858398e+00,3.255663156509399414e+00,3.342253446578979492e+00,3.433575630187988281e+00,3.530028581619262695e+00,3.632057189941406250e+00,3.740158557891845703e+00,3.854892730712890625e+00,3.976888895034790039e+00,4.106859207153320312e+00,4.245611190795898438e+00,4.394060134887695312e+00,4.553261280059814453e+00,4.724431514739990234e+00,4.908974170684814453e+00,5.000000000000000000e+00,5.000000000000000000e+00,5.000000000000000000e+00,5.000000000000000000e+00,5.000000000000000000e+00,5.000000000000000000e+00,5.000000000000000000e+00,5.000000000000000000e+00,5.000000000000000000e+00,5.000000000000000000e+00,5.000000000000000000e+00,5.000000000000000000e+00,5.000000000000000000e+00,5.000000000000000000e+00,5.000000000000000000e+00,5.000000000000000000e+00,5.000000000000000000e+00,5.000000000000000000e+00,5.000000000000000000e+00,5.000000000000000000e+00,5.000000000000000000e+00,5.000000000000000000e+00,5.000000000000000000e+00,5.000000000000000000e+00,5.000000000000000000e+00,5.000000000000000000e+00,5.000000000000000000e+00,5.000000000000000000e+00,5.000000000000000000e+00,5.000000000000000000e+00,5.000000000000000000e+00,5.000000000000000000e+00,5.000000000000000000e+00,5.000000000000000000e+00,1.043792486190795898e+00,1.023112177848815918e+00,1.003362655639648438e+00,9.846963882446289062e-01,9.682878851890563965e-01,9.622396230697631836e-01,9.566895365715026855e-01,9.736159443855285645e-01,9.965139031410217285e-01,5.000000000000000000e+00,5.000000000000000000e+00,5.000000000000000000e+00,5.000000000000000000e+00,5.000000000000000000e+00,5.000000000000000000e+00,5.000000000000000000e+00,5.000000000000000000e+00,5.000000000000000000e+00,5.000000000000000000e+00,5.000000000000000000e+00,4.859718322753906250e+00,4.699858188629150391e+00,4.550180435180664062e+00,4.409741878509521484e+00,4.277713298797607422e+00,4.153360366821289062e+00,4.036033153533935547e+00,3.925152778625488281e+00,3.820201635360717773e+00,3.720716714859008789e+00
3.095213651657104492e+00,3.173376798629760742e+00,3.255590200424194336e+00,3.342176437377929688e+00,3.433494567871093750e+00,3.529942274093627930e+00,3.631965875625610352e+00,3.740062236785888672e+00,3.854790449142456055e+00,3.976779937744140625e+00,4.106742858886718750e+00,4.245487213134765625e+00,4.393933773040771484e+00,4.553130626678466797e+00,4.724291324615478516e+00,4.908823013305664062e+00,5.000000000000000000e+00,5.000000000000000000e+00,5.000000000000000000e+00,5.000000000000000000e+00,5.000000000000000000e+00,5.000000000000000000e+00,5.000000000000000000e+00,5.000000000000000000e+00,5.000000000000000000e+00,5.000000000000000000e+00,5.000000000000000000e+00,5.000000000000000000e+00,5.000000000000000000e+00,5.000000000000000000e+00,5.000000000000000000e+00,5.000000000000000000e+00,5.000000000000000000e+00,5.000000000000000000e+00,5.000000000000000000e+00,5.000000000000000000e+00,5.000000000000000000e+00,5.000000000000000000e+00,5.000000000000000000e+00,5.000000000000000000e+00,5.000000000000000000e+00,5.000000000000000000e+00,5.000000000000000000e+00,5.000000000000000000e+00,5.000000000000000000e+00,5.000000000000000000e+00,5.000000000000000000e+00,5.000000000000000000e+00,5.000000000000000000e+00,5.000000000000000000e+00,1.252655386924743652e+00,1.027722358703613281e+00,1.006429076194763184e+00,9.857681989669799805e-01,9.707171916961669922e-01,9.643754959106445312e-01,9.584975838661193848e-01,9.753751754760742188e-01,9.952673316001892090e-01,5.000000000000000000e+00,5.000000000000000000e+00,5.000000000000000000e+00,5.000000000000000000e+00,5.000000000000000000e+00,5.000000000000000000e+00,5.000000000000000000e+00,5.000000000000000000e+00,5.000000000000000000e+00,5.000000000000000000e+00,5.000000000000000000e+00,4.859847545623779297e+00,4.699979305267333984e+00,4.550293922424316406e+00,4.409848690032958984e+00,4.277813434600830078e+00,4.153454780578613281e+00,4.036122322082519531e+00,3.925237417221069336e+00,3.820281744003295898e+00,3.720792531967163086e+00
3.095147609710693359e+00,3.173307418823242188e+00,3.255517244338989258e+00,3.342099666595458984e+00,3.433413028717041016e+00,3.529856681823730469e+00,3.631875038146972656e+00,3.739965915679931641e+00,3.854687690734863281e+00,3.976670742034912109e+00,4.106626510620117188e+00,4.245362758636474609e+00,4.393800735473632812e+00,4.552995204925537109e+00,4.724151134490966797e+00,4.908671379089355469e+00,5.000000000000000000e+00,5.000000000000000000e+00,5.000000000000000000e+00,5.000000000000000000e+00,5.000000000000000000e+00,5.000000000000000000e+00,5.000000000000000000e+00,5.000000000000000000e+00,5.000000000000000000e+00,5.000000000000000000e+00,5.000000000000000000e+00,5.000000000000000000e+00,5.000000000000000000e+00,5.000000000000000000e+00,5.000000000000000000e+00,5.000000000000000000e+00,5.000000000000000000e+00,5.000000000000000000e+00,5.000000000000000000e+00,5.000000000000000000e+00,5.000000000000000000e+00,5.000000000000000000e+00,5.000000000000000000e+00,5.000000000000000000e+00,5.000000000000000000e+00,5.000000000000000000e+00,5.000000000000000000e+00,5.000000000000000000e+00,5.000000000000000000e+00,5.000000000000000000e+00,5.000000000000000000e+00,5.000000000000000000e+00,5.000000000000000000e+00,5.000000000000000000e+00,1.045261383056640625e+00,1.022912859916687012e+00,1.001820683479309082e+00,9.867985844612121582e-01,9.751118421554565430e-01,9.676010012626647949e-01,9.660232067108154297e-01,9.856637716293334961e-01,5.000000000000000000e+00,5.000000000000000000e+00,5.000000000000000000e+00,5.000000000000000000e+00,5.000000000000000000e+00,5.000000000000000000e+00,5.000000000000000000e+00,5.000000000000000000e+00,5.000000000000000000e+00,5.000000000000000000e+00,5.000000000000000000e+00,5.000000000000000000e+00,4.859977245330810547e+00,4.700100421905517578e+00,4.550407409667968750e+00,4.409955024719238281e+00,4.277914047241210938e+00,4.153549671173095703e+00,4.036211967468261719e+00,3.925321817398071289e+00,3.820361852645874023e+00,3.720868587493896484e+00
3.095052719116210938e+00,3.173223972320556641e+00,3.255443811416625977e+00,3.342022418975830078e+00,3.433331727981567383e+00,3.529770851135253906e+00,3.631784200668334961e+00,3.739869117736816406e+00,3.854585409164428711e+00,3.976561784744262695e+00,4.106510162353515625e+00,4.245238780975341797e+00,4.393667697906494141e+00,4.552852630615234375e+00,4.724005222320556641e+00,4.908520221710205078e+00,5.000000000000000000e+00,5.000000000000000000e+00,5.000000000000000000e+00,5.000000000000000000e+00,5.000000000000000000e+00,5.000000000000000000e+00,5.000000000000000000e+00,5.000000000000000000e+00,5.000000000000000000e+00,5.000000000000000000e+00,5.000000000000000000e+00,5.000000000000000000e+00,5.000000000000000000e+00,5.000000000000000000e+00,5.000000000000000000e+00,5.000000000000000000e+00,5.000000000000000000e+00,5.000000000000000000e+00,5.000000000000000000e+00,5.000000000000000000e+00,5.000000000000000000e+00,5.000000000000000000e+00,5.000000000000000000e+00,5.000000000000000000e+00,5.000000000000000000e+00,5.000000000000000000e+00,5.000000000000000000e+00,5.000000000000000000e+00,5.000000000000000000e+00,5.000000000000000000e+00,5.000000000000000000e+00,5.000000000000000000e+00,5.000000000000000000e+00,1.066602826118469238e+00,1.039979815483093262e+00,1.018985271453857422e+00,1.003674983978271484e+00,9.900289177894592285e-01,9.818968772888183594e-01,9.723777770996093750e-01,9.762439727783203125e-01,9.970653057098388672e-01,5.000000000000000000e+00,5.000000000000000000e+00,5.000000000000000000e+00,5.000000000000000000e+00,5.000000000000000000e+00,5.000000000000000000e+00,5.000000000000000000e+00,5.000000000000000000e+00,5.000000000000000000e+00,5.000000000000000000e+00,5.000000000000000000e+00,5.000000000000000000e+00,4.860106945037841797e+00,4.700221538543701172e+00,4.550520896911621094e+00,4.410061836242675781e+00,4.278014183044433594e+00,4.153644084930419922e+00,4.036301136016845703e+00,3.925406455993652344e+00,3.820441722869873047e+00,3.720944404602050781e+00
3.094953060150146484e+00,3.173119306564331055e+00,3.255336046218872070e+00,3.341926813125610352e+00,3.433249950408935547e+00,3.529684782028198242e+00,3.631693124771118164e+00,3.739773035049438477e+00,3.854483127593994141e+00,3.976453065872192383e+00,4.106393814086914062e+00,4.245114326477050781e+00,4.393534660339355469e+00,4.552709579467773438e+00,4.723851680755615234e+00,4.908362865447998047e+00,5.000000000000000000e+00,5.000000000000000000e+00,5.000000000000000000e+00,5.000000000000000000e+00,5.000000000000000000e+00,5.000000000000000000e+00,5.000000000000000000e+00,5.000000000000000000e+00,5.000000000000000000e+00,5.000000000000000000e+00,5.000000000000000000e+00,5.000000000000000000e+00,5.000000000000000000e+00,5.000000000000000000e+00,5.000000000000000000e+00,5.000000000000000000e+00,5.000000000000000000e+00,5.000000000000000000e+00,5.000000000000000000e+00,5.000000000000000000e+00,5.000000000000000000e+00,5.000000000000000000e+00,5.000000000000000000e+00,5.000000000000000000e+00,5.000000000000000000e+00,5.000000000000000000e+00,5.000000000000000000e+00,5.000000000000000000e+00,5.000000000000000000e+00,5.000000000000000000e+00,5.000000000000000000e+00,5.000000000000000000e+00,1.092323780059814453e+00,1.057626008987426758e+00,1.036522030830383301e+00,1.021059274673461914e+00,1.008298397064208984e+00,1.001784086227416992e+00,9.923352003097534180e-01,9.855860471725463867e-01,1.006937503814697266e+00,1.175458788871765137e+00,5.000000000000000000e+00,5.000000000000000000e+00,5.000000000000000000e+00,5.000000000000000000e+00,5.000000000000000000e+00,5.000000000000000000e+00,5.000000000000000000e+00,5.000000000000000000e+00,5.000000000000000000e+00,5.000000000000000000e+00,5.000000000000000000e+00,5.000000000000000000e+00,4.860236644744873047e+00,4.700343132019042969e+00,4.550634860992431641e+00,4.410168647766113281e+00,4.278114318847656250e+00,4.153738975524902344e+00,4.036390304565429688e+00,3.925490856170654297e+00,3.820521831512451172e+00,3.721020460128784180e+00
3.094853401184082031e+00,3.173014640808105469e+00,3.255225896835327148e+00,3.341810703277587891e+00,3.433127403259277344e+00,3.529574871063232422e+00,3.631597995758056641e+00,3.739676713943481445e+00,3.854380846023559570e+00,3.976343631744384766e+00,4.106277942657470703e+00,4.244989871978759766e+00,4.393401622772216797e+00,4.552566528320312500e+00,4.723697662353515625e+00,4.908196449279785156e+00,5.000000000000000000e+00,5.000000000000000000e+00,5.000000000000000000e+00,5.000000000000000000e+00,5.000000000000000000e+00,5.000000000000000000e+00,5.000000000000000000e+00,5.000000000000000000e+00,5.000000000000000000e+00,5.000000000000000000e+00,5.000000000000000000e+00,5.000000000000000000e+00,5.000000000000000000e+00,5.000000000000000000e+00,5.000000000000000000e+00,5.000000000000000000e+00,5.000000000000000000e+00,5.000000000000000000e+00,5.000000000000000000e+00,5.000000000000000000e+00,5.000000000000000000e+00,5.000000000000000000e+00,5.000000000000000000e+00,5.000000000000000000e+00,5.000000000000000000e+00,5.000000000000000000e+00,5.000000000000000000e+00,5.000000000000000000e+00,5.000000000000000000e+00,5.000000000000000000e+00,5.000000000000000000e+00,5.000000000000000000e+00,1.077341556549072266e+00,1.054673075675964355e+00,1.040503382682800293e+00,1.027254939079284668e+00,1.018458962440490723e+00,1.013128876686096191e+00,1.002997756004333496e+00,1.017905235290527344e+00,1.172330975532531738e+00,1.183094263076782227e+00,5.000000000000000000e+00,5.000000000000000000e+00,5.000000000000000000e+00,5.000000000000000000e+00,5.000000000000000000e+00,5.000000000000000000e+00,5.000000000000000000e+00,5.000000000000000000e+00,5.000000000000000000e+00,5.000000000000000000e+00,5.000000000000000000e+00,5.000000000000000000e+00,4.860366344451904297e+00,4.700464248657226562e+00,4.550748348236083984e+00,4.410274982452392578e+00,4.278215408325195312e+00,4.153833389282226562e+00,4.036479949951171875e+00,3.925575256347656250e+00,3.820601940155029297e+00,3.721096277236938477e+00
3.094784736633300781e+00,3.172925710678100586e+00,3.255115747451782227e+00,3.341694593429565430e+00,3.433004856109619141e+00,3.529445171356201172e+00,3.631460666656494141e+00,3.739549160003662109e+00,3.854269266128540039e+00,3.976234674453735352e+00,4.106161594390869141e+00,4.244865894317626953e+00,4.393268585205078125e+00,4.552423954010009766e+00,4.723543643951416016e+00,4.908030986785888672e+00,5.000000000000000000e+00,5.000000000000000000e+00,5.000000000000000000e+00,5.000000000000000000e+00,5.000000000000000000e+00,5.000000000000000000e+00,5.000000000000000000e+00,5.000000000000000000e+00,5.000000000000000000e+00,5.000000000000000000e+00,5.000000000000000000e+00,5.000000000000000000e+00,5.000000000000000000e+00,5.000000000000000000e+00,5.000000000000000000e+00,5.000000000000000000e+00,5.000000000000000000e+00,5.000000000000000000e+00,5.000000000000000000e+00,5.000000000000000000e+00,5.000000000000000000e+00,5.000000000000000000e+00,5.000000000000000000e+00,5.000000000000000000e+00,5.000000000000000000e+00,5.000000000000000000e+00,5.000000000000000000e+00,5.000000000000000000e+00,5.000000000000000000e+00,5.000000000000000000e+00,5.000000000000000000e+00,1.114696502685546875e+00,1.074833273887634277e+00,1.060702204704284668e+00,1.046937942504882812e+00,1.035698175430297852e+00,1.031130552291870117e+00,1.024245500564575195e+00,1.029114484786987305e+00,1.175833702087402344e+00,1.184662938117980957e+00,1.193625688552856445e+00,5.000000000000000000e+00,5.000000000000000000e+00,5.000000000000000000e+00,5.000000000000000000e+00,5.000000000000000000e+00,5.000000000000000000e+00,5.000000000000000000e+00,5.000000000000000000e+00,5.000000000000000000e+00,5.000000000000000000e+00,5.000000000000000000e+00,5.000000000000000000e+00,4.860495567321777344e+00,4.700585365295410156e+00,4.550861835479736328e+00,4.410381793975830078e+00,4.278315544128417969e+00,4.153928279876708984e+00,4.036569118499755859e+00,3.925659894943237305e+00,3.820682048797607422e+00,3.721172332763671875e+00
3.094718694686889648e+00,3.172856330871582031e+00,3.255042076110839844e+00,3.341598987579345703e+00,3.432884693145751953e+00,3.529315948486328125e+00,3.631324052810668945e+00,3.739404201507568359e+00,3.854115247726440430e+00,3.976086854934692383e+00,4.106030941009521484e+00,4.244741439819335938e+00,4.393135070800781250e+00,4.552280902862548828e+00,4.723390102386474609e+00,4.907864570617675781e+00,5.000000000000000000e+00,5.000000000000000000e+00,5.000000000000000000e+00,5.000000000000000000e+00,5.000000000000000000e+00,5.000000000000000000e+00,5.000000000000000000e+00,5.000000000000000000e+00,5.000000000000000000e+00,5.000000000000000000e+00,5.000000000000000000e+00,5.000000000000000000e+00,5.000000000000000000e+00,5.000000000000000000e+00,5.000000000000000000e+00,5.000000000000000000e+00,5.000000000000000000e+00,5.000000000000000000e+00,5.000000000000000000e+00,5.000000000000000000e+00,5.000000000000000000e+00,5.000000000000000000e+00,5.000000000000000000e+00,5.000000000000000000e+00,5.000000000000000000e+00,5.000000000000000000e+00,5.000000000000000000e+00,5.000000000000000000e+00,5.000000000000000000e+00,5.000000000000000000e+00,5.000000000000000000e+00,1.103094935417175293e+00,1.081764817237854004e+00,1.067407011985778809e+00,1.053531169891357422e+00,1.048805117607116699e+00,1.044121265411376953e+00,1.040573477745056152e+00,1.187596797943115234e+00,1.190293431282043457e+00,1.199342012405395508e+00,5.000000000000000000e+00,5.000000000000000000e+00,5.000000000000000000e+00,5.000000000000000000e+00,5.000000000000000000e+00,5.000000000000000000e+00,5.000000000000000000e+00,5.000000000000000000e+00,5.000000000000000000e+00,5.000000000000000000e+00,5.000000000000000000e+00,5.000000000000000000e+00,5.000000000000000000e+00,4.860625267028808594e+00,4.700706481933593750e+00,4.550975322723388672e+00,4.410488605499267578e+00,4.278416156768798828e+00,4.154022693634033203e+00,4.036658287048339844e+00,3.925744295120239258e+00,3.820761919021606445e+00,3.721248149871826172e+00
3.094652891159057617e+00,3.172787189483642578e+00,3.254969120025634766e+00,3.341522216796875000e+00,3.432803630828857422e+00,3.529212236404418945e+00,3.631192684173583984e+00,3.739258766174316406e+00,3.853960752487182617e+00,3.975922346115112305e+00,4.105855464935302734e+00,4.244567871093750000e+00,4.392980575561523438e+00,4.552137851715087891e+00,4.723236083984375000e+00,4.907698631286621094e+00,5.000000000000000000e+00,5.000000000000000000e+00,5.000000000000000000e+00,5.000000000000000000e+00,5.000000000000000000e+00,5.000000000000000000e+00,5.000000000000000000e+00,5.000000000000000000e+00,5.000000000000000000e+00,5.000000000000000000e+00,5.000000000000000000e+00,5.000000000000000000e+00,5.000000000000000000e+00,5.000000000000000000e+00,5.000000000000000000e+00,5.000000000000000000e+00,5.000000000000000000e+00,5.000000000000000000e+00,5.000000000000000000e+00,5.000000000000000000e+00,5.000000000000000000e+00,5.000000000000000000e+00,5.000000000000000000e+00,5.000000000000000000e+00,5.000000000000000000e+00,5.000000000000000000e+00,5.000000000000000000e+00,5.000000000000000000e+00,5.000000000000000000e+00,5.000000000000000000e+00,1.152046799659729004e+00,1.103753685951232910e+00,1.088810324668884277e+00,1.074266314506530762e+00,1.064458847045898438e+00,1.061030745506286621e+00,1.057443618774414062e+00,1.200539588928222656e+00,1.200366258621215820e+00,1.205113410949707031e+00,5.000000000000000000e+00,5.000000000000000000e+00,5.000000000000000000e+00,5.000000000000000000e+00,5.000000000000000000e+00,5.000000000000000000e+00,5.000000000000000000e+00,5.000000000000000000e+00,5.000000000000000000e+00,5.000000000000000000e+00,5.000000000000000000e+00,5.000000000000000000e+00,5.000000000000000000e+00,5.000000000000000000e+00,4.860754966735839844e+00,4.700827598571777344e+00,4.551088809967041016e+00,4.410595417022705078e+00,4.278516292572021484e+00,4.154117584228515625e+00,4.036747932434082031e+00,3.925828933715820312e+00,3.820842027664184570e+00,3.721324205398559570e+00
3.094586849212646484e+00,3.172717809677124023e+00,3.254896163940429688e+00,3.341445207595825195e+00,3.432722330093383789e+00,3.529126405715942383e+00,3.631101846694946289e+00,3.739145755767822266e+00,3.853816747665405273e+00,3.975758075714111328e+00,4.105679988861083984e+00,4.244380474090576172e+00,4.392779827117919922e+00,4.551932334899902344e+00,4.723051071166992188e+00,4.907532691955566406e+00,5.000000000000000000e+00,5.000000000000000000e+00,5.000000000000000000e+00,5.000000000000000000e+00,5.000000000000000000e+00,5.000000000000000000e+00,5.000000000000000000e+00,5.000000000000000000e+00,5.000000000000000000e+00,5.000000000000000000e+00,5.000000000000000000e+00,5.000000000000000000e+00,5.000000000000000000e+00,5.000000000000000000e+00,5.000000000000000000e+00,5.000000000000000000e+00,5.000000000000000000e+00,5.000000000000000000e+00,5.000000000000000000e+00,5.000000000000000000e+00,5.000000000000000000e+00,5.000000000000000000e+00,5.000000000000000000e+00,5.000000000000000000e+00,5.000000000000000000e+00,5.000000000000000000e+00,5.000000000000000000e+00,5.000000000000000000e+00,5.000000000000000000e+00,5.000000000000000000e+00,1.144912719726562500e+00,1.111089468002319336e+00,1.095948338508605957e+00,1.081519842147827148e+00,1.074469208717346191e+00,1.070976495742797852e+00,1.097693204879760742e+00,1.213590502738952637e+00,1.213413476943969727e+00,5.000000000000000000e+00,5.000000000000000000e+00,5.000000000000000000e+00,5.000000000000000000e+00,5.000000000000000000e+00,5.000000000000000000e+00,5.000000000000000000e+00,5.000000000000000000e+00,5.000000000000000000e+00,5.000000000000000000e+00,5.000000000000000000e+00,5.000000000000000000e+00,5.000000000000000000e+00,5.000000000000000000e+00,5.000000000000000000e+00,4.860884189605712891e+00,4.700948715209960938e+00,4.551202297210693359e+00,4.410702228546142578e+00,4.278616905212402344e+00,4.154211997985839844e+00,4.036837100982666016e+00,3.925913333892822266e+00,3.820922136306762695e+00,3.721400499343872070e+00
3.094520568847656250e+00,3.172648429870605469e+00,3.254823446273803711e+00,3.341368436813354492e+00,3.432641267776489258e+00,3.529040575027465820e+00,3.631011247634887695e+00,3.739049434661865234e+00,3.853714227676391602e+00,3.975634574890136719e+00,4.105521202087402344e+00,4.244193077087402344e+00,4.392579078674316406e+00,4.551716804504394531e+00,4.722818851470947266e+00,4.907287120819091797e+00,5.000000000000000000e+00,5.000000000000000000e+00,5.000000000000000000e+00,5.000000000000000000e+00,5.000000000000000000e+00,5.000000000000000000e+00,5.000000000000000000e+00,5.000000000000000000e+00,5.000000000000000000e+00,5.000000000000000000e+00,5.000000000000000000e+00,5.000000000000000000e+00,5.000000000000000000e+00,5.000000000000000000e+00,5.000000000000000000e+00,5.000000000000000000e+00,5.000000000000000000e+00,5.000000000000000000e+00,5.000000000000000000e+00,5.000000000000000000e+00,5.000000000000000000e+00,5.000000000000000000e+00,5.000000000000000000e+00,5.000000000000000000e+00,5.000000000000000000e+00,5.000000000000000000e+00,5.000000000000000000e+00,5.000000000000000000e+00,5.000000000000000000e+00,5.000000000000000000e+00,1.134299516677856445e+00,1.118523597717285156e+00,1.103487849235534668e+00,1.090146183967590332e+00,1.084669709205627441e+00,1.081110477447509766e+00,1.224407196044921875e+00,1.226928234100341797e+00,1.226747274398803711e+00,5.000000000000000000e+00,5.000000000000000000e+00,5.000000000000000000e+00,5.000000000000000000e+00,5.000000000000000000e+00,5.000000000000000000e+00,5.000000000000000000e+00,5.000000000000000000e+00,5.000000000000000000e+00,5.000000000000000000e+00,5.000000000000000000e+00,5.000000000000000000e+00,5.000000000000000000e+00,5.000000000000000000e+00,5.000000000000000000e+00,4.861013889312744141e+00,4.701069831848144531e+00,4.551315784454345703e+00,4.410809040069580078e+00,4.278717041015625000e+00,4.154306411743164062e+00,4.036926746368408203e+00,3.926000118255615234e+00,3.821007251739501953e+00,3.721483945846557617e+00
3.094454765319824219e+00,3.172579288482666016e+00,3.254750490188598633e+00,3.341291666030883789e+00,3.432560205459594727e+00,3.528954982757568359e+00,3.630920410156250000e+00,3.738953351974487305e+00,3.853611946105957031e+00,3.975525856018066406e+00,4.105405330657958984e+00,4.244057178497314453e+00,4.392402172088623047e+00,4.551501274108886719e+00,4.722587108612060547e+00,4.907036781311035156e+00,5.000000000000000000e+00,5.000000000000000000e+00,5.000000000000000000e+00,5.000000000000000000e+00,5.000000000000000000e+00,5.000000000000000000e+00,5.000000000000000000e+00,5.000000000000000000e+00,5.000000000000000000e+00,5.000000000000000000e+00,5.000000000000000000e+00,5.000000000000000000e+00,5.000000000000000000e+00,5.000000000000000000e+00,5.000000000000000000e+00,5.000000000000000000e+00,5.000000000000000000e+00,5.000000000000000000e+00,5.000000000000000000e+00,5.000000000000000000e+00,5.000000000000000000e+00,5.000000000000000000e+00,5.000000000000000000e+00,5.000000000000000000e+00,5.000000000000000000e+00,5.000000000000000000e+00,5.000000000000000000e+00,5.000000000000000000e+00,5.000000000000000000e+00,1.181296348571777344e+00,1.142048478126525879e+00,1.126366734504699707e+00,1.111168026924133301e+00,1.100220441818237305e+00,1.095065712928771973e+00,1.125866293907165527e+00,1.229174971580505371e+00,1.232387423515319824e+00,5.000000000000000000e+00,5.000000000000000000e+00,5.000000000000000000e+00,5.000000000000000000e+00,5.000000000000000000e+00,5.000000000000000000e+00,5.000000000000000000e+00,5.000000000000000000e+00,5.000000000000000000e+00,5.000000000000000000e+00,5.000000000000000000e+00,5.000000000000000000e+00,5.000000000000000000e+00,5.000000000000000000e+00,5.000000000000000000e+00,5.000000000000000000e+00,4.861143589019775391e+00,4.701190948486328125e+00,4.551429748535156250e+00,4.410915374755859375e+00,4.278819084167480469e+00,4.154406547546386719e+00,4.037024021148681641e+00,3.926093101501464844e+00,3.821095228195190430e+00,3.721567153930664062e+00
3.094388723373413086e+00,3.172509908676147461e+00,3.254677534103393555e+00,3.341214418411254883e+00,3.432479143142700195e+00,3.528869152069091797e+00,3.630829572677612305e+00,3.738857030868530273e+00,3.853509664535522461e+00,3.975416898727416992e+00,4.105288982391357422e+00,4.243933200836181641e+00,4.392269134521484375e+00,4.551350593566894531e+00,4.722388267517089844e+00,4.906786441802978516e+00,5.000000000000000000e+00,5.000000000000000000e+00,5.000000000000000000e+00,5.000000000000000000e+00,5.000000000000000000e+00,5.000000000000000000e+00,5.000000000000000000e+00,5.000000000000000000e+00,5.000000000000000000e+00,5.000000000000000000e+00,5.000000000000000000e+00,5.000000000000000000e+00,5.000000000000000000e+00,5.000000000000000000e+00,5.000000000000000000e+00,5.000000000000000000e+00,5.000000000000000000e+00,5.000000000000000000e+00,5.000000000000000000e+00,5.000000000000000000e+00,5.000000000000000000e+00,5.000000000000000000e+00,5.000000000000000000e+00,5.000000000000000000e+00,5.000000000000000000e+00,5.000000000000000000e+00,5.000000000000000000e+00,5.000000000000000000e+00,5.000000000000000000e+00,1.175458312034606934e+00,1.150214552879333496e+00,1.134369850158691406e+00,1.118955850601196289e+00,1.110482692718505859e+00,1.105662941932678223e+00,1.229416489601135254e+00,1.233980178833007812e+00,1.237217664718627930e+00,5.000000000000000000e+00,5.000000000000000000e+00,5.000000000000000000e+00,5.000000000000000000e+00,5.000000000000000000e+00,5.000000000000000000e+00,5.000000000000000000e+00,5.000000000000000000e+00,5.000000000000000000e+00,5.000000000000000000e+00,5.000000000000000000e+00,5.000000000000000000e+00,5.000000000000000000e+00,5.000000000000000000e+00,5.000000000000000000e+00,5.000000000000000000e+00,4.861273288726806641e+00,4.701313495635986328e+00,4.551548004150390625e+00,4.411030769348144531e+00,4.278929233551025391e+00,4.154510498046875000e+00,4.037122249603271484e+00,3.926185846328735352e+00,3.821183204650878906e+00,3.721650600433349609e+00
3.094322919845581055e+00,3.172440528869628906e+00,3.254604578018188477e+00,3.341137409210205078e+00,3.432397842407226562e+00,3.528783321380615234e+00,3.630738973617553711e+00,3.738760709762573242e+00,3.853407382965087891e+00,3.975308179855346680e+00,4.105173110961914062e+00,4.243809223175048828e+00,4.392136573791503906e+00,4.551208019256591797e+00,4.722234725952148438e+00,4.906616687774658203e+00,5.000000000000000000e+00,5.000000000000000000e+00,5.000000000000000000e+00,5.000000000000000000e+00,5.000000000000000000e+00,5.000000000000000000e+00,5.000000000000000000e+00,5.000000000000000000e+00,5.000000000000000000e+00,5.000000000000000000e+00,5.000000000000000000e+00,5.000000000000000000e+00,5.000000000000000000e+00,5.000000000000000000e+00,5.000000000000000000e+00,5.000000000000000000e+00,5.000000000000000000e+00,5.000000000000000000e+00,5.000000000000000000e+00,5.000000000000000000e+00,5.000000000000000000e+00,5.000000000000000000e+00,5.000000000000000000e+00,5.000000000000000000e+00,5.000000000000000000e+00,5.000000000000000000e+00,5.000000000000000000e+00,5.000000000000000000e+00,1.228418350219726562e+00,1.176045894622802734e+00,1.159114360809326172e+00,1.142663598060607910e+00,1.128767490386962891e+00,1.120938062667846680e+00,1.152738571166992188e+00,1.233994364738464355e+00,1.238822937011718750e+00,1.242086052894592285e+00,5.000000000000000000e+00,5.000000000000000000e+00,5.000000000000000000e+00,5.000000000000000000e+00,5.000000000000000000e+00,5.000000000000000000e+00,5.000000000000000000e+00,5.000000000000000000e+00,5.000000000000000000e+00,5.000000000000000000e+00,5.000000000000000000e+00,5.000000000000000000e+00,5.000000000000000000e+00,5.000000000000000000e+00,5.000000000000000000e+00,5.000000000000000000e+00,4.861411571502685547e+00,4.701446533203125000e+00,4.551672935485839844e+00,4.411147594451904297e+00,4.279039382934570312e+00,4.154614448547363281e+00,4.037220478057861328e+00,3.926278591156005859e+00,3.821271181106567383e+00,3.721734046936035156e+00
3.094256877899169922e+00,3.172371387481689453e+00,3.254531621932983398e+00,3.341060638427734375e+00,3.432316780090332031e+00,3.528697729110717773e+00,3.630648136138916016e+00,3.738664627075195312e+00,3.853305339813232422e+00,3.975199460983276367e+00,4.105057239532470703e+00,4.243685245513916016e+00,4.392003536224365234e+00,4.551065444946289062e+00,4.722081184387207031e+00,4.906451225280761719e+00,5.000000000000000000e+00,5.000000000000000000e+00,5.000000000000000000e+00,5.000000000000000000e+00,5.000000000000000000e+00,5.000000000000000000e+00,5.000000000000000000e+00,5.000000000000000000e+00,5.000000000000000000e+00,5.000000000000000000e+00,5.000000000000000000e+00,5.000000000000000000e+00,5.000000000000000000e+00,5.000000000000000000e+00,5.000000000000000000e+00,5.000000000000000000e+00,5.000000000000000000e+00,5.000000000000000000e+00,5.000000000000000000e+00,5.000000000000000000e+00,5.000000000000000000e+00,5.000000000000000000e+00,5.000000000000000000e+00,5.000000000000000000e+00,5.000000000000000000e+00,5.000000000000000000e+00,5.000000000000000000e+00,5.000000000000000000e+00,1.224667549133300781e+00,1.185632348060607910e+00,1.168425679206848145e+00,1.151814818382263184e+00,1.142623782157897949e+00,1.135076165199279785e+00,1.240567207336425781e+00,1.238606333732604980e+00,1.243505954742431641e+00,1.246992826461791992e+00,5.000000000000000000e+00,5.000000000000000000e+00,5.000000000000000000e+00,5.000000000000000000e+00,5.000000000000000000e+00,5.000000000000000000e+00,5.000000000000000000e+00,5.000000000000000000e+00,5.000000000000000000e+00,5.000000000000000000e+00,5.000000000000000000e+00,5.000000000000000000e+00,5.000000000000000000e+00,5.000000000000000000e+00,5.000000000000000000e+00,5.000000000000000000e+00,4.861553668975830078e+00,4.701579093933105469e+00,4.551797389984130859e+00,4.411264896392822266e+00,4.279150009155273438e+00,4.154717922210693359e+00,4.037318706512451172e+00,3.926371335983276367e+00,3.821358919143676758e+00,3.721817493438720703e+00
3.094191074371337891e+00,3.172302007675170898e+00,3.254458665847778320e+00,3.340983867645263672e+00,3.432235717773437500e+00,3.528611898422241211e+00,3.630557060241699219e+00,3.738568305969238281e+00,3.853203058242797852e+00,3.975090503692626953e+00,4.104940891265869141e+00,4.243561267852783203e+00,4.391870975494384766e+00,4.550922870635986328e+00,4.721927642822265625e+00,4.906285285949707031e+00,5.000000000000000000e+00,5.000000000000000000e+00,5.000000000000000000e+00,5.000000000000000000e+00,5.000000000000000000e+00,5.000000000000000000e+00,5.000000000000000000e+00,5.000000000000000000e+00,5.000000000000000000e+00,5.000000000000000000e+00,5.000000000000000000e+00,5.000000000000000000e+00,5.000000000000000000e+00,5.000000000000000000e+00,5.000000000000000000e+00,5.000000000000000000e+00,5.000000000000000000e+00,5.000000000000000000e+00,5.000000000000000000e+00,5.000000000000000000e+00,5.000000000000000000e+00,5.000000000000000000e+00,5.000000000000000000e+00,5.000000000000000000e+00,5.000000000000000000e+00,5.000000000000000000e+00,5.000000000000000000e+00,5.000000000000000000e+00,1.219433546066284180e+00,1.195376157760620117e+00,1.178046464920043945e+00,1.162193059921264648e+00,1.157808899879455566e+00,1.189587116241455078e+00,1.241374015808105469e+00,1.243253111839294434e+00,1.248189568519592285e+00,5.000000000000000000e+00,5.000000000000000000e+00,5.000000000000000000e+00,5.000000000000000000e+00,5.000000000000000000e+00,5.000000000000000000e+00,5.000000000000000000e+00,5.000000000000000000e+00,5.000000000000000000e+00,5.000000000000000000e+00,5.000000000000000000e+00,5.000000000000000000e+00,5.000000000000000000e+00,5.000000000000000000e+00,5.000000000000000000e+00,5.000000000000000000e+00,5.000000000000000000e+00,4.861696243286132812e+00,4.701712131500244141e+00,4.551922321319580078e+00,4.411382198333740234e+00,4.279260158538818359e+00,4.154821872711181641e+00,4.037416934967041016e+00,3.926464319229125977e+00,3.821446895599365234e+00,3.721900701522827148e+00
3.094125270843505859e+00,3.172232866287231445e+00,3.254385709762573242e+00,3.340907096862792969e+00,3.432154655456542969e+00,3.528526306152343750e+00,3.630466222763061523e+00,3.738472223281860352e+00,3.853100776672363281e+00,3.974981784820556641e+00,4.104825019836425781e+00,4.243437290191650391e+00,4.391737937927246094e+00,4.550780296325683594e+00,4.721774101257324219e+00,4.906119823455810547e+00,5.000000000000000000e+00,5.000000000000000000e+00,5.000000000000000000e+00,5.000000000000000000e+00,5.000000000000000000e+00,5.000000000000000000e+00,5.000000000000000000e+00,5.000000000000000000e+00,5.000000000000000000e+00,5.000000000000000000e+00,5.000000000000000000e+00,5.000000000000000000e+00,5.000000000000000000e+00,5.000000000000000000e+00,5.000000000000000000e+00,5.000000000000000000e+00,5.000000000000000000e+00,5.000000000000000000e+00,5.000000000000000000e+00,5.000000000000000000e+00,5.000000000000000000e+00,5.000000000000000000e+00,5.000000000000000000e+00,5.000000000000000000e+00,5.000000000000000000e+00,5.000000000000000000e+00,5.000000000000000000e+00,5.000000000000000000e+00,1.223599433898925781e+00,1.205500841140747070e+00,1.188058137893676758e+00,1.180316090583801270e+00,1.173403024673461914e+00,1.255118012428283691e+00,1.243511080741882324e+00,1.248041152954101562e+00,1.252908587455749512e+00,5.000000000000000000e+00,5.000000000000000000e+00,5.000000000000000000e+00,5.000000000000000000e+00,5.000000000000000000e+00,5.000000000000000000e+00,5.000000000000000000e+00,5.000000000000000000e+00,5.000000000000000000e+00,5.000000000000000000e+00,5.000000000000000000e+00,5.000000000000000000e+00,5.000000000000000000e+00,5.000000000000000000e+00,5.000000000000000000e+00,5.000000000000000000e+00,5.000000000000000000e+00,4.861838340759277344e+00,4.701845169067382812e+00,4.552047252655029297e+00,4.411499023437500000e+00,4.279370307922363281e+00,4.154925823211669922e+00,4.037514686584472656e+00,3.926557064056396484e+00,3.821534872055053711e+00,3.721984148025512695e+00
3.094059228897094727e+00,3.172163486480712891e+00,3.254312992095947266e+00,3.340830087661743164e+00,3.432073593139648438e+00,3.528440475463867188e+00,3.630375623703002930e+00,3.738375902175903320e+00,3.852998733520507812e+00,3.974873065948486328e+00,4.104708671569824219e+00,4.243313312530517578e+00,4.391605377197265625e+00,4.550637722015380859e+00,4.721620559692382812e+00,4.905953884124755859e+00,5.000000000000000000e+00,5.000000000000000000e+00,5.000000000000000000e+00,5.000000000000000000e+00,5.000000000000000000e+00,5.000000000000000000e+00,5.000000000000000000e+00,5.000000000000000000e+00,5.000000000000000000e+00,5.000000000000000000e+00,5.000000000000000000e+00,5.000000000000000000e+00,5.000000000000000000e+00,5.000000000000000000e+00,5.000000000000000000e+00,5.000000000000000000e+00,5.000000000000000000e+00,5.000000000000000000e+00,5.000000000000000000e+00,5.000000000000000000e+00,5.000000000000000000e+00,5.000000000000000000e+00,5.000000000000000000e+00,5.000000000000000000e+00,5.000000000000000000e+00,5.000000000000000000e+00,5.000000000000000000e+00,5.000000000000000000e+00,1.234265208244323730e+00,1.215986490249633789e+00,1.198241353034973145e+00,1.199013471603393555e+00,1.269886136054992676e+00,1.257461309432983398e+00,1.248718619346618652e+00,1.253439426422119141e+00,1.258196234703063965e+00,5.000000000000000000e+00,5.000000000000000000e+00,5.000000000000000000e+00,5.000000000000000000e+00,5.000000000000000000e+00,5.000000000000000000e+00,5.000000000000000000e+00,5.000000000000000000e+00,5.000000000000000000e+00,5.000000000000000000e+00,5.000000000000000000e+00,5.000000000000000000e+00,5.000000000000000000e+00,5.000000000000000000e+00,5.000000000000000000e+00,5.000000000000000000e+00,5.000000000000000000e+00,4.861980438232421875e+00,4.701978206634521484e+00,4.552171707153320312e+00,4.411616325378417969e+00,4.279480457305908203e+00,4.155029773712158203e+00,4.037612915039062500e+00,3.926649808883666992e+00,3.821622610092163086e+00,3.722067594528198242e+00
3.093993425369262695e+00,3.172093868255615234e+00,3.254240036010742188e+00,3.340753316879272461e+00,3.431992530822753906e+00,3.528354883193969727e+00,3.630284786224365234e+00,3.738279819488525391e+00,3.852896451950073242e+00,3.974763870239257812e+00,4.104592800140380859e+00,4.243189334869384766e+00,4.391472339630126953e+00,4.550494670867919922e+00,4.721467018127441406e+00,4.854284763336181641e+00,4.853082180023193359e+00,4.851881027221679688e+00,4.850679874420166016e+00,4.849479675292968750e+00,4.848279953002929688e+00,4.847080707550048828e+00,4.845882415771484375e+00,4.844684123992919922e+00,4.843486785888671875e+00,4.842289924621582031e+00,4.841094017028808594e+00,4.839898586273193359e+00,4.838703155517578125e+00,4.837509155273437500e+00,4.836314678192138672e+00,4.835121631622314453e+00,4.833929061889648438e+00,4.832736968994140625e+00,4.831545829772949219e+00,4.830354690551757812e+00,4.829164505004882812e+00,4.827974796295166016e+00,4.826785564422607422e+00,4.825597286224365234e+00,4.824409008026123047e+00,4.823221683502197266e+00,4.822034835815429688e+00,1.304150819778442383e+00,1.255100011825561523e+00,1.239828705787658691e+00,1.213646769523620605e+00,1.217112183570861816e+00,1.272285103797912598e+00,1.259679079055786133e+00,1.254122853279113770e+00,1.258884668350219727e+00,4.810198783874511719e+00,4.809018611907958984e+00,4.807838916778564453e+00,4.806659698486328125e+00,4.805480957031250000e+00,4.804302692413330078e+00,4.803125381469726562e+00,4.801948547363281250e+00,4.800772190093994141e+00,4.799596309661865234e+00,4.798420906066894531e+00,4.797246456146240234e+00,4.796072483062744141e+00,4.794898986816406250e+00,4.793725967407226562e+00,4.792553901672363281e+00,4.791382312774658203e+00,4.790211200714111328e+00,4.789040088653564453e+00,4.702111721038818359e+00,4.552296638488769531e+00,4.411733627319335938e+00,4.279590606689453125e+00,4.155133724212646484e+00,4.037711143493652344e+00,3.926742792129516602e+00,3.821710586547851562e+00,3.722151041030883789e+00
3.093927383422851562e+00,3.172024726867675781e+00,3.254167079925537109e+00,3.340676546096801758e+00,3.431911468505859375e+00,3.528269290924072266e+00,3.630194187164306641e+00,3.738183498382568359e+00,3.770756006240844727e+00,3.770030736923217773e+00,3.769305706024169922e+00,3.768580675125122070e+00,3.767856121063232422e+00,3.767131805419921875e+00,3.766407966613769531e+00,3.765684366226196289e+00,3.764960527420043945e+00,3.764237403869628906e+00,3.763514518737792969e+00,3.762792110443115234e+00,3.762069940567016602e+00,3.761347532272338867e+00,3.760625839233398438e+00,3.759904384613037109e+00,3.759183168411254883e+00,3.758462429046630859e+00,3.757741451263427734e+00,3.757020950317382812e+00,3.756300926208496094e+00,3.755581140518188477e+00,3.754861593246459961e+00,3.754142045974731445e+00,3.753423213958740234e+00,3.752704381942749023e+00,3.751986026763916016e+00,3.751267910003662109e+00,3.750549793243408203e+00,3.749832153320312500e+00,3.749114751815795898e+00,3.748397827148437500e+00,3.747681140899658203e+00,3.746964216232299805e+00,3.746248006820678711e+00,1.288702964782714844e+00,1.256636857986450195e+00,1.249010920524597168e+00,1.244889497756958008e+00,1.296935677528381348e+00,1.274693012237548828e+00,1.261818885803222656e+00,1.259573936462402344e+00,1.264377355575561523e+00,3.739100456237792969e+00,3.738387107849121094e+00,3.737674236297607422e+00,3.736961126327514648e+00,3.736248731613159180e+00,3.735536575317382812e+00,3.734824895858764648e+00,3.734113216400146484e+00,3.733401536941528320e+00,3.732690572738647461e+00,3.731979846954345703e+00,3.731269359588623047e+00,3.730559110641479492e+00,3.729848861694335938e+00,3.729139089584350586e+00,3.728429794311523438e+00,3.727720499038696289e+00,3.727011680603027344e+00,3.726302623748779297e+00,3.725594520568847656e+00,3.724886417388916016e+00,3.724178552627563477e+00,3.723471164703369141e+00,3.722763299942016602e+00,3.722056388854980469e+00,3.721349716186523438e+00,3.720643281936645508e+00,3.719937086105346680e+00
3.083156824111938477e+00,3.082671403884887695e+00,3.082186698913574219e+00,3.081701755523681641e+00,3.081217288970947266e+00,3.080733060836791992e+00,3.080248594284057617e+00,3.079764604568481445e+00,3.079280376434326172e+00,3.078796625137329102e+00,3.078313112258911133e+00,3.077829599380493164e+00,3.077346324920654297e+00,3.076862812042236328e+00,3.076379776000976562e+00,3.075896978378295898e+00,3.075414419174194336e+00,3.074931859970092773e+00,3.074449539184570312e+00,3.073967218399047852e+00,3.073485136032104492e+00,3.073003053665161133e+00,3.072521448135375977e+00,3.072039842605590820e+00,3.071558237075805664e+00,3.071076869964599609e+00,3.070595741271972656e+00,3.070114612579345703e+00,3.069633960723876953e+00,3.069152832031250000e+00,3.068672418594360352e+00,3.068192005157470703e+00,3.067711830139160156e+00,3.067231655120849609e+00,3.066751480102539062e+00,3.066271781921386719e+00,3.065792083740234375e+00,3.065312623977661133e+00,3.064833402633666992e+00,3.064353942871093750e+00,3.063874959945678711e+00,3.063395977020263672e+00,3.062917232513427734e+00,1.280440568923950195e+00,1.254335999488830566e+00,1.242943048477172852e+00,1.244069933891296387e+00,1.292314767837524414e+00,1.276921391487121582e+00,1.263965964317321777e+00,1.265072584152221680e+00,3.058614730834960938e+00,3.058137655258178711e+00,3.057660341262817383e+00,3.057183265686035156e+00,3.056706428527832031e+00,3.056229829788208008e+00,3.055753231048583984e+00,3.055276632308959961e+00,3.054800510406494141e+00,3.054324388504028320e+00,3.053848505020141602e+00,3.053372621536254883e+00,3.052896738052368164e+00,3.052421331405639648e+00,3.051946163177490234e+00,3.051470994949340820e+00,3.050995826721191406e+00,3.050520658493041992e+00,3.050045967102050781e+00,3.049571514129638672e+00,3.049097061157226562e+00,3.048622846603393555e+00,3.048148393630981445e+00,3.047674417495727539e+00,3.047200679779052734e+00,3.046726942062377930e+00,3.046253442764282227e+00,3.045779705047607422e+00,3.045306444168090820e+00
2.604876756668090820e+00,2.604530811309814453e+00,2.604184627532958984e+00,2.603838443756103516e+00,2.603492498397827148e+00,2.603146553039550781e+00,2.602800846099853516e+00,2.602455139160156250e+00,2.602109670639038086e+00,2.601764202117919922e+00,2.601418733596801758e+00,2.601073503494262695e+00,2.600728034973144531e+00,2.600383043289184570e+00,2.600038051605224609e+00,2.599693059921264648e+00,2.599348306655883789e+00,2.599003314971923828e+00,2.598658561706542969e+00,2.598314046859741211e+00,2.597969770431518555e+00,2.597625494003295898e+00,2.597280979156494141e+00,2.596936941146850586e+00,2.596592903137207031e+00,2.596248865127563477e+00,2.595905065536499023e+00,2.595561027526855469e+00,2.595217227935791016e+00,2.594873666763305664e+00,2.594530344009399414e+00,2.594186782836914062e+00,2.593843221664428711e+00,2.593500137329101562e+00,2.593156814575195312e+00,2.592813968658447266e+00,2.592470884323120117e+00,2.592127799987792969e+00,2.591785192489624023e+00,2.591442346572875977e+00,2.591099739074707031e+00,2.590757369995117188e+00,2.590414762496948242e+00,1.269202709197998047e+00,1.246509790420532227e+00,1.236558556556701660e+00,1.235129714012145996e+00,1.292389512062072754e+00,1.279120087623596191e+00,1.268995285034179688e+00,1.270619511604309082e+00,2.587336778640747070e+00,2.586995124816894531e+00,2.586653709411621094e+00,2.586312532424926758e+00,2.585971117019653320e+00,2.585629940032958984e+00,2.585288763046264648e+00,2.584947824478149414e+00,2.584606885910034180e+00,2.584266185760498047e+00,2.583925485610961914e+00,2.583584785461425781e+00,2.583244085311889648e+00,2.582903623580932617e+00,2.582563400268554688e+00,2.582222938537597656e+00,2.581882715225219727e+00,2.581542730331420898e+00,2.581202745437622070e+00,2.580862760543823242e+00,2.580522775650024414e+00,2.580183029174804688e+00,2.579843521118164062e+00,2.579504013061523438e+00,2.579164505004882812e+00,2.578824996948242188e+00,2.578485727310180664e+00,2.578146457672119141e+00,2.577807426452636719e+00
2.255057573318481445e+00,2.254797935485839844e+00,2.254538536071777344e+00,2.254279136657714844e+00,2.254019737243652344e+00,2.253760576248168945e+00,2.253501415252685547e+00,2.253242254257202148e+00,2.252983331680297852e+00,2.252724170684814453e+00,2.252465248107910156e+00,2.252206325531005859e+00,2.251947641372680664e+00,2.251688718795776367e+00,2.251430034637451172e+00,2.251171350479125977e+00,2.250912666320800781e+00,2.250654220581054688e+00,2.250395774841308594e+00,2.250137329101562500e+00,2.249879121780395508e+00,2.249620676040649414e+00,2.249362468719482422e+00,2.249104261398315430e+00,2.248846054077148438e+00,2.248588085174560547e+00,2.248330116271972656e+00,2.248072385787963867e+00,2.247814416885375977e+00,2.247556686401367188e+00,2.247298955917358398e+00,2.247041225433349609e+00,2.246783733367919922e+00,2.246526241302490234e+00,2.246268749237060547e+00,2.246011018753051758e+00,2.245753765106201172e+00,2.245496511459350586e+00,2.245239257812500000e+00,2.244982004165649414e+00,2.244724750518798828e+00,2.244467735290527344e+00,2.244210720062255859e+00,2.243953704833984375e+00,1.235872626304626465e+00,1.229900956153869629e+00,1.227980375289916992e+00,1.237338900566101074e+00,1.291960597038269043e+00,1.287835121154785156e+00,2.242156505584716797e+00,2.241899967193603516e+00,2.241643667221069336e+00,2.241387367248535156e+00,2.241131067276000977e+00,2.240874528884887695e+00,2.240618467330932617e+00,2.240362405776977539e+00,2.240106344223022461e+00,2.239850282669067383e+00,2.239594221115112305e+00,2.239338159561157227e+00,2.239082336425781250e+00,2.238826751708984375e+00,2.238570928573608398e+00,2.238315105438232422e+00,2.238059520721435547e+00,2.237803936004638672e+00,2.237548589706420898e+00,2.237293243408203125e+00,2.237037658691406250e+00,2.236782312393188477e+00,2.236527204513549805e+00,2.236271858215332031e+00,2.236016750335693359e+00,2.235761404037475586e+00,2.235506534576416016e+00,2.235251665115356445e+00,2.234996557235717773e+00,2.234741687774658203e+00
1.988071441650390625e+00,1.987869620323181152e+00,1.987668037414550781e+00,1.987466454505920410e+00,1.987264871597290039e+00,1.987063407897949219e+00,1.986861824989318848e+00,1.986660361289978027e+00,1.986459016799926758e+00,1.986257791519165039e+00,1.986056208610534668e+00,1.985854983329772949e+00,1.985653758049011230e+00,1.985452651977539062e+00,1.985251545906066895e+00,1.985050320625305176e+00,1.984849333763122559e+00,1.984648227691650391e+00,1.984447240829467773e+00,1.984246373176574707e+00,1.984045267105102539e+00,1.983844518661499023e+00,1.983643651008605957e+00,1.983443021774291992e+00,1.983242273330688477e+00,1.983041405677795410e+00,1.982840776443481445e+00,1.982640147209167480e+00,1.982439637184143066e+00,1.982239127159118652e+00,1.982038736343383789e+00,1.981838226318359375e+00,1.981637954711914062e+00,1.981437325477600098e+00,1.981237053871154785e+00,1.981036782264709473e+00,1.980836629867553711e+00,1.980636358261108398e+00,1.980436205863952637e+00,1.980236172676086426e+00,1.980036139488220215e+00,1.979836106300354004e+00,1.979636073112487793e+00,1.979435920715332031e+00,1.221600890159606934e+00,1.219910979270935059e+00,1.219288587570190430e+00,1.224723100662231445e+00,1.288692355155944824e+00,1.291306495666503906e+00,1.978037595748901367e+00,1.977837920188903809e+00,1.977638363838195801e+00,1.977438569068908691e+00,1.977239131927490234e+00,1.977039694786071777e+00,1.976840257644653320e+00,1.976640939712524414e+00,1.976441621780395508e+00,1.976242303848266602e+00,1.976042985916137695e+00,1.975843787193298340e+00,1.975644588470458984e+00,1.975445270538330078e+00,1.975246191024780273e+00,1.975047111511230469e+00,1.974848151206970215e+00,1.974649190902709961e+00,1.974450230598449707e+00,1.974251389503479004e+00,1.974052548408508301e+00,1.973853707313537598e+00,1.973654747009277344e+00,1.973456025123596191e+00,1.973257303237915039e+00,1.973058581352233887e+00,1.972860097885131836e+00,1.972661495208740234e+00,1.972462892532348633e+00,1.972264409065246582e+00
1.777611970901489258e+00,1.777450799942016602e+00,1.777289628982543945e+00,1.777128458023071289e+00,1.776967406272888184e+00,1.776806116104125977e+00,1.776645064353942871e+00,1.776484012603759766e+00,1.776322960853576660e+00,1.776162028312683105e+00,1.776000857353210449e+00,1.775839924812316895e+00,1.775679111480712891e+00,1.775518178939819336e+00,1.775357246398925781e+00,1.775196433067321777e+00,1.775035619735717773e+00,1.774874925613403320e+00,1.774714231491088867e+00,1.774553298950195312e+00,1.774392724037170410e+00,1.774232029914855957e+00,1.774071455001831055e+00,1.773910880088806152e+00,1.773750185966491699e+00,1.773589611053466797e+00,1.773429155349731445e+00,1.773268699645996094e+00,1.773108243942260742e+00,1.772947669029235840e+00,1.772787332534790039e+00,1.772626996040344238e+00,1.772466659545898438e+00,1.772306442260742188e+00,1.772145986557006836e+00,1.771985769271850586e+00,1.771825551986694336e+00,1.771665334701538086e+00,1.771505236625671387e+00,1.771345138549804688e+00,1.771185040473937988e+00,1.771025061607360840e+00,1.770864963531494141e+00,1.770704984664916992e+00,1.214993715286254883e+00,1.209768772125244141e+00,1.208775162696838379e+00,1.213759541511535645e+00,1.219049811363220215e+00,1.265500545501708984e+00,1.769585728645324707e+00,1.769425988197326660e+00,1.769266247749328613e+00,1.769106507301330566e+00,1.768946886062622070e+00,1.768787264823913574e+00,1.768627405166625977e+00,1.768467783927917480e+00,1.768308281898498535e+00,1.768148779869079590e+00,1.767989277839660645e+00,1.767829775810241699e+00,1.767670392990112305e+00,1.767510890960693359e+00,1.767351508140563965e+00,1.767192244529724121e+00,1.767032742500305176e+00,1.766873359680175781e+00,1.766714096069335938e+00,1.766554832458496094e+00,1.766395688056945801e+00,1.766236543655395508e+00,1.766077399253845215e+00,1.765918254852294922e+00,1.765759110450744629e+00,1.765600085258483887e+00,1.765440940856933594e+00,1.765281915664672852e+00,1.765122890472412109e+00,1.764963984489440918e+00
1.607446193695068359e+00,1.607314348220825195e+00,1.607182502746582031e+00,1.607050776481628418e+00,1.606918811798095703e+00,1.606787085533142090e+00,1.606655359268188477e+00,1.606523752212524414e+00,1.606392025947570801e+00,1.606260180473327637e+00,1.606128573417663574e+00,1.605996966361999512e+00,1.605865359306335449e+00,1.605733633041381836e+00,1.605602145195007324e+00,1.605470657348632812e+00,1.605339169502258301e+00,1.605207681655883789e+00,1.605076074600219727e+00,1.604944586753845215e+00,1.604813218116760254e+00,1.604681849479675293e+00,1.604550480842590332e+00,1.604418873786926270e+00,1.604287624359130859e+00,1.604156255722045898e+00,1.604025006294250488e+00,1.603893756866455078e+00,1.603762388229370117e+00,1.603631138801574707e+00,1.603499889373779297e+00,1.603368759155273438e+00,1.603237628936767578e+00,1.603106379508972168e+00,1.602975249290466309e+00,1.602844119071960449e+00,1.602713108062744141e+00,1.602581977844238281e+00,1.602450847625732422e+00,1.602319836616516113e+00,1.602188825607299805e+00,1.602057814598083496e+00,1.601926922798156738e+00,1.601796030998229980e+00,1.601665139198303223e+00,1.195688724517822266e+00,1.195146679878234863e+00,1.198406815528869629e+00,1.202933907508850098e+00,1.242162227630615234e+00,1.246605157852172852e+00,1.600749254226684570e+00,1.600618600845336914e+00,1.600487828254699707e+00,1.600357174873352051e+00,1.600226521492004395e+00,1.600095868110656738e+00,1.599965214729309082e+00,1.599834561347961426e+00,1.599703907966613770e+00,1.599573373794555664e+00,1.599442839622497559e+00,1.599312305450439453e+00,1.599181771278381348e+00,1.599051356315612793e+00,1.598920822143554688e+00,1.598790407180786133e+00,1.598659992218017578e+00,1.598529696464538574e+00,1.598399162292480469e+00,1.598268747329711914e+00,1.598138451576232910e+00,1.598008155822753906e+00,1.597877860069274902e+00,1.597747683525085449e+00,1.597617387771606445e+00,1.597487211227416992e+00,1.597357034683227539e+00,1.597226858139038086e+00,1.597096562385559082e+00
1.467013120651245117e+00,1.466903328895568848e+00,1.466793537139892578e+00,1.466683626174926758e+00,1.466573834419250488e+00,1.466464161872863770e+00,1.466354370117187500e+00,1.466244697570800781e+00,1.466134905815124512e+00,1.466025233268737793e+00,1.465915560722351074e+00,1.465805888175964355e+00,1.465696334838867188e+00,1.465586543083190918e+00,1.465476989746093750e+00,1.465367436408996582e+00,1.465257883071899414e+00,1.465148210525512695e+00,1.465038657188415527e+00,1.464929223060607910e+00,1.464819669723510742e+00,1.464710235595703125e+00,1.464600682258605957e+00,1.464491248130798340e+00,1.464381814002990723e+00,1.464272379875183105e+00,1.464163064956665039e+00,1.464053511619567871e+00,1.463944196701049805e+00,1.463834881782531738e+00,1.463725566864013672e+00,1.463616251945495605e+00,1.463506817817687988e+00,1.463397502899169922e+00,1.463288307189941406e+00,1.463178992271423340e+00,1.463069796562194824e+00,1.462960481643676758e+00,1.462851285934448242e+00,1.462742090225219727e+00,1.462632894515991211e+00,1.462523818016052246e+00,1.462414503097534180e+00,1.462305426597595215e+00,1.462196350097656250e+00,1.462087273597717285e+00,1.461978077888488770e+00,1.192433953285217285e+00,1.193501591682434082e+00,1.223126888275146484e+00,1.210673928260803223e+00,1.232958912849426270e+00,1.461324095726013184e+00,1.461215138435363770e+00,1.461106181144714355e+00,1.460997343063354492e+00,1.460888385772705078e+00,1.460779547691345215e+00,1.460670590400695801e+00,1.460561752319335938e+00,1.460452914237976074e+00,1.460344195365905762e+00,1.460235238075256348e+00,1.460126399993896484e+00,1.460017681121826172e+00,1.459908962249755859e+00,1.459800124168395996e+00,1.459691405296325684e+00,1.459582805633544922e+00,1.459474086761474609e+00,1.459365367889404297e+00,1.459256768226623535e+00,1.459147930145263672e+00,1.459039330482482910e+00,1.458930730819702148e+00,1.458822131156921387e+00,1.458713531494140625e+00,1.458605051040649414e+00,1.458496451377868652e+00,1.458387970924377441e+00
1.349146127700805664e+00,1.349053263664245605e+00,1.348960280418395996e+00,1.348867416381835938e+00,1.348774671554565430e+00,1.348681807518005371e+00,1.348588943481445312e+00,1.348496079444885254e+00,1.348403334617614746e+00,1.348310589790344238e+00,1.348217844963073730e+00,1.348125100135803223e+00,1.348032236099243164e+00,1.347939610481262207e+00,1.347846865653991699e+00,1.347754120826721191e+00,1.347661495208740234e+00,1.347568750381469727e+00,1.347476124763488770e+00,1.347383499145507812e+00,1.347290873527526855e+00,1.347198128700256348e+00,1.347105622291564941e+00,1.347012996673583984e+00,1.346920371055603027e+00,1.346827864646911621e+00,1.346735239028930664e+00,1.346642732620239258e+00,1.346550107002258301e+00,1.346457600593566895e+00,1.346365213394165039e+00,1.346272587776184082e+00,1.346180081367492676e+00,1.346087694168090820e+00,1.345995187759399414e+00,1.345902800559997559e+00,1.345810294151306152e+00,1.345717906951904297e+00,1.345625519752502441e+00,1.345533132553100586e+00,1.345440745353698730e+00,1.345348238945007324e+00,1.345255970954895020e+00,1.345163583755493164e+00,1.345071315765380859e+00,1.344978928565979004e+00,1.344886541366577148e+00,1.344794273376464844e+00,1.344702005386352539e+00,1.213613629341125488e+00,1.194277405738830566e+00,1.178085684776306152e+00,1.192622661590576172e+00,1.344240903854370117e+00,1.344148755073547363e+00,1.344056367874145508e+00,1.343964219093322754e+00,1.343872070312500000e+00,1.343779921531677246e+00,1.343687772750854492e+00,1.343595743179321289e+00,1.343503594398498535e+00,1.343411564826965332e+00,1.343319416046142578e+00,1.343227386474609375e+00,1.343135237693786621e+00,1.343043208122253418e+00,1.342951178550720215e+00,1.342859148979187012e+00,1.342767119407653809e+00,1.342675209045410156e+00,1.342583179473876953e+00,1.342491269111633301e+00,1.342399239540100098e+00,1.342307329177856445e+00,1.342215299606323242e+00,1.342123389244079590e+00,1.342031478881835938e+00,1.341939568519592285e+00,1.341847777366638184e+00
1.248810529708862305e+00,1.248730897903442383e+00,1.248651385307312012e+00,1.248571872711181641e+00,1.248492360115051270e+00,1.248412847518920898e+00,1.248333215713500977e+00,1.248253703117370605e+00,1.248174190521240234e+00,1.248094677925109863e+00,1.248015284538269043e+00,1.247935652732849121e+00,1.247856259346008301e+00,1.247776746749877930e+00,1.247697353363037109e+00,1.247617959976196289e+00,1.247538447380065918e+00,1.247459053993225098e+00,1.247379660606384277e+00,1.247300267219543457e+00,1.247220754623413086e+00,1.247141361236572266e+00,1.247062087059020996e+00,1.246982693672180176e+00,1.246903419494628906e+00,1.246824026107788086e+00,1.246744632720947266e+00,1.246665358543395996e+00,1.246586084365844727e+00,1.246506810188293457e+00,1.246427416801452637e+00,1.246348142623901367e+00,1.246268868446350098e+00,1.246189713478088379e+00,1.246110439300537109e+00,1.246031165122985840e+00,1.245951890945434570e+00,1.245872735977172852e+00,1.245793461799621582e+00,1.245714306831359863e+00,1.245635032653808594e+00,1.245555877685546875e+00,1.245476722717285156e+00,1.245397567749023438e+00,1.245318531990051270e+00,1.245239257812500000e+00,1.245160222053527832e+00,1.245081067085266113e+00,1.245002031326293945e+00,1.244922876358032227e+00,1.244843721389770508e+00,1.168415784835815430e+00,1.156573057174682617e+00,1.195681571960449219e+00,1.244527459144592285e+00,1.244448423385620117e+00,1.244369387626647949e+00,1.244290471076965332e+00,1.244211435317993164e+00,1.244132518768310547e+00,1.244053483009338379e+00,1.243974566459655762e+00,1.243895649909973145e+00,1.243816614151000977e+00,1.243737697601318359e+00,1.243658781051635742e+00,1.243579864501953125e+00,1.243500947952270508e+00,1.243422031402587891e+00,1.243343114852905273e+00,1.243264317512512207e+00,1.243185400962829590e+00,1.243106603622436523e+00,1.243027687072753906e+00,1.242948889732360840e+00,1.242870092391967773e+00,1.242791295051574707e+00,1.242712497711181641e+00,1.242633581161499023e+00,1.242554783821105957e+00
1.162365794181823730e+00,1.162296891212463379e+00,1.162227988243103027e+00,1.162159085273742676e+00,1.162090182304382324e+00,1.162021160125732422e+00,1.161952257156372070e+00,1.161883354187011719e+00,1.161814570426940918e+00,1.161745667457580566e+00,1.161676764488220215e+00,1.161607861518859863e+00,1.161539077758789062e+00,1.161470174789428711e+00,1.161401391029357910e+00,1.161332488059997559e+00,1.161263704299926758e+00,1.161194920539855957e+00,1.161126017570495605e+00,1.161057233810424805e+00,1.160988450050354004e+00,1.160919666290283203e+00,1.160850882530212402e+00,1.160782098770141602e+00,1.160713315010070801e+00,1.160644650459289551e+00,1.160575866699218750e+00,1.160507202148437500e+00,1.160438418388366699e+00,1.160369634628295898e+00,1.160300970077514648e+00,1.160232305526733398e+00,1.160163640975952148e+00,1.160094857215881348e+00,1.160026192665100098e+00,1.159957528114318848e+00,1.159888863563537598e+00,1.159820199012756348e+00,1.159751653671264648e+00,1.159682869911193848e+00,1.159614324569702148e+00,1.159545660018920898e+00,1.159477114677429199e+00,1.159408450126647949e+00,1.159339785575866699e+00,1.159271240234375000e+00,1.159202694892883301e+00,1.159134149551391602e+00,1.159065604209899902e+00,1.158996939659118652e+00,1.158928394317626953e+00,1.158859848976135254e+00,1.158791422843933105e+00,1.158722758293151855e+00,1.158654332160949707e+00,1.158585786819458008e+00,1.158517360687255859e+00,1.158448815345764160e+00,1.158380270004272461e+00,1.158311843872070312e+00,1.158243417739868164e+00,1.158174991607666016e+00,1.158106565475463867e+00,1.158038139343261719e+00,1.157969713211059570e+00,1.157901287078857422e+00,1.157832860946655273e+00,1.157764434814453125e+00,1.157696127891540527e+00,1.157627701759338379e+00,1.157559394836425781e+00,1.157490968704223633e+00,1.157422542572021484e+00,1.157354235649108887e+00,1.157285928726196289e+00,1.157217502593994141e+00,1.157149195671081543e+00,1.157080888748168945e+00,1.157012581825256348e+00,1.156944274902343750e+00
1.087113976478576660e+00,1.087053656578063965e+00,1.086993455886840820e+00,1.086933135986328125e+00,1.086872816085815430e+00,1.086812496185302734e+00,1.086752295494079590e+00,1.086691975593566895e+00,1.086631774902343750e+00,1.086571455001831055e+00,1.086511254310607910e+00,1.086450934410095215e+00,1.086390733718872070e+00,1.086330533027648926e+00,1.086270213127136230e+00,1.086210012435913086e+00,1.086149811744689941e+00,1.086089730262756348e+00,1.086029529571533203e+00,1.085969209671020508e+00,1.085909128189086914e+00,1.085848927497863770e+00,1.085788726806640625e+00,1.085728526115417480e+00,1.085668444633483887e+00,1.085608243942260742e+00,1.085548162460327148e+00,1.085488080978393555e+00,1.085427880287170410e+00,1.085367798805236816e+00,1.085307598114013672e+00,1.085247516632080078e+00,1.085187435150146484e+00,1.085127353668212891e+00,1.085067272186279297e+00,1.085007190704345703e+00,1.084947109222412109e+00,1.084887027740478516e+00,1.084826946258544922e+00,1.084766864776611328e+00,1.084706902503967285e+00,1.084646821022033691e+00,1.084586858749389648e+00,1.084526777267456055e+00,1.084466695785522461e+00,1.084406733512878418e+00,1.084346771240234375e+00,1.084286689758300781e+00,1.084226727485656738e+00,1.084166765213012695e+00,1.084106683731079102e+00,1.084046721458435059e+00,1.083986878395080566e+00,1.083926796913146973e+00,1.083866834640502930e+00,1.083806991577148438e+00,1.083747029304504395e+00,1.083687067031860352e+00,1.083627104759216309e+00,1.083567142486572266e+00,1.083507299423217773e+00,1.083447337150573730e+00,1.083387374877929688e+00,1.083327531814575195e+00,1.083267688751220703e+00,1.083207845687866211e+00,1.083148002624511719e+00,1.083088040351867676e+00,1.083028197288513184e+00,1.082968354225158691e+00,1.082908511161804199e+00,1.082848787307739258e+00,1.082788944244384766e+00,1.082729101181030273e+00,1.082669258117675781e+00,1.082609415054321289e+00,1.082549571990966797e+00,1.082489848136901855e+00,1.082430005073547363e+00,1.082370281219482422e+00
1.021013379096984863e+00,1.020960211753845215e+00,1.020907044410705566e+00,1.020853757858276367e+00,1.020800590515136719e+00,1.020747423171997070e+00,1.020694255828857422e+00,1.020641088485717773e+00,1.020587921142578125e+00,1.020534753799438477e+00,1.020481586456298828e+00,1.020428538322448730e+00,1.020375370979309082e+00,1.020322203636169434e+00,1.020269036293029785e+00,1.020215988159179688e+00,1.020162820816040039e+00,1.020109772682189941e+00,1.020056605339050293e+00,1.020003557205200195e+00,1.019950509071350098e+00,1.019897341728210449e+00,1.019844293594360352e+00,1.019791245460510254e+00,1.019738078117370605e+00,1.019685029983520508e+00,1.019631981849670410e+00,1.019578933715820312e+00,1.019525885581970215e+00,1.019472837448120117e+00,1.019419789314270020e+00,1.019366860389709473e+00,1.019313693046569824e+00,1.019260764122009277e+00,1.019207715988159180e+00,1.019154787063598633e+00,1.019101738929748535e+00,1.019048690795898438e+00,1.018995761871337891e+00,1.018942713737487793e+00,1.018889784812927246e+00,1.018836855888366699e+00,1.018783807754516602e+00,1.018730878829956055e+00,1.018677830696105957e+00,1.018624901771545410e+00,1.018571972846984863e+00,1.018519043922424316e+00,1.018466114997863770e+00,1.018413186073303223e+00,1.018360257148742676e+00,1.018307328224182129e+00,1.018254399299621582e+00,1.018201470375061035e+00,1.018148541450500488e+00,1.018095731735229492e+00,1.018042802810668945e+00,1.017989873886108398e+00,1.017937064170837402e+00,1.017884135246276855e+00,1.017831325531005859e+00,1.017778396606445312e+00,1.017725467681884766e+00,1.017672657966613770e+00,1.017619848251342773e+00,1.017567038536071777e+00,1.017514109611511230e+00,1.017461299896240234e+00,1.017408490180969238e+00,1.017355680465698242e+00,1.017302870750427246e+00,1.017249941825866699e+00,1.017197251319885254e+00,1.017144441604614258e+00,1.017091751098632812e+00,1.017038941383361816e+00,1.016986131668090820e+00,1.016933321952819824e+00,1.016880512237548828e+00,1.016827821731567383e+00
9.624903798103332520e-01,9.624431133270263672e-01,9.623957276344299316e-01,9.623485207557678223e-01,9.623012542724609375e-01,9.622539877891540527e-01,9.622067809104919434e-01,9.621595144271850586e-01,9.621123075485229492e-01,9.620651006698608398e-01,9.620178341865539551e-01,9.619706273078918457e-01,9.619233012199401855e-01,9.618760943412780762e-01,9.618288874626159668e-01,9.617816805839538574e-01,9.617345333099365234e-01,9.616873264312744141e-01,9.616401195526123047e-01,9.615929722785949707e-01,9.615457653999328613e-01,9.614986181259155273e-01,9.614513516426086426e-01,9.614042043685913086e-01,9.613569974899291992e-01,9.613098502159118652e-01,9.612627029418945312e-01,9.612155556678771973e-01,9.611684679985046387e-01,9.611213207244873047e-01,9.610741734504699707e-01,9.610269665718078613e-01,9.609798192977905273e-01,9.609327316284179688e-01,9.608855843544006348e-01,9.608384966850280762e-01,9.607914090156555176e-01,9.607443213462829590e-01,9.606972336769104004e-01,9.606501460075378418e-01,9.606030583381652832e-01,9.605558514595031738e-01,9.605087637901306152e-01,9.604617357254028320e-01,9.604146480560302734e-01,9.603675603866577148e-01,9.603205323219299316e-01,9.602735042572021484e-01,9.602264165878295898e-01,9.601793885231018066e-01,9.601323604583740234e-01,9.600852131843566895e-01,9.600381851196289062e-01,9.599911570549011230e-01,9.599441289901733398e-01,9.598971009254455566e-01,9.598501324653625488e-01,9.598031044006347656e-01,9.597561359405517578e-01,9.597091078758239746e-01,9.596620202064514160e-01,9.596150517463684082e-01,9.595680236816406250e-01,9.595210552215576172e-01,9.594740867614746094e-01,9.594271183013916016e-01,9.593801498413085938e-01,9.593331813812255859e-01,9.592862725257873535e-01,9.592393040657043457e-01,9.591922760009765625e-01,9.591453075408935547e-01,9.590983986854553223e-01,9.590514302253723145e-01,9.590045213699340820e-01,9.589576125144958496e-01,9.589106440544128418e-01,9.588637351989746094e-01,9.588168263435363770e-01,9.587699770927429199e-01
9.103125333786010742e-01,9.102702140808105469e-01,9.102279543876647949e-01,9.101856946945190430e-01,9.101434350013732910e-01,9.101011753082275391e-01,9.100587964057922363e-01,9.100165367126464844e-01,9.099742770195007324e-01,9.099320173263549805e-01,9.098898172378540039e-01,9.098475575447082520e-01,9.098052978515625000e-01,9.097630977630615234e-01,9.097208380699157715e-01,9.096786379814147949e-01,9.096363186836242676e-01,9.095941185951232910e-01,9.095519185066223145e-01,9.095097184181213379e-01,9.094674587249755859e-01,9.094252586364746094e-01,9.093831181526184082e-01,9.093409180641174316e-01,9.092987179756164551e-01,9.092565178871154785e-01,9.092142581939697266e-01,9.091720581054687500e-01,9.091299176216125488e-01,9.090877175331115723e-01,9.090455770492553711e-01,9.090034365653991699e-01,9.089612364768981934e-01,9.089190959930419922e-01,9.088769555091857910e-01,9.088346958160400391e-01,9.087925553321838379e-01,9.087504148483276367e-01,9.087082743644714355e-01,9.086661934852600098e-01,9.086240530014038086e-01,9.085819125175476074e-01,9.085398316383361816e-01,9.084976911544799805e-01,9.084556102752685547e-01,9.084133505821228027e-01,9.083712697029113770e-01,9.083291888236999512e-01,9.082871079444885254e-01,9.082450270652770996e-01,9.082029461860656738e-01,9.081608057022094727e-01,9.081187844276428223e-01,9.080767035484313965e-01,9.080346226692199707e-01,9.079924821853637695e-01,9.079504013061523438e-01,9.079083204269409180e-01,9.078662991523742676e-01,9.078242182731628418e-01,9.077821969985961914e-01,9.077401161193847656e-01,9.076980948448181152e-01,9.076560735702514648e-01,9.076139330863952637e-01,9.075719118118286133e-01,9.075298905372619629e-01,9.074878692626953125e-01,9.074458479881286621e-01,9.074038267135620117e-01,9.073618054389953613e-01,9.073198437690734863e-01,9.072778224945068359e-01,9.072358012199401855e-01,9.071937203407287598e-01,9.071517586708068848e-01,9.071097373962402344e-01,9.070677757263183594e-01,9.070258140563964844e-01,9.069838523864746094e-01
