3.098358392715454102e+00,3.176949501037597656e+00,3.259630918502807617e+00,3.346730947494506836e+00,3.438613653182983398e+00,3.535683870315551758e+00,3.638385057449340820e+00,3.747229814529418945e+00,3.862787485122680664e+00,3.985699415206909180e+00,4.116690158843994141e+00,4.256583690643310547e+00,4.406319141387939453e+00,4.566974163055419922e+00,4.739786624908447266e+00,4.926191806793212891e+00,5.000000000000000000e+00,5.000000000000000000e+00,5.000000000000000000e+00,5.000000000000000000e+00,5.000000000000000000e+00,5.000000000000000000e+00,5.000000000000000000e+00,5.000000000000000000e+00,5.000000000000000000e+00,5.000000000000000000e+00,5.000000000000000000e+00,5.000000000000000000e+00,5.000000000000000000e+00,5.000000000000000000e+00,5.000000000000000000e+00,5.000000000000000000e+00,5.000000000000000000e+00,5.000000000000000000e+00,5.000000000000000000e+00,5.000000000000000000e+00,5.000000000000000000e+00,5.000000000000000000e+00,5.000000000000000000e+00,5.000000000000000000e+00,5.000000000000000000e+00,5.000000000000000000e+00,5.000000000000000000e+00,5.000000000000000000e+00,5.000000000000000000e+00,5.000000000000000000e+00,5.000000000000000000e+00,5.000000000000000000e+00,5.000000000000000000e+00,5.000000000000000000e+00,5.000000000000000000e+00,5.000000000000000000e+00,5.000000000000000000e+00,5.000000000000000000e+00,5.000000000000000000e+00,5.000000000000000000e+00,5.000000000000000000e+00,5.000000000000000000e+00,5.000000000000000000e+00,5.000000000000000000e+00,5.000000000000000000e+00,5.000000000000000000e+00,5.000000000000000000e+00,5.000000000000000000e+00,5.000000000000000000e+00,5.000000000000000000e+00,5.000000000000000000e+00,5.000000000000000000e+00,5.000000000000000000e+00,5.000000000000000000e+00,4.845037937164306641e+00,4.686562061309814453e+00,4.538125038146972656e+00,4.398801803588867188e+00,4.267778396606445312e+00,4.144334793090820312e+00,4.027831554412841797e+00,3.917699575424194336e+00,3.813426733016967773e+00,3.714559793472290039e+00
3.098292350769042969e+00,3.176879644393920898e+00,3.259557485580444336e+00,3.346653461456298828e+00,3.438532352447509766e+00,3.535597801208496094e+00,3.638302564620971680e+00,3.747143268585205078e+00,3.862695932388305664e+00,3.985601425170898438e+00,4.116585731506347656e+00,4.256472110748291016e+00,4.406199932098388672e+00,4.566845417022705078e+00,4.739648342132568359e+00,4.926042556762695312e+00,5.000000000000000000e+00,5.000000000000000000e+00,5.000000000000000000e+00,5.000000000000000000e+00,5.000000000000000000e+00,5.000000000000000000e+00,5.000000000000000000e+00,5.000000000000000000e+00,5.000000000000000000e+00,5.000000000000000000e+00,5.000000000000000000e+00,5.000000000000000000e+00,5.000000000000000000e+00,5.000000000000000000e+00,5.000000000000000000e+00,5.000000000000000000e+00,5.000000000000000000e+00,5.000000000000000000e+00,5.000000000000000000e+00,5.000000000000000000e+00,5.000000000000000000e+00,5.000000000000000000e+00,5.000000000000000000e+00,5.000000000000000000e+00,5.000000000000000000e+00,5.000000000000000000e+00,5.000000000000000000e+00,5.000000000000000000e+00,5.000000000000000000e+00,5.000000000000000000e+00,5.000000000000000000e+00,5.000000000000000000e+00,5.000000000000000000e+00,5.000000000000000000e+00,5.000000000000000000e+00,5.000000000000000000e+00,5.000000000000000000e+00,5.000000000000000000e+00,5.000000000000000000e+00,5.000000000000000000e+00,5.000000000000000000e+00,5.000000000000000000e+00,5.000000000000000000e+00,5.000000000000000000e+00,5.000000000000000000e+00,5.000000000000000000e+00,5.000000000000000000e+00,5.000000000000000000e+00,5.000000000000000000e+00,5.000000000000000000e+00,5.000000000000000000e+00,5.000000000000000000e+00,5.000000000000000000e+00,5.000000000000000000e+00,4.845179557800292969e+00,4.686694622039794922e+00,4.538249015808105469e+00,4.398918628692626953e+00,4.267888545989990234e+00,4.144436836242675781e+00,4.027923583984375000e+00,3.917782545089721680e+00,3.813504219055175781e+00,3.714633464813232422e+00
3.098226070404052734e+00,3.176810026168823242e+00,3.259484291076660156e+00,3.346576452255249023e+00,3.438450574874877930e+00,3.535511255264282227e+00,3.638211250305175781e+00,3.747055768966674805e+00,3.862603902816772461e+00,3.985503911972045898e+00,4.116481781005859375e+00,4.256360530853271484e+00,4.406080245971679688e+00,4.566717147827148438e+00,4.739510059356689453e+00,4.925893306732177734e+00,5.000000000000000000e+00,5.000000000000000000e+00,5.000000000000000000e+00,5.000000000000000000e+00,5.000000000000000000e+00,5.000000000000000000e+00,5.000000000000000000e+00,5.000000000000000000e+00,5.000000000000000000e+00,5.000000000000000000e+00,5.000000000000000000e+00,5.000000000000000000e+00,5.000000000000000000e+00,5.000000000000000000e+00,5.000000000000000000e+00,5.000000000000000000e+00,5.000000000000000000e+00,5.000000000000000000e+00,5.000000000000000000e+00,5.000000000000000000e+00,5.000000000000000000e+00,5.000000000000000000e+00,5.000000000000000000e+00,5.000000000000000000e+00,5.000000000000000000e+00,5.000000000000000000e+00,5.000000000000000000e+00,5.000000000000000000e+00,5.000000000000000000e+00,5.000000000000000000e+00,5.000000000000000000e+00,5.000000000000000000e+00,5.000000000000000000e+00,5.000000000000000000e+00,5.000000000000000000e+00,5.000000000000000000e+00,5.000000000000000000e+00,5.000000000000000000e+00,5.000000000000000000e+00,5.000000000000000000e+00,5.000000000000000000e+00,5.000000000000000000e+00,5.000000000000000000e+00,5.000000000000000000e+00,5.000000000000000000e+00,5.000000000000000000e+00,5.000000000000000000e+00,5.000000000000000000e+00,5.000000000000000000e+00,5.000000000000000000e+00,5.000000000000000000e+00,5.000000000000000000e+00,5.000000000000000000e+00,5.000000000000000000e+00,4.845321178436279297e+00,4.686827182769775391e+00,4.538373470306396484e+00,4.399030208587646484e+00,4.267988681793212891e+00,4.144528388977050781e+00,4.028009891510009766e+00,3.917864322662353516e+00,3.813581943511962891e+00,3.714706897735595703e+00
3.098160028457641602e+00,3.176740407943725586e+00,3.259410858154296875e+00,3.346498966217041016e+00,3.438368797302246094e+00,3.535424947738647461e+00,3.638119935989379883e+00,3.746959209442138672e+00,3.862511396408081055e+00,3.985405921936035156e+00,4.116377353668212891e+00,4.256249427795410156e+00,4.405961036682128906e+00,4.566588878631591797e+00,4.739371776580810547e+00,4.925744056701660156e+00,5.000000000000000000e+00,5.000000000000000000e+00,5.000000000000000000e+00,5.000000000000000000e+00,5.000000000000000000e+00,5.000000000000000000e+00,5.000000000000000000e+00,5.000000000000000000e+00,5.000000000000000000e+00,5.000000000000000000e+00,5.000000000000000000e+00,5.000000000000000000e+00,5.000000000000000000e+00,5.000000000000000000e+00,5.000000000000000000e+00,5.000000000000000000e+00,5.000000000000000000e+00,5.000000000000000000e+00,5.000000000000000000e+00,5.000000000000000000e+00,5.000000000000000000e+00,5.000000000000000000e+00,5.000000000000000000e+00,5.000000000000000000e+00,5.000000000000000000e+00,5.000000000000000000e+00,5.000000000000000000e+00,5.000000000000000000e+00,5.000000000000000000e+00,5.000000000000000000e+00,5.000000000000000000e+00,5.000000000000000000e+00,5.000000000000000000e+00,5.000000000000000000e+00,5.000000000000000000e+00,5.000000000000000000e+00,5.000000000000000000e+00,5.000000000000000000e+00,5.000000000000000000e+00,5.000000000000000000e+00,5.000000000000000000e+00,5.000000000000000000e+00,5.000000000000000000e+00,5.000000000000000000e+00,5.000000000000000000e+00,5.000000000000000000e+00,5.000000000000000000e+00,5.000000000000000000e+00,5.000000000000000000e+00,5.000000000000000000e+00,5.000000000000000000e+00,5.000000000000000000e+00,5.000000000000000000e+00,5.000000000000000000e+00,4.845459461212158203e+00,4.686950206756591797e+00,4.538483142852783203e+00,4.399133205413818359e+00,4.268085956573486328e+00,4.144619941711425781e+00,4.028096675872802734e+00,3.917946338653564453e+00,3.813659429550170898e+00,3.714780092239379883e+00
3.098093509674072266e+00,3.176670789718627930e+00,3.259337425231933594e+00,3.346421957015991211e+00,3.438287496566772461e+00,3.535338878631591797e+00,3.638028621673583984e+00,3.746862173080444336e+00,3.862408161163330078e+00,3.985307931900024414e+00,4.116272926330566406e+00,4.256137847900390625e+00,4.405841350555419922e+00,4.566460609436035156e+00,4.739233493804931641e+00,4.925594329833984375e+00,5.000000000000000000e+00,5.000000000000000000e+00,5.000000000000000000e+00,5.000000000000000000e+00,5.000000000000000000e+00,5.000000000000000000e+00,5.000000000000000000e+00,5.000000000000000000e+00,5.000000000000000000e+00,5.000000000000000000e+00,5.000000000000000000e+00,5.000000000000000000e+00,5.000000000000000000e+00,5.000000000000000000e+00,5.000000000000000000e+00,5.000000000000000000e+00,5.000000000000000000e+00,5.000000000000000000e+00,5.000000000000000000e+00,5.000000000000000000e+00,5.000000000000000000e+00,5.000000000000000000e+00,5.000000000000000000e+00,5.000000000000000000e+00,5.000000000000000000e+00,5.000000000000000000e+00,5.000000000000000000e+00,5.000000000000000000e+00,5.000000000000000000e+00,5.000000000000000000e+00,5.000000000000000000e+00,5.000000000000000000e+00,5.000000000000000000e+00,5.000000000000000000e+00,5.000000000000000000e+00,5.000000000000000000e+00,5.000000000000000000e+00,5.000000000000000000e+00,5.000000000000000000e+00,5.000000000000000000e+00,5.000000000000000000e+00,5.000000000000000000e+00,5.000000000000000000e+00,5.000000000000000000e+00,5.000000000000000000e+00,5.000000000000000000e+00,5.000000000000000000e+00,5.000000000000000000e+00,5.000000000000000000e+00,5.000000000000000000e+00,5.000000000000000000e+00,5.000000000000000000e+00,5.000000000000000000e+00,5.000000000000000000e+00,4.845584869384765625e+00,4.687067508697509766e+00,4.538593292236328125e+00,4.399236679077148438e+00,4.268182754516601562e+00,4.144711494445800781e+00,4.028182983398437500e+00,3.918027639389038086e+00,3.813736915588378906e+00,3.714853763580322266e+00
3.098027229309082031e+00,3.176601171493530273e+00,3.259264230728149414e+00,3.346344470977783203e+00,3.438205718994140625e+00,3.535252332687377930e+00,3.637937068939208984e+00,3.746765375137329102e+00,3.862305641174316406e+00,3.985198020935058594e+00,4.116168498992919922e+00,4.256026268005371094e+00,4.405722141265869141e+00,4.566332340240478516e+00,4.739095211029052734e+00,4.925445079803466797e+00,5.000000000000000000e+00,5.000000000000000000e+00,5.000000000000000000e+00,5.000000000000000000e+00,5.000000000000000000e+00,5.000000000000000000e+00,5.000000000000000000e+00,5.000000000000000000e+00,5.000000000000000000e+00,5.000000000000000000e+00,5.000000000000000000e+00,5.000000000000000000e+00,5.000000000000000000e+00,5.000000000000000000e+00,5.000000000000000000e+00,5.000000000000000000e+00,5.000000000000000000e+00,5.000000000000000000e+00,5.000000000000000000e+00,5.000000000000000000e+00,5.000000000000000000e+00,5.000000000000000000e+00,5.000000000000000000e+00,5.000000000000000000e+00,5.000000000000000000e+00,5.000000000000000000e+00,4.733418464660644531e+00,4.768312454223632812e+00,5.000000000000000000e+00,5.000000000000000000e+00,5.000000000000000000e+00,5.000000000000000000e+00,5.000000000000000000e+00,5.000000000000000000e+00,5.000000000000000000e+00,5.000000000000000000e+00,5.000000000000000000e+00,5.000000000000000000e+00,5.000000000000000000e+00,5.000000000000000000e+00,5.000000000000000000e+00,5.000000000000000000e+00,5.000000000000000000e+00,5.000000000000000000e+00,5.000000000000000000e+00,5.000000000000000000e+00,5.000000000000000000e+00,5.000000000000000000e+00,5.000000000000000000e+00,5.000000000000000000e+00,5.000000000000000000e+00,5.000000000000000000e+00,5.000000000000000000e+00,5.000000000000000000e+00,4.845709800720214844e+00,4.687184810638427734e+00,4.538702964782714844e+00,4.399339675903320312e+00,4.268280029296875000e+00,4.144803047180175781e+00,4.028269290924072266e+00,3.918109655380249023e+00,3.813814640045166016e+00,3.714927434921264648e+00
3.097961187362670898e+00,3.176531553268432617e+00,3.259190797805786133e+00,3.346267223358154297e+00,3.438123941421508789e+00,3.535166263580322266e+00,3.637845993041992188e+00,3.746668338775634766e+00,3.862202405929565430e+00,3.985088348388671875e+00,4.116051197052001953e+00,4.255914688110351562e+00,4.405602455139160156e+00,4.566204071044921875e+00,4.738956928253173828e+00,4.925295829772949219e+00,5.000000000000000000e+00,5.000000000000000000e+00,5.000000000000000000e+00,5.000000000000000000e+00,5.000000000000000000e+00,5.000000000000000000e+00,5.000000000000000000e+00,5.000000000000000000e+00,5.000000000000000000e+00,5.000000000000000000e+00,5.000000000000000000e+00,5.000000000000000000e+00,5.000000000000000000e+00,5.000000000000000000e+00,5.000000000000000000e+00,5.000000000000000000e+00,5.000000000000000000e+00,5.000000000000000000e+00,5.000000000000000000e+00,5.000000000000000000e+00,5.000000000000000000e+00,5.000000000000000000e+00,5.000000000000000000e+00,5.000000000000000000e+00,5.000000000000000000e+00,5.000000000000000000e+00,4.750810146331787109e+00,5.000000000000000000e+00,5.000000000000000000e+00,5.000000000000000000e+00,5.000000000000000000e+00,5.000000000000000000e+00,5.000000000000000000e+00,5.000000000000000000e+00,5.000000000000000000e+00,5.000000000000000000e+00,5.000000000000000000e+00,5.000000000000000000e+00,5.000000000000000000e+00,5.000000000000000000e+00,5.000000000000000000e+00,5.000000000000000000e+00,5.000000000000000000e+00,5.000000000000000000e+00,5.000000000000000000e+00,5.000000000000000000e+00,5.000000000000000000e+00,5.000000000000000000e+00,5.000000000000000000e+00,5.000000000000000000e+00,5.000000000000000000e+00,5.000000000000000000e+00,5.000000000000000000e+00,5.000000000000000000e+00,4.845835208892822266e+00,4.687301635742187500e+00,4.538812637329101562e+00,4.399442672729492188e+00,4.268377304077148438e+00,4.144894599914550781e+00,4.028356075286865234e+00,3.918191432952880859e+00,3.813892126083374023e+00,3.715001106262207031e+00
3.097894906997680664e+00,3.176461696624755859e+00,3.259117841720581055e+00,3.346189975738525391e+00,3.438042640686035156e+00,3.535079956054687500e+00,3.637754440307617188e+00,3.746571302413940430e+00,3.862099647521972656e+00,3.984978914260864258e+00,4.115934371948242188e+00,4.255789756774902344e+00,4.405483245849609375e+00,4.566075801849365234e+00,4.738819122314453125e+00,4.925146579742431641e+00,5.000000000000000000e+00,5.000000000000000000e+00,5.000000000000000000e+00,5.000000000000000000e+00,5.000000000000000000e+00,5.000000000000000000e+00,5.000000000000000000e+00,5.000000000000000000e+00,5.000000000000000000e+00,5.000000000000000000e+00,5.000000000000000000e+00,5.000000000000000000e+00,5.000000000000000000e+00,5.000000000000000000e+00,5.000000000000000000e+00,5.000000000000000000e+00,5.000000000000000000e+00,5.000000000000000000e+00,5.000000000000000000e+00,5.000000000000000000e+00,5.000000000000000000e+00,5.000000000000000000e+00,5.000000000000000000e+00,5.000000000000000000e+00,5.000000000000000000e+00,4.775557994842529297e+00,4.818028450012207031e+00,5.000000000000000000e+00,5.000000000000000000e+00,5.000000000000000000e+00,5.000000000000000000e+00,5.000000000000000000e+00,5.000000000000000000e+00,5.000000000000000000e+00,5.000000000000000000e+00,5.000000000000000000e+00,5.000000000000000000e+00,5.000000000000000000e+00,5.000000000000000000e+00,5.000000000000000000e+00,5.000000000000000000e+00,5.000000000000000000e+00,5.000000000000000000e+00,5.000000000000000000e+00,5.000000000000000000e+00,5.000000000000000000e+00,5.000000000000000000e+00,5.000000000000000000e+00,5.000000000000000000e+00,5.000000000000000000e+00,5.000000000000000000e+00,5.000000000000000000e+00,5.000000000000000000e+00,5.000000000000000000e+00,4.845960140228271484e+00,4.687418937683105469e+00,4.538922786712646484e+00,4.399546146392822266e+00,4.268474102020263672e+00,4.144986152648925781e+00,4.028442382812500000e+00,3.918273448944091797e+00,3.813969850540161133e+00,3.715074539184570312e+00
3.097828626632690430e+00,3.176392316818237305e+00,3.259044408798217773e+00,3.346112728118896484e+00,3.437960863113403320e+00,3.534993648529052734e+00,3.637663364410400391e+00,3.746474742889404297e+00,3.861996650695800781e+00,3.984869241714477539e+00,4.115817546844482422e+00,4.255664825439453125e+00,4.405349254608154297e+00,4.565947532653808594e+00,4.738680839538574219e+00,4.924997329711914062e+00,5.000000000000000000e+00,5.000000000000000000e+00,5.000000000000000000e+00,5.000000000000000000e+00,5.000000000000000000e+00,5.000000000000000000e+00,5.000000000000000000e+00,5.000000000000000000e+00,5.000000000000000000e+00,5.000000000000000000e+00,5.000000000000000000e+00,5.000000000000000000e+00,5.000000000000000000e+00,5.000000000000000000e+00,5.000000000000000000e+00,5.000000000000000000e+00,5.000000000000000000e+00,5.000000000000000000e+00,5.000000000000000000e+00,5.000000000000000000e+00,5.000000000000000000e+00,5.000000000000000000e+00,5.000000000000000000e+00,5.000000000000000000e+00,4.667027950286865234e+00,4.699446201324462891e+00,4.742193222045898438e+00,4.816612720489501953e+00,4.926232814788818359e+00,5.000000000000000000e+00,5.000000000000000000e+00,5.000000000000000000e+00,5.000000000000000000e+00,5.000000000000000000e+00,5.000000000000000000e+00,5.000000000000000000e+00,5.000000000000000000e+00,5.000000000000000000e+00,5.000000000000000000e+00,5.000000000000000000e+00,5.000000000000000000e+00,5.000000000000000000e+00,5.000000000000000000e+00,5.000000000000000000e+00,5.000000000000000000e+00,5.000000000000000000e+00,5.000000000000000000e+00,5.000000000000000000e+00,5.000000000000000000e+00,5.000000000000000000e+00,5.000000000000000000e+00,5.000000000000000000e+00,5.000000000000000000e+00,5.000000000000000000e+00,4.846085548400878906e+00,4.687535762786865234e+00,4.539032459259033203e+00,4.399649143218994141e+00,4.268571376800537109e+00,4.145078182220458984e+00,4.028528690338134766e+00,3.918355226516723633e+00,3.814046859741210938e+00,3.715148210525512695e+00
3.097762346267700195e+00,3.176322460174560547e+00,3.258970975875854492e+00,3.346035242080688477e+00,3.437879562377929688e+00,3.534907579421997070e+00,3.637571811676025391e+00,3.746377706527709961e+00,3.861893415451049805e+00,3.984759807586669922e+00,4.115700721740722656e+00,4.255539417266845703e+00,4.405215263366699219e+00,4.565803527832031250e+00,4.738542556762695312e+00,4.924848079681396484e+00,5.000000000000000000e+00,5.000000000000000000e+00,5.000000000000000000e+00,5.000000000000000000e+00,5.000000000000000000e+00,5.000000000000000000e+00,5.000000000000000000e+00,5.000000000000000000e+00,5.000000000000000000e+00,5.000000000000000000e+00,5.000000000000000000e+00,5.000000000000000000e+00,5.000000000000000000e+00,5.000000000000000000e+00,5.000000000000000000e+00,5.000000000000000000e+00,5.000000000000000000e+00,5.000000000000000000e+00,5.000000000000000000e+00,5.000000000000000000e+00,5.000000000000000000e+00,5.000000000000000000e+00,5.000000000000000000e+00,5.000000000000000000e+00,4.696758747100830078e+00,4.700918674468994141e+00,4.699977397918701172e+00,4.756183624267578125e+00,4.944458484649658203e+00,5.000000000000000000e+00,5.000000000000000000e+00,5.000000000000000000e+00,5.000000000000000000e+00,5.000000000000000000e+00,5.000000000000000000e+00,5.000000000000000000e+00,5.000000000000000000e+00,5.000000000000000000e+00,5.000000000000000000e+00,5.000000000000000000e+00,5.000000000000000000e+00,5.000000000000000000e+00,5.000000000000000000e+00,5.000000000000000000e+00,5.000000000000000000e+00,5.000000000000000000e+00,5.000000000000000000e+00,5.000000000000000000e+00,5.000000000000000000e+00,5.000000000000000000e+00,5.000000000000000000e+00,5.000000000000000000e+00,5.000000000000000000e+00,5.000000000000000000e+00,4.846210479736328125e+00,4.687653064727783203e+00,4.539142608642578125e+00,4.399752616882324219e+00,4.268668651580810547e+00,4.145169258117675781e+00,4.028615474700927734e+00,3.918437242507934570e+00,3.814124584197998047e+00,3.715221881866455078e+00
3.097657442092895508e+00,3.176234722137451172e+00,3.258897781372070312e+00,3.345958232879638672e+00,3.437797784805297852e+00,3.534821033477783203e+00,3.637480258941650391e+00,3.746280908584594727e+00,3.861790657043457031e+00,3.984650135040283203e+00,4.115583896636962891e+00,4.255414485931396484e+00,4.405081272125244141e+00,4.565659523010253906e+00,4.738388061523437500e+00,4.924698829650878906e+00,5.000000000000000000e+00,5.000000000000000000e+00,5.000000000000000000e+00,5.000000000000000000e+00,5.000000000000000000e+00,5.000000000000000000e+00,5.000000000000000000e+00,5.000000000000000000e+00,5.000000000000000000e+00,5.000000000000000000e+00,5.000000000000000000e+00,5.000000000000000000e+00,5.000000000000000000e+00,5.000000000000000000e+00,5.000000000000000000e+00,5.000000000000000000e+00,5.000000000000000000e+00,5.000000000000000000e+00,5.000000000000000000e+00,5.000000000000000000e+00,5.000000000000000000e+00,5.000000000000000000e+00,5.000000000000000000e+00,5.000000000000000000e+00,4.718198299407958984e+00,4.717089176177978516e+00,4.706845283508300781e+00,4.746332168579101562e+00,4.933824062347412109e+00,5.000000000000000000e+00,5.000000000000000000e+00,5.000000000000000000e+00,5.000000000000000000e+00,5.000000000000000000e+00,5.000000000000000000e+00,5.000000000000000000e+00,5.000000000000000000e+00,5.000000000000000000e+00,5.000000000000000000e+00,5.000000000000000000e+00,5.000000000000000000e+00,5.000000000000000000e+00,5.000000000000000000e+00,5.000000000000000000e+00,5.000000000000000000e+00,5.000000000000000000e+00,5.000000000000000000e+00,5.000000000000000000e+00,5.000000000000000000e+00,5.000000000000000000e+00,5.000000000000000000e+00,5.000000000000000000e+00,5.000000000000000000e+00,5.000000000000000000e+00,4.846335887908935547e+00,4.687769889831542969e+00,4.539252281188964844e+00,4.399855613708496094e+00,4.268765449523925781e+00,4.145260810852050781e+00,4.028702259063720703e+00,3.918519020080566406e+00,3.814202070236206055e+00,3.715295553207397461e+00
3.097541809082031250e+00,3.176113128662109375e+00,3.258774518966674805e+00,3.345853328704833984e+00,3.437713623046875000e+00,3.534735202789306641e+00,3.637389183044433594e+00,3.746184110641479492e+00,3.861687660217285156e+00,3.984540224075317383e+00,4.115466594696044922e+00,4.255289554595947266e+00,4.404947280883789062e+00,4.565515995025634766e+00,4.738233089447021484e+00,4.924532413482666016e+00,5.000000000000000000e+00,5.000000000000000000e+00,5.000000000000000000e+00,5.000000000000000000e+00,5.000000000000000000e+00,5.000000000000000000e+00,5.000000000000000000e+00,5.000000000000000000e+00,5.000000000000000000e+00,5.000000000000000000e+00,5.000000000000000000e+00,5.000000000000000000e+00,5.000000000000000000e+00,5.000000000000000000e+00,5.000000000000000000e+00,5.000000000000000000e+00,5.000000000000000000e+00,5.000000000000000000e+00,5.000000000000000000e+00,5.000000000000000000e+00,5.000000000000000000e+00,5.000000000000000000e+00,5.000000000000000000e+00,5.000000000000000000e+00,4.733822822570800781e+00,4.722515106201171875e+00,4.700641155242919922e+00,4.748929023742675781e+00,4.939992904663085938e+00,5.000000000000000000e+00,5.000000000000000000e+00,5.000000000000000000e+00,5.000000000000000000e+00,5.000000000000000000e+00,5.000000000000000000e+00,5.000000000000000000e+00,5.000000000000000000e+00,5.000000000000000000e+00,5.000000000000000000e+00,5.000000000000000000e+00,5.000000000000000000e+00,5.000000000000000000e+00,5.000000000000000000e+00,5.000000000000000000e+00,5.000000000000000000e+00,5.000000000000000000e+00,5.000000000000000000e+00,5.000000000000000000e+00,5.000000000000000000e+00,5.000000000000000000e+00,5.000000000000000000e+00,5.000000000000000000e+00,5.000000000000000000e+00,5.000000000000000000e+00,4.846460819244384766e+00,4.687887191772460938e+00,4.539361953735351562e+00,4.399959087371826172e+00,4.268862724304199219e+00,4.145352840423583984e+00,4.028788566589355469e+00,3.918601036071777344e+00,3.814279794692993164e+00,3.715368747711181641e+00
3.097438335418701172e+00,3.175992012023925781e+00,3.258646726608276367e+00,3.345718622207641602e+00,3.437571525573730469e+00,3.534610033035278320e+00,3.637286424636840820e+00,3.746087074279785156e+00,3.861584901809692383e+00,3.984431028366088867e+00,4.115349769592285156e+00,4.255164623260498047e+00,4.404813289642333984e+00,4.565371990203857422e+00,4.738078117370605469e+00,4.924365043640136719e+00,5.000000000000000000e+00,5.000000000000000000e+00,5.000000000000000000e+00,5.000000000000000000e+00,5.000000000000000000e+00,5.000000000000000000e+00,5.000000000000000000e+00,5.000000000000000000e+00,5.000000000000000000e+00,5.000000000000000000e+00,5.000000000000000000e+00,5.000000000000000000e+00,5.000000000000000000e+00,5.000000000000000000e+00,5.000000000000000000e+00,5.000000000000000000e+00,5.000000000000000000e+00,5.000000000000000000e+00,5.000000000000000000e+00,5.000000000000000000e+00,5.000000000000000000e+00,5.000000000000000000e+00,5.000000000000000000e+00,5.000000000000000000e+00,4.749090194702148438e+00,4.712084770202636719e+00,4.708655357360839844e+00,4.733020305633544922e+00,4.947815418243408203e+00,5.000000000000000000e+00,5.000000000000000000e+00,5.000000000000000000e+00,5.000000000000000000e+00,5.000000000000000000e+00,5.000000000000000000e+00,5.000000000000000000e+00,5.000000000000000000e+00,5.000000000000000000e+00,5.000000000000000000e+00,5.000000000000000000e+00,5.000000000000000000e+00,5.000000000000000000e+00,5.000000000000000000e+00,5.000000000000000000e+00,5.000000000000000000e+00,5.000000000000000000e+00,5.000000000000000000e+00,5.000000000000000000e+00,5.000000000000000000e+00,5.000000000000000000e+00,5.000000000000000000e+00,5.000000000000000000e+00,5.000000000000000000e+00,5.000000000000000000e+00,4.846586227416992188e+00,4.688004493713378906e+00,4.539472103118896484e+00,4.400062084197998047e+00,4.268959999084472656e+00,4.145444393157958984e+00,4.028874874114990234e+00,3.918682336807250977e+00,3.814357280731201172e+00,3.715442419052124023e+00
3.097371816635131836e+00,3.175911903381347656e+00,3.258538961410522461e+00,3.345584154129028320e+00,3.437429428100585938e+00,3.534459590911865234e+00,3.637127399444580078e+00,3.745937585830688477e+00,3.861459255218505859e+00,3.984321355819702148e+00,4.115232944488525391e+00,4.255039691925048828e+00,4.404679298400878906e+00,4.565227985382080078e+00,4.737923145294189453e+00,4.924197673797607422e+00,5.000000000000000000e+00,5.000000000000000000e+00,5.000000000000000000e+00,5.000000000000000000e+00,5.000000000000000000e+00,5.000000000000000000e+00,5.000000000000000000e+00,5.000000000000000000e+00,5.000000000000000000e+00,5.000000000000000000e+00,5.000000000000000000e+00,5.000000000000000000e+00,5.000000000000000000e+00,5.000000000000000000e+00,5.000000000000000000e+00,5.000000000000000000e+00,5.000000000000000000e+00,5.000000000000000000e+00,5.000000000000000000e+00,5.000000000000000000e+00,5.000000000000000000e+00,5.000000000000000000e+00,5.000000000000000000e+00,5.000000000000000000e+00,4.724385738372802734e+00,4.709463596343994141e+00,4.696532249450683594e+00,4.745363712310791016e+00,4.958818435668945312e+00,4.929662704467773438e+00,5.000000000000000000e+00,5.000000000000000000e+00,5.000000000000000000e+00,5.000000000000000000e+00,5.000000000000000000e+00,5.000000000000000000e+00,5.000000000000000000e+00,5.000000000000000000e+00,5.000000000000000000e+00,5.000000000000000000e+00,5.000000000000000000e+00,5.000000000000000000e+00,5.000000000000000000e+00,5.000000000000000000e+00,5.000000000000000000e+00,5.000000000000000000e+00,5.000000000000000000e+00,5.000000000000000000e+00,5.000000000000000000e+00,5.000000000000000000e+00,5.000000000000000000e+00,5.000000000000000000e+00,5.000000000000000000e+00,5.000000000000000000e+00,4.846711635589599609e+00,4.688121795654296875e+00,4.539581775665283203e+00,4.400165081024169922e+00,4.269056797027587891e+00,4.145535945892333984e+00,4.028961658477783203e+00,3.918764352798461914e+00,3.814435005187988281e+00,3.715516090393066406e+00
3.097305059432983398e+00,3.175841808319091797e+00,3.258465051651000977e+00,3.345502138137817383e+00,3.437316417694091797e+00,3.534312486648559570e+00,3.636968135833740234e+00,3.745768785476684570e+00,3.861280202865600586e+00,3.984141826629638672e+00,4.115079402923583984e+00,4.254914283752441406e+00,4.404545783996582031e+00,4.565083980560302734e+00,4.737768650054931641e+00,4.924030303955078125e+00,5.000000000000000000e+00,5.000000000000000000e+00,5.000000000000000000e+00,5.000000000000000000e+00,5.000000000000000000e+00,5.000000000000000000e+00,5.000000000000000000e+00,5.000000000000000000e+00,5.000000000000000000e+00,5.000000000000000000e+00,5.000000000000000000e+00,5.000000000000000000e+00,5.000000000000000000e+00,5.000000000000000000e+00,5.000000000000000000e+00,5.000000000000000000e+00,5.000000000000000000e+00,5.000000000000000000e+00,5.000000000000000000e+00,5.000000000000000000e+00,5.000000000000000000e+00,5.000000000000000000e+00,5.000000000000000000e+00,5.000000000000000000e+00,4.709881782531738281e+00,4.679724693298339844e+00,4.624317169189453125e+00,4.678143978118896484e+00,5.000000000000000000e+00,4.929098129272460938e+00,5.000000000000000000e+00,5.000000000000000000e+00,5.000000000000000000e+00,5.000000000000000000e+00,5.000000000000000000e+00,5.000000000000000000e+00,5.000000000000000000e+00,5.000000000000000000e+00,5.000000000000000000e+00,5.000000000000000000e+00,5.000000000000000000e+00,5.000000000000000000e+00,5.000000000000000000e+00,5.000000000000000000e+00,5.000000000000000000e+00,5.000000000000000000e+00,5.000000000000000000e+00,5.000000000000000000e+00,5.000000000000000000e+00,5.000000000000000000e+00,5.000000000000000000e+00,5.000000000000000000e+00,5.000000000000000000e+00,5.000000000000000000e+00,4.846837043762207031e+00,4.688238620758056641e+00,4.539691448211669922e+00,4.400268554687500000e+00,4.269154071807861328e+00,4.145627498626708984e+00,4.029047966003417969e+00,3.918846368789672852e+00,3.814512729644775391e+00,3.715589761734008789e+00
3.097238540649414062e+00,3.175771713256835938e+00,3.258391380310058594e+00,3.345424413681030273e+00,3.437234401702880859e+00,3.534225702285766602e+00,3.636849880218505859e+00,3.745612382888793945e+00,3.861100673675537109e+00,3.983950853347778320e+00,4.114875793457031250e+00,4.254698276519775391e+00,4.404356956481933594e+00,4.564928531646728516e+00,4.737613201141357422e+00,4.923862934112548828e+00,5.000000000000000000e+00,5.000000000000000000e+00,5.000000000000000000e+00,5.000000000000000000e+00,5.000000000000000000e+00,5.000000000000000000e+00,5.000000000000000000e+00,5.000000000000000000e+00,5.000000000000000000e+00,5.000000000000000000e+00,5.000000000000000000e+00,5.000000000000000000e+00,5.000000000000000000e+00,5.000000000000000000e+00,5.000000000000000000e+00,5.000000000000000000e+00,5.000000000000000000e+00,5.000000000000000000e+00,5.000000000000000000e+00,5.000000000000000000e+00,5.000000000000000000e+00,5.000000000000000000e+00,5.000000000000000000e+00,5.000000000000000000e+00,4.703387260437011719e+00,4.699464797973632812e+00,4.601320743560791016e+00,4.593700885772705078e+00,5.000000000000000000e+00,5.000000000000000000e+00,4.862483978271484375e+00,5.000000000000000000e+00,5.000000000000000000e+00,5.000000000000000000e+00,5.000000000000000000e+00,5.000000000000000000e+00,5.000000000000000000e+00,5.000000000000000000e+00,5.000000000000000000e+00,5.000000000000000000e+00,5.000000000000000000e+00,5.000000000000000000e+00,5.000000000000000000e+00,5.000000000000000000e+00,5.000000000000000000e+00,5.000000000000000000e+00,5.000000000000000000e+00,5.000000000000000000e+00,5.000000000000000000e+00,5.000000000000000000e+00,5.000000000000000000e+00,5.000000000000000000e+00,5.000000000000000000e+00,5.000000000000000000e+00,4.846961975097656250e+00,4.688355922698974609e+00,4.539801597595214844e+00,4.400371551513671875e+00,4.269251346588134766e+00,4.145719051361083984e+00,4.029134750366210938e+00,3.918928146362304688e+00,3.814591884613037109e+00,3.715668678283691406e+00
3.097172021865844727e+00,3.175701618194580078e+00,3.258317708969116211e+00,3.345346689224243164e+00,3.437152147293090820e+00,3.534139156341552734e+00,3.636758089065551758e+00,3.745514869689941406e+00,3.860976696014404297e+00,3.983783483505249023e+00,4.114672183990478516e+00,4.254480361938476562e+00,4.404123783111572266e+00,4.564677715301513672e+00,4.737380981445312500e+00,4.923666000366210938e+00,5.000000000000000000e+00,5.000000000000000000e+00,5.000000000000000000e+00,5.000000000000000000e+00,5.000000000000000000e+00,5.000000000000000000e+00,5.000000000000000000e+00,5.000000000000000000e+00,5.000000000000000000e+00,5.000000000000000000e+00,5.000000000000000000e+00,5.000000000000000000e+00,5.000000000000000000e+00,5.000000000000000000e+00,5.000000000000000000e+00,5.000000000000000000e+00,5.000000000000000000e+00,5.000000000000000000e+00,5.000000000000000000e+00,5.000000000000000000e+00,5.000000000000000000e+00,5.000000000000000000e+00,5.000000000000000000e+00,5.000000000000000000e+00,4.695876121520996094e+00,5.000000000000000000e+00,4.613730907440185547e+00,4.556014060974121094e+00,5.000000000000000000e+00,5.000000000000000000e+00,5.000000000000000000e+00,5.000000000000000000e+00,5.000000000000000000e+00,5.000000000000000000e+00,5.000000000000000000e+00,5.000000000000000000e+00,5.000000000000000000e+00,5.000000000000000000e+00,5.000000000000000000e+00,5.000000000000000000e+00,5.000000000000000000e+00,5.000000000000000000e+00,5.000000000000000000e+00,5.000000000000000000e+00,5.000000000000000000e+00,5.000000000000000000e+00,5.000000000000000000e+00,5.000000000000000000e+00,5.000000000000000000e+00,5.000000000000000000e+00,5.000000000000000000e+00,5.000000000000000000e+00,5.000000000000000000e+00,5.000000000000000000e+00,4.847086906433105469e+00,4.688473224639892578e+00,4.539911270141601562e+00,4.400475025177001953e+00,4.269348621368408203e+00,4.145811080932617188e+00,4.029225826263427734e+00,3.919018507003784180e+00,3.814679622650146484e+00,3.715752124786376953e+00
3.097105264663696289e+00,3.175631761550903320e+00,3.258244037628173828e+00,3.345268964767456055e+00,3.437070131301879883e+00,3.534052371978759766e+00,3.636666297912597656e+00,3.745417594909667969e+00,3.860873222351074219e+00,3.983673095703125000e+00,4.114542007446289062e+00,4.254301071166992188e+00,4.403890132904052734e+00,4.564427375793457031e+00,4.737110614776611328e+00,4.923374176025390625e+00,5.000000000000000000e+00,5.000000000000000000e+00,5.000000000000000000e+00,5.000000000000000000e+00,5.000000000000000000e+00,5.000000000000000000e+00,5.000000000000000000e+00,5.000000000000000000e+00,5.000000000000000000e+00,5.000000000000000000e+00,5.000000000000000000e+00,5.000000000000000000e+00,5.000000000000000000e+00,5.000000000000000000e+00,5.000000000000000000e+00,5.000000000000000000e+00,5.000000000000000000e+00,5.000000000000000000e+00,5.000000000000000000e+00,5.000000000000000000e+00,5.000000000000000000e+00,5.000000000000000000e+00,5.000000000000000000e+00,5.000000000000000000e+00,5.000000000000000000e+00,5.000000000000000000e+00,4.832637310028076172e+00,4.543843269348144531e+00,4.563008308410644531e+00,5.000000000000000000e+00,5.000000000000000000e+00,5.000000000000000000e+00,5.000000000000000000e+00,5.000000000000000000e+00,5.000000000000000000e+00,5.000000000000000000e+00,5.000000000000000000e+00,5.000000000000000000e+00,5.000000000000000000e+00,5.000000000000000000e+00,5.000000000000000000e+00,5.000000000000000000e+00,5.000000000000000000e+00,5.000000000000000000e+00,5.000000000000000000e+00,5.000000000000000000e+00,5.000000000000000000e+00,5.000000000000000000e+00,5.000000000000000000e+00,5.000000000000000000e+00,5.000000000000000000e+00,5.000000000000000000e+00,5.000000000000000000e+00,5.000000000000000000e+00,4.847212314605712891e+00,4.688590526580810547e+00,4.540021419525146484e+00,4.400580883026123047e+00,4.269453525543212891e+00,4.145914554595947266e+00,4.029323577880859375e+00,3.919111251831054688e+00,3.814767122268676758e+00,3.715835332870483398e+00
3.097038745880126953e+00,3.175561666488647461e+00,3.258170366287231445e+00,3.345191240310668945e+00,3.436988115310668945e+00,3.533965587615966797e+00,3.636574506759643555e+00,3.745320081710815430e+00,3.860769748687744141e+00,3.983562946319580078e+00,4.114424228668212891e+00,4.254175186157226562e+00,4.403753280639648438e+00,4.564233303070068359e+00,4.736852169036865234e+00,4.923082828521728516e+00,5.000000000000000000e+00,5.000000000000000000e+00,5.000000000000000000e+00,5.000000000000000000e+00,5.000000000000000000e+00,5.000000000000000000e+00,5.000000000000000000e+00,5.000000000000000000e+00,5.000000000000000000e+00,5.000000000000000000e+00,5.000000000000000000e+00,5.000000000000000000e+00,5.000000000000000000e+00,5.000000000000000000e+00,5.000000000000000000e+00,5.000000000000000000e+00,5.000000000000000000e+00,5.000000000000000000e+00,5.000000000000000000e+00,5.000000000000000000e+00,5.000000000000000000e+00,5.000000000000000000e+00,5.000000000000000000e+00,5.000000000000000000e+00,5.000000000000000000e+00,5.000000000000000000e+00,4.839648246765136719e+00,4.551104545593261719e+00,5.000000000000000000e+00,5.000000000000000000e+00,5.000000000000000000e+00,5.000000000000000000e+00,5.000000000000000000e+00,5.000000000000000000e+00,5.000000000000000000e+00,5.000000000000000000e+00,5.000000000000000000e+00,5.000000000000000000e+00,5.000000000000000000e+00,5.000000000000000000e+00,5.000000000000000000e+00,5.000000000000000000e+00,5.000000000000000000e+00,5.000000000000000000e+00,5.000000000000000000e+00,5.000000000000000000e+00,5.000000000000000000e+00,5.000000000000000000e+00,5.000000000000000000e+00,5.000000000000000000e+00,5.000000000000000000e+00,5.000000000000000000e+00,5.000000000000000000e+00,5.000000000000000000e+00,4.847337245941162109e+00,4.688714027404785156e+00,4.540142536163330078e+00,4.400697708129882812e+00,4.269563198089599609e+00,4.146018028259277344e+00,4.029421329498291016e+00,3.919203758239746094e+00,3.814855337142944336e+00,3.715918779373168945e+00
3.096972227096557617e+00,3.175491571426391602e+00,3.258096456527709961e+00,3.345113515853881836e+00,3.436906099319458008e+00,3.533878803253173828e+00,3.636482477188110352e+00,3.745222806930541992e+00,3.860666275024414062e+00,3.983453273773193359e+00,4.114306449890136719e+00,4.254049301147460938e+00,4.403618812561035156e+00,4.564088821411132812e+00,4.736696243286132812e+00,4.922872066497802734e+00,5.000000000000000000e+00,5.000000000000000000e+00,5.000000000000000000e+00,5.000000000000000000e+00,5.000000000000000000e+00,5.000000000000000000e+00,5.000000000000000000e+00,5.000000000000000000e+00,5.000000000000000000e+00,5.000000000000000000e+00,5.000000000000000000e+00,5.000000000000000000e+00,5.000000000000000000e+00,5.000000000000000000e+00,5.000000000000000000e+00,5.000000000000000000e+00,5.000000000000000000e+00,5.000000000000000000e+00,5.000000000000000000e+00,5.000000000000000000e+00,5.000000000000000000e+00,5.000000000000000000e+00,5.000000000000000000e+00,5.000000000000000000e+00,5.000000000000000000e+00,5.000000000000000000e+00,4.850413799285888672e+00,4.570557117462158203e+00,5.000000000000000000e+00,5.000000000000000000e+00,5.000000000000000000e+00,5.000000000000000000e+00,5.000000000000000000e+00,5.000000000000000000e+00,5.000000000000000000e+00,5.000000000000000000e+00,5.000000000000000000e+00,5.000000000000000000e+00,5.000000000000000000e+00,5.000000000000000000e+00,5.000000000000000000e+00,5.000000000000000000e+00,5.000000000000000000e+00,5.000000000000000000e+00,5.000000000000000000e+00,5.000000000000000000e+00,5.000000000000000000e+00,5.000000000000000000e+00,5.000000000000000000e+00,5.000000000000000000e+00,5.000000000000000000e+00,5.000000000000000000e+00,5.000000000000000000e+00,5.000000000000000000e+00,4.847479820251464844e+00,4.688846111297607422e+00,4.540266990661621094e+00,4.400814533233642578e+00,4.269673347473144531e+00,4.146121501922607422e+00,4.029519557952880859e+00,3.919296264648437500e+00,3.814942836761474609e+00,3.716001987457275391e+00
3.096905469894409180e+00,3.175421476364135742e+00,3.258022785186767578e+00,3.345035791397094727e+00,3.436824560165405273e+00,3.533792257308959961e+00,3.636390686035156250e+00,3.745125293731689453e+00,3.860562562942504883e+00,3.983343124389648438e+00,4.114189147949218750e+00,4.253923892974853516e+00,4.403483867645263672e+00,4.563944339752197266e+00,4.736540317535400391e+00,4.922703742980957031e+00,5.000000000000000000e+00,5.000000000000000000e+00,5.000000000000000000e+00,5.000000000000000000e+00,5.000000000000000000e+00,5.000000000000000000e+00,5.000000000000000000e+00,5.000000000000000000e+00,5.000000000000000000e+00,5.000000000000000000e+00,5.000000000000000000e+00,5.000000000000000000e+00,5.000000000000000000e+00,5.000000000000000000e+00,5.000000000000000000e+00,5.000000000000000000e+00,5.000000000000000000e+00,5.000000000000000000e+00,5.000000000000000000e+00,5.000000000000000000e+00,5.000000000000000000e+00,5.000000000000000000e+00,5.000000000000000000e+00,5.000000000000000000e+00,5.000000000000000000e+00,4.937365055084228516e+00,4.881426334381103516e+00,4.578212738037109375e+00,5.000000000000000000e+00,5.000000000000000000e+00,5.000000000000000000e+00,5.000000000000000000e+00,5.000000000000000000e+00,5.000000000000000000e+00,5.000000000000000000e+00,5.000000000000000000e+00,5.000000000000000000e+00,5.000000000000000000e+00,5.000000000000000000e+00,5.000000000000000000e+00,5.000000000000000000e+00,5.000000000000000000e+00,5.000000000000000000e+00,5.000000000000000000e+00,5.000000000000000000e+00,5.000000000000000000e+00,5.000000000000000000e+00,5.000000000000000000e+00,5.000000000000000000e+00,5.000000000000000000e+00,5.000000000000000000e+00,5.000000000000000000e+00,5.000000000000000000e+00,5.000000000000000000e+00,4.847620964050292969e+00,4.688979148864746094e+00,4.540390968322753906e+00,4.400931358337402344e+00,4.269783020019531250e+00,4.146225452423095703e+00,4.029617309570312500e+00,3.919389247894287109e+00,3.815030574798583984e+00,3.716085195541381836e+00
3.096838951110839844e+00,3.175351619720458984e+00,3.257949113845825195e+00,3.344958066940307617e+00,3.436742544174194336e+00,3.533705472946166992e+00,3.636298894882202148e+00,3.745028018951416016e+00,3.860459089279174805e+00,3.983232975006103516e+00,4.114071846008300781e+00,4.253798007965087891e+00,4.403349399566650391e+00,4.563799381256103516e+00,4.736384868621826172e+00,4.922535419464111328e+00,5.000000000000000000e+00,5.000000000000000000e+00,5.000000000000000000e+00,5.000000000000000000e+00,5.000000000000000000e+00,5.000000000000000000e+00,5.000000000000000000e+00,5.000000000000000000e+00,5.000000000000000000e+00,5.000000000000000000e+00,5.000000000000000000e+00,5.000000000000000000e+00,5.000000000000000000e+00,5.000000000000000000e+00,5.000000000000000000e+00,5.000000000000000000e+00,5.000000000000000000e+00,5.000000000000000000e+00,5.000000000000000000e+00,5.000000000000000000e+00,5.000000000000000000e+00,5.000000000000000000e+00,5.000000000000000000e+00,5.000000000000000000e+00,5.000000000000000000e+00,4.917548656463623047e+00,4.907494544982910156e+00,4.590179920196533203e+00,5.000000000000000000e+00,5.000000000000000000e+00,5.000000000000000000e+00,5.000000000000000000e+00,5.000000000000000000e+00,5.000000000000000000e+00,5.000000000000000000e+00,5.000000000000000000e+00,5.000000000000000000e+00,5.000000000000000000e+00,5.000000000000000000e+00,5.000000000000000000e+00,5.000000000000000000e+00,5.000000000000000000e+00,5.000000000000000000e+00,5.000000000000000000e+00,5.000000000000000000e+00,5.000000000000000000e+00,5.000000000000000000e+00,5.000000000000000000e+00,5.000000000000000000e+00,5.000000000000000000e+00,5.000000000000000000e+00,5.000000000000000000e+00,5.000000000000000000e+00,5.000000000000000000e+00,4.847763061523437500e+00,4.689111709594726562e+00,4.540515422821044922e+00,4.401048183441162109e+00,4.269893169403076172e+00,4.146328926086425781e+00,4.029715061187744141e+00,3.919481754302978516e+00,3.815118551254272461e+00,3.716168642044067383e+00
3.096772432327270508e+00,3.175281524658203125e+00,3.257875442504882812e+00,3.344880580902099609e+00,3.436660528182983398e+00,3.533618688583374023e+00,3.636207103729248047e+00,3.744930505752563477e+00,3.860355615615844727e+00,3.983122825622558594e+00,4.113954067230224609e+00,4.253672599792480469e+00,4.403214931488037109e+00,4.563654899597167969e+00,4.736228942871093750e+00,4.922367572784423828e+00,5.000000000000000000e+00,5.000000000000000000e+00,5.000000000000000000e+00,5.000000000000000000e+00,5.000000000000000000e+00,5.000000000000000000e+00,5.000000000000000000e+00,5.000000000000000000e+00,5.000000000000000000e+00,5.000000000000000000e+00,5.000000000000000000e+00,5.000000000000000000e+00,5.000000000000000000e+00,5.000000000000000000e+00,5.000000000000000000e+00,5.000000000000000000e+00,5.000000000000000000e+00,5.000000000000000000e+00,5.000000000000000000e+00,5.000000000000000000e+00,5.000000000000000000e+00,5.000000000000000000e+00,5.000000000000000000e+00,5.000000000000000000e+00,5.000000000000000000e+00,4.929544925689697266e+00,5.000000000000000000e+00,4.605676651000976562e+00,5.000000000000000000e+00,5.000000000000000000e+00,5.000000000000000000e+00,5.000000000000000000e+00,5.000000000000000000e+00,5.000000000000000000e+00,5.000000000000000000e+00,5.000000000000000000e+00,5.000000000000000000e+00,5.000000000000000000e+00,5.000000000000000000e+00,5.000000000000000000e+00,5.000000000000000000e+00,5.000000000000000000e+00,5.000000000000000000e+00,5.000000000000000000e+00,5.000000000000000000e+00,5.000000000000000000e+00,5.000000000000000000e+00,5.000000000000000000e+00,5.000000000000000000e+00,5.000000000000000000e+00,5.000000000000000000e+00,5.000000000000000000e+00,5.000000000000000000e+00,5.000000000000000000e+00,4.847904682159423828e+00,4.689244270324707031e+00,4.540639877319335938e+00,4.401165008544921875e+00,4.270003318786621094e+00,4.146432399749755859e+00,4.029813289642333984e+00,3.919574260711669922e+00,3.815206050872802734e+00,3.716251850128173828e+00
3.096705675125122070e+00,3.175211429595947266e+00,3.257801771163940430e+00,3.344802856445312500e+00,3.436578512191772461e+00,3.533532142639160156e+00,3.636115312576293945e+00,3.744833230972290039e+00,3.860252141952514648e+00,3.983012676239013672e+00,4.113836765289306641e+00,4.253546714782714844e+00,4.403079986572265625e+00,4.563510417938232422e+00,4.736073017120361328e+00,4.922199249267578125e+00,5.000000000000000000e+00,5.000000000000000000e+00,5.000000000000000000e+00,5.000000000000000000e+00,5.000000000000000000e+00,5.000000000000000000e+00,5.000000000000000000e+00,5.000000000000000000e+00,5.000000000000000000e+00,5.000000000000000000e+00,5.000000000000000000e+00,5.000000000000000000e+00,5.000000000000000000e+00,5.000000000000000000e+00,5.000000000000000000e+00,5.000000000000000000e+00,5.000000000000000000e+00,5.000000000000000000e+00,5.000000000000000000e+00,5.000000000000000000e+00,5.000000000000000000e+00,5.000000000000000000e+00,5.000000000000000000e+00,5.000000000000000000e+00,5.000000000000000000e+00,4.929768085479736328e+00,5.000000000000000000e+00,4.606246471405029297e+00,5.000000000000000000e+00,5.000000000000000000e+00,5.000000000000000000e+00,5.000000000000000000e+00,5.000000000000000000e+00,5.000000000000000000e+00,5.000000000000000000e+00,5.000000000000000000e+00,5.000000000000000000e+00,5.000000000000000000e+00,5.000000000000000000e+00,5.000000000000000000e+00,5.000000000000000000e+00,5.000000000000000000e+00,5.000000000000000000e+00,5.000000000000000000e+00,5.000000000000000000e+00,5.000000000000000000e+00,5.000000000000000000e+00,5.000000000000000000e+00,5.000000000000000000e+00,5.000000000000000000e+00,5.000000000000000000e+00,5.000000000000000000e+00,5.000000000000000000e+00,5.000000000000000000e+00,4.848046302795410156e+00,4.689376831054687500e+00,4.540764331817626953e+00,4.401281833648681641e+00,4.270112991333007812e+00,4.146536350250244141e+00,4.029911041259765625e+00,3.919667005538940430e+00,3.815293788909912109e+00,3.716335058212280273e+00
3.096639156341552734e+00,3.175141572952270508e+00,3.257728099822998047e+00,3.344725131988525391e+00,3.436496496200561523e+00,3.533445358276367188e+00,3.636023521423339844e+00,3.744735717773437500e+00,3.860148668289184570e+00,3.982902526855468750e+00,4.113719463348388672e+00,4.253421306610107422e+00,4.402945518493652344e+00,4.563365459442138672e+00,4.735917568206787109e+00,4.855151176452636719e+00,4.853945732116699219e+00,4.852741241455078125e+00,4.851537227630615234e+00,4.850333690643310547e+00,4.849131107330322266e+00,4.847929000854492188e+00,4.846726894378662109e+00,4.845525741577148438e+00,4.844325542449951172e+00,4.843125343322753906e+00,4.841926097869873047e+00,4.840727806091308594e+00,4.839529514312744141e+00,4.838332176208496094e+00,4.837135314941406250e+00,4.835938453674316406e+00,4.834742546081542969e+00,4.833547592163085938e+00,4.832353115081787109e+00,4.831159114837646484e+00,4.829966068267822266e+00,4.828773021697998047e+00,4.827580928802490234e+00,4.826389312744140625e+00,4.825198173522949219e+00,4.824007511138916016e+00,4.822817802429199219e+00,4.821628570556640625e+00,4.820440292358398438e+00,4.819252014160156250e+00,4.818064689636230469e+00,4.816877841949462891e+00,4.815690994262695312e+00,4.814505100250244141e+00,4.813320159912109375e+00,4.812135696411132812e+00,4.810951709747314453e+00,4.809768199920654297e+00,4.808585643768310547e+00,4.807403087615966797e+00,4.806221485137939453e+00,4.805040359497070312e+00,4.803859710693359375e+00,4.802680015563964844e+00,4.801500320434570312e+00,4.800321578979492188e+00,4.799143791198730469e+00,4.797966003417968750e+00,4.796789169311523438e+00,4.795612812042236328e+00,4.794436454772949219e+00,4.793261051177978516e+00,4.792086601257324219e+00,4.790912628173828125e+00,4.789739131927490234e+00,4.689509391784667969e+00,4.540888786315917969e+00,4.401398658752441406e+00,4.270223140716552734e+00,4.146640300750732422e+00,4.030008792877197266e+00,3.919759511947631836e+00,3.815381765365600586e+00,3.716418504714965820e+00
3.096572637557983398e+00,3.175071477890014648e+00,3.257654428482055664e+00,3.344647407531738281e+00,3.436414480209350586e+00,3.533358573913574219e+00,3.635931730270385742e+00,3.744638442993164062e+00,3.771301031112670898e+00,3.770573854446411133e+00,3.769846916198730469e+00,3.769120216369628906e+00,3.768393516540527344e+00,3.767667531967163086e+00,3.766941547393798828e+00,3.766216039657592773e+00,3.765490770339965820e+00,3.764765977859497070e+00,3.764041185379028320e+00,3.763316631317138672e+00,3.762592554092407227e+00,3.761868715286254883e+00,3.761145114898681641e+00,3.760421752929687500e+00,3.759698867797851562e+00,3.758975982666015625e+00,3.758253574371337891e+00,3.757531404495239258e+00,3.756809473037719727e+00,3.756087303161621094e+00,3.755366086959838867e+00,3.754644870758056641e+00,3.753924131393432617e+00,3.753203630447387695e+00,3.752483367919921875e+00,3.751763343811035156e+00,3.751043558120727539e+00,3.750324249267578125e+00,3.749604940414428711e+00,3.748886108398437500e+00,3.748167514801025391e+00,3.747449159622192383e+00,3.746731042861938477e+00,3.746013402938842773e+00,3.745295763015747070e+00,3.744578599929809570e+00,3.743861198425292969e+00,3.743144512176513672e+00,3.742428302764892578e+00,3.741712093353271484e+00,3.740996360778808594e+00,3.740280628204345703e+00,3.739565372467041016e+00,3.738850355148315430e+00,3.738135576248168945e+00,3.737421274185180664e+00,3.736706972122192383e+00,3.735992908477783203e+00,3.735279321670532227e+00,3.734565973281860352e+00,3.733852863311767578e+00,3.733139991760253906e+00,3.732427358627319336e+00,3.731714725494384766e+00,3.731002569198608398e+00,3.730290889739990234e+00,3.729579210281372070e+00,3.728868007659912109e+00,3.728157043457031250e+00,3.727446556091308594e+00,3.726736068725585938e+00,3.726025819778442383e+00,3.725316047668457031e+00,3.724606513977050781e+00,3.723896980285644531e+00,3.723187923431396484e+00,3.722479343414306641e+00,3.721770763397216797e+00,3.721062421798706055e+00,3.716501712799072266e+00
3.083536148071289062e+00,3.083050012588500977e+00,3.082563877105712891e+00,3.082077980041503906e+00,3.081592321395874023e+00,3.081106424331665039e+00,3.080621004104614258e+00,3.080135822296142578e+00,3.079650640487670898e+00,3.079165697097778320e+00,3.078680992126464844e+00,3.078196287155151367e+00,3.077711820602416992e+00,3.077227354049682617e+00,3.076743125915527344e+00,3.076259136199951172e+00,3.075775384902954102e+00,3.075291633605957031e+00,3.074807643890380859e+00,3.074324131011962891e+00,3.073840856552124023e+00,3.073357820510864258e+00,3.072874784469604492e+00,3.072391986846923828e+00,3.071909427642822266e+00,3.071426868438720703e+00,3.070944547653198242e+00,3.070462226867675781e+00,3.069980144500732422e+00,3.069498300552368164e+00,3.069016456604003906e+00,3.068534851074218750e+00,3.068053483963012695e+00,3.067572116851806641e+00,3.067090988159179688e+00,3.066609859466552734e+00,3.066128730773925781e+00,3.065648078918457031e+00,3.065167665481567383e+00,3.064687252044677734e+00,3.064207077026367188e+00,3.063726902008056641e+00,3.063246965408325195e+00,3.062767028808593750e+00,3.062287330627441406e+00,3.061807870864868164e+00,3.061328649520874023e+00,3.060849428176879883e+00,3.060370445251464844e+00,3.059891462326049805e+00,3.059412717819213867e+00,3.058933973312377930e+00,3.058455228805541992e+00,3.057976961135864258e+00,3.057498931884765625e+00,3.057020902633666992e+00,3.056542873382568359e+00,3.056065320968627930e+00,3.055587768554687500e+00,3.055110216140747070e+00,3.054633140563964844e+00,3.054155826568603516e+00,3.053678989410400391e+00,3.053202152252197266e+00,3.052725553512573242e+00,3.052248954772949219e+00,3.051772594451904297e+00,3.051296472549438477e+00,3.050820350646972656e+00,3.050344467163085938e+00,3.049868345260620117e+00,3.049392700195312500e+00,3.048917293548583984e+00,3.048441886901855469e+00,3.047966718673706055e+00,3.047491788864135742e+00,3.047016859054565430e+00,3.046542167663574219e+00,3.046067476272583008e+00,3.045593023300170898e+00
2.605152606964111328e+00,2.604805469512939453e+00,2.604458570480346680e+00,2.604111671447753906e+00,2.603765010833740234e+00,2.603418350219726562e+00,2.603071689605712891e+00,2.602725505828857422e+00,2.602379083633422852e+00,2.602032184600830078e+00,2.601686000823974609e+00,2.601340055465698242e+00,2.600993871688842773e+00,2.600647926330566406e+00,2.600302219390869141e+00,2.599956512451171875e+00,2.599610805511474609e+00,2.599265336990356445e+00,2.598919630050659180e+00,2.598574399948120117e+00,2.598229169845581055e+00,2.597883939743041992e+00,2.597538709640502930e+00,2.597193717956542969e+00,2.596848726272583008e+00,2.596503734588623047e+00,2.596158981323242188e+00,2.595814466476440430e+00,2.595469951629638672e+00,2.595125436782836914e+00,2.594780921936035156e+00,2.594436645507812500e+00,2.594092607498168945e+00,2.593748569488525391e+00,2.593404531478881836e+00,2.593060493469238281e+00,2.592716693878173828e+00,2.592372894287109375e+00,2.592029333114624023e+00,2.591685771942138672e+00,2.591342449188232422e+00,2.590998888015747070e+00,2.590655565261840820e+00,2.590312242507934570e+00,2.589969158172607422e+00,2.589626312255859375e+00,2.589283227920532227e+00,2.588940382003784180e+00,2.588597774505615234e+00,2.588255167007446289e+00,2.587912559509277344e+00,2.587570190429687500e+00,2.587227821350097656e+00,2.586885452270507812e+00,2.586543321609497070e+00,2.586201190948486328e+00,2.585859298706054688e+00,2.585517168045043945e+00,2.585175514221191406e+00,2.584833621978759766e+00,2.584491968154907227e+00,2.584150314331054688e+00,2.583808898925781250e+00,2.583467483520507812e+00,2.583126306533813477e+00,2.582785129547119141e+00,2.582443952560424805e+00,2.582103013992309570e+00,2.581762075424194336e+00,2.581421136856079102e+00,2.581080436706542969e+00,2.580739736557006836e+00,2.580399274826049805e+00,2.580058813095092773e+00,2.579718351364135742e+00,2.579378128051757812e+00,2.579037666320800781e+00,2.578697443008422852e+00,2.578357458114624023e+00,2.578017473220825195e+00
2.255267381668090820e+00,2.255007505416870117e+00,2.254747390747070312e+00,2.254487514495849609e+00,2.254227638244628906e+00,2.253967761993408203e+00,2.253707885742187500e+00,2.253448247909545898e+00,2.253188610076904297e+00,2.252929210662841797e+00,2.252669572830200195e+00,2.252410173416137695e+00,2.252150535583496094e+00,2.251891136169433594e+00,2.251631736755371094e+00,2.251372575759887695e+00,2.251113176345825195e+00,2.250854253768920898e+00,2.250595092773437500e+00,2.250336170196533203e+00,2.250077247619628906e+00,2.249818325042724609e+00,2.249559402465820312e+00,2.249300718307495117e+00,2.249042034149169922e+00,2.248783349990844727e+00,2.248524665832519531e+00,2.248266220092773438e+00,2.248007774353027344e+00,2.247749328613281250e+00,2.247490882873535156e+00,2.247232437133789062e+00,2.246974229812622070e+00,2.246716022491455078e+00,2.246458053588867188e+00,2.246199846267700195e+00,2.245941877365112305e+00,2.245683908462524414e+00,2.245426177978515625e+00,2.245168209075927734e+00,2.244910478591918945e+00,2.244652748107910156e+00,2.244395256042480469e+00,2.244137525558471680e+00,2.243880033493041992e+00,2.243622541427612305e+00,2.243365287780761719e+00,2.243107795715332031e+00,2.242850303649902344e+00,2.242593288421630859e+00,2.242336034774780273e+00,2.242078781127929688e+00,2.241821765899658203e+00,2.241564750671386719e+00,2.241307973861694336e+00,2.241050958633422852e+00,2.240794181823730469e+00,2.240537405014038086e+00,2.240280866622924805e+00,2.240024089813232422e+00,2.239767551422119141e+00,2.239511013031005859e+00,2.239254474639892578e+00,2.238998174667358398e+00,2.238741874694824219e+00,2.238485574722290039e+00,2.238229274749755859e+00,2.237972974777221680e+00,2.237716913223266602e+00,2.237460851669311523e+00,2.237204790115356445e+00,2.236948966979980469e+00,2.236692905426025391e+00,2.236437320709228516e+00,2.236181497573852539e+00,2.235925674438476562e+00,2.235670089721679688e+00,2.235414505004882812e+00,2.235158920288085938e+00,2.234903573989868164e+00
1.988237261772155762e+00,1.988035202026367188e+00,1.987833023071289062e+00,1.987630963325500488e+00,1.987429022789001465e+00,1.987226963043212891e+00,1.987025022506713867e+00,1.986823201179504395e+00,1.986621379852294922e+00,1.986419796943664551e+00,1.986217975616455078e+00,1.986016273498535156e+00,1.985814571380615234e+00,1.985612869262695312e+00,1.985411286354064941e+00,1.985209822654724121e+00,1.985008001327514648e+00,1.984806537628173828e+00,1.984605073928833008e+00,1.984403610229492188e+00,1.984202265739440918e+00,1.984000921249389648e+00,1.983799695968627930e+00,1.983598470687866211e+00,1.983397245407104492e+00,1.983196139335632324e+00,1.982995033264160156e+00,1.982793927192687988e+00,1.982592821121215820e+00,1.982391834259033203e+00,1.982190966606140137e+00,1.981989979743957520e+00,1.981789112091064453e+00,1.981588244438171387e+00,1.981387495994567871e+00,1.981186747550964355e+00,1.980985999107360840e+00,1.980785369873046875e+00,1.980584502220153809e+00,1.980383872985839844e+00,1.980183362960815430e+00,1.979982852935791016e+00,1.979782342910766602e+00,1.979581952095031738e+00,1.979381561279296875e+00,1.979181170463562012e+00,1.978980898857116699e+00,1.978780627250671387e+00,1.978580355644226074e+00,1.978380203247070312e+00,1.978180050849914551e+00,1.977979898452758789e+00,1.977779865264892578e+00,1.977579832077026367e+00,1.977379918098449707e+00,1.977179884910583496e+00,1.976979970932006836e+00,1.976780176162719727e+00,1.976580381393432617e+00,1.976380586624145508e+00,1.976180791854858398e+00,1.975981116294860840e+00,1.975781440734863281e+00,1.975581884384155273e+00,1.975382208824157715e+00,1.975182652473449707e+00,1.974983215332031250e+00,1.974783778190612793e+00,1.974584341049194336e+00,1.974384903907775879e+00,1.974185585975646973e+00,1.973986268043518066e+00,1.973786830902099609e+00,1.973587632179260254e+00,1.973388433456420898e+00,1.973189234733581543e+00,1.972990155220031738e+00,1.972791194915771484e+00,1.972592115402221680e+00,1.972393155097961426e+00
1.777746915817260742e+00,1.777585268020629883e+00,1.777423739433288574e+00,1.777262330055236816e+00,1.777100801467895508e+00,1.776939272880554199e+00,1.776777863502502441e+00,1.776616454124450684e+00,1.776455044746398926e+00,1.776293635368347168e+00,1.776132345199584961e+00,1.775971055030822754e+00,1.775809764862060547e+00,1.775648474693298340e+00,1.775487184524536133e+00,1.775326013565063477e+00,1.775165081024169922e+00,1.775003910064697266e+00,1.774842739105224609e+00,1.774681687355041504e+00,1.774520516395568848e+00,1.774359464645385742e+00,1.774198412895202637e+00,1.774037480354309082e+00,1.773876547813415527e+00,1.773715615272521973e+00,1.773554801940917969e+00,1.773393750190734863e+00,1.773232936859130859e+00,1.773072123527526855e+00,1.772911310195922852e+00,1.772750616073608398e+00,1.772589921951293945e+00,1.772429227828979492e+00,1.772268652915954590e+00,1.772107958793640137e+00,1.771947383880615234e+00,1.771786808967590332e+00,1.771626353263854980e+00,1.771465778350830078e+00,1.771305322647094727e+00,1.771144866943359375e+00,1.770984411239624023e+00,1.770824074745178223e+00,1.770663738250732422e+00,1.770503401756286621e+00,1.770343065261840820e+00,1.770182847976684570e+00,1.770022630691528320e+00,1.769862413406372070e+00,1.769702196121215820e+00,1.769542098045349121e+00,1.769381880760192871e+00,1.769221782684326172e+00,1.769061803817749023e+00,1.768901705741882324e+00,1.768741726875305176e+00,1.768581748008728027e+00,1.768421769142150879e+00,1.768261909484863281e+00,1.768101930618286133e+00,1.767941951751708984e+00,1.767782092094421387e+00,1.767622232437133789e+00,1.767462491989135742e+00,1.767302751541137695e+00,1.767143011093139648e+00,1.766983389854431152e+00,1.766823768615722656e+00,1.766664028167724609e+00,1.766504526138305664e+00,1.766344904899597168e+00,1.766185402870178223e+00,1.766025900840759277e+00,1.765866398811340332e+00,1.765706896781921387e+00,1.765547513961791992e+00,1.765388131141662598e+00,1.765228748321533203e+00,1.765069365501403809e+00
1.607558250427246094e+00,1.607426166534423828e+00,1.607293963432312012e+00,1.607161879539489746e+00,1.607029795646667480e+00,1.606897711753845215e+00,1.606765747070312500e+00,1.606633663177490234e+00,1.606501698493957520e+00,1.606369733810424805e+00,1.606237888336181641e+00,1.606106042861938477e+00,1.605974078178405762e+00,1.605842232704162598e+00,1.605710387229919434e+00,1.605578541755676270e+00,1.605446696281433105e+00,1.605314850807189941e+00,1.605183124542236328e+00,1.605051279067993164e+00,1.604919552803039551e+00,1.604787826538085938e+00,1.604656219482421875e+00,1.604524374008178711e+00,1.604392647743225098e+00,1.604261040687561035e+00,1.604129433631896973e+00,1.603997826576232910e+00,1.603866338729858398e+00,1.603734731674194336e+00,1.603603243827819824e+00,1.603471755981445312e+00,1.603340268135070801e+00,1.603208780288696289e+00,1.603077411651611328e+00,1.602945923805236816e+00,1.602814555168151855e+00,1.602683186531066895e+00,1.602551817893981934e+00,1.602420568466186523e+00,1.602289199829101562e+00,1.602157950401306152e+00,1.602026700973510742e+00,1.601895451545715332e+00,1.601764202117919922e+00,1.601632952690124512e+00,1.601501822471618652e+00,1.601370692253112793e+00,1.601239562034606934e+00,1.601108431816101074e+00,1.600977182388305664e+00,1.600846171379089355e+00,1.600715041160583496e+00,1.600584030151367188e+00,1.600453019142150879e+00,1.600322127342224121e+00,1.600191116333007812e+00,1.600060224533081055e+00,1.599929213523864746e+00,1.599798321723937988e+00,1.599667429924011230e+00,1.599536538124084473e+00,1.599405765533447266e+00,1.599274992942810059e+00,1.599144101142883301e+00,1.599013328552246094e+00,1.598882675170898438e+00,1.598751902580261230e+00,1.598621249198913574e+00,1.598490476608276367e+00,1.598359823226928711e+00,1.598229169845581055e+00,1.598098635673522949e+00,1.597967982292175293e+00,1.597837448120117188e+00,1.597706913948059082e+00,1.597576379776000977e+00,1.597445845603942871e+00,1.597315311431884766e+00,1.597184896469116211e+00
1.467107892036437988e+00,1.466997861862182617e+00,1.466887712478637695e+00,1.466777682304382324e+00,1.466667652130126953e+00,1.466557860374450684e+00,1.466447830200195312e+00,1.466337919235229492e+00,1.466227889060974121e+00,1.466117978096008301e+00,1.466008067131042480e+00,1.465898156166076660e+00,1.465788245201110840e+00,1.465678453445434570e+00,1.465568542480468750e+00,1.465458750724792480e+00,1.465348839759826660e+00,1.465239048004150391e+00,1.465129375457763672e+00,1.465019702911376953e+00,1.464909911155700684e+00,1.464800119400024414e+00,1.464690446853637695e+00,1.464580774307250977e+00,1.464470982551574707e+00,1.464361310005187988e+00,1.464251756668090820e+00,1.464141964912414551e+00,1.464032292366027832e+00,1.463922739028930664e+00,1.463813066482543945e+00,1.463703513145446777e+00,1.463593959808349609e+00,1.463484406471252441e+00,1.463374972343444824e+00,1.463265419006347656e+00,1.463155865669250488e+00,1.463046431541442871e+00,1.462936997413635254e+00,1.462827563285827637e+00,1.462718009948730469e+00,1.462608575820922852e+00,1.462499141693115234e+00,1.462389826774597168e+00,1.462280511856079102e+00,1.462171077728271484e+00,1.462061762809753418e+00,1.461952447891235352e+00,1.461843132972717285e+00,1.461733937263488770e+00,1.461624622344970703e+00,1.461515426635742188e+00,1.461406230926513672e+00,1.461296916007995605e+00,1.461187720298767090e+00,1.461078643798828125e+00,1.460969448089599609e+00,1.460860252380371094e+00,1.460751175880432129e+00,1.460641980171203613e+00,1.460532903671264648e+00,1.460423827171325684e+00,1.460314750671386719e+00,1.460205674171447754e+00,1.460096716880798340e+00,1.459987640380859375e+00,1.459878683090209961e+00,1.459769725799560547e+00,1.459660768508911133e+00,1.459551811218261719e+00,1.459442853927612305e+00,1.459333896636962891e+00,1.459225058555603027e+00,1.459116101264953613e+00,1.459007143974304199e+00,1.458898305892944336e+00,1.458789467811584473e+00,1.458680629730224609e+00,1.458571791648864746e+00,1.458462953567504883e+00
1.349227547645568848e+00,1.349134445190429688e+00,1.349041461944580078e+00,1.348948359489440918e+00,1.348855257034301758e+00,1.348762273788452148e+00,1.348669171333312988e+00,1.348576188087463379e+00,1.348483204841613770e+00,1.348390221595764160e+00,1.348297238349914551e+00,1.348204255104064941e+00,1.348111391067504883e+00,1.348018527030944824e+00,1.347925543785095215e+00,1.347832679748535156e+00,1.347739815711975098e+00,1.347646832466125488e+00,1.347553968429565430e+00,1.347461104393005371e+00,1.347368359565734863e+00,1.347275495529174805e+00,1.347182750701904297e+00,1.347089886665344238e+00,1.346997141838073730e+00,1.346904397010803223e+00,1.346811652183532715e+00,1.346718907356262207e+00,1.346626162528991699e+00,1.346533417701721191e+00,1.346440672874450684e+00,1.346347808837890625e+00,1.346255064010620117e+00,1.346162438392639160e+00,1.346069693565368652e+00,1.345977067947387695e+00,1.345884442329406738e+00,1.345791816711425781e+00,1.345699191093444824e+00,1.345606565475463867e+00,1.345513939857482910e+00,1.345421433448791504e+00,1.345328807830810547e+00,1.345236301422119141e+00,1.345143795013427734e+00,1.345051169395446777e+00,1.344958662986755371e+00,1.344866156578063965e+00,1.344773650169372559e+00,1.344681262969970703e+00,1.344588756561279297e+00,1.344496250152587891e+00,1.344403862953186035e+00,1.344311475753784180e+00,1.344218969345092773e+00,1.344126582145690918e+00,1.344034194946289062e+00,1.343941807746887207e+00,1.343849539756774902e+00,1.343757152557373047e+00,1.343664765357971191e+00,1.343572497367858887e+00,1.343480110168457031e+00,1.343387722969055176e+00,1.343295454978942871e+00,1.343203186988830566e+00,1.343110918998718262e+00,1.343018651008605957e+00,1.342926383018493652e+00,1.342834234237670898e+00,1.342741966247558594e+00,1.342649817466735840e+00,1.342557668685913086e+00,1.342465400695800781e+00,1.342373251914978027e+00,1.342281103134155273e+00,1.342188954353332520e+00,1.342096924781799316e+00,1.342004776000976562e+00,1.341912627220153809e+00
1.248881459236145020e+00,1.248801708221435547e+00,1.248721957206726074e+00,1.248642206192016602e+00,1.248562455177307129e+00,1.248482704162597656e+00,1.248403191566467285e+00,1.248323440551757812e+00,1.248243808746337891e+00,1.248164057731628418e+00,1.248084425926208496e+00,1.248004794120788574e+00,1.247925043106079102e+00,1.247845411300659180e+00,1.247765779495239258e+00,1.247686266899108887e+00,1.247606635093688965e+00,1.247527003288269043e+00,1.247447371482849121e+00,1.247367978096008301e+00,1.247288346290588379e+00,1.247208833694458008e+00,1.247129321098327637e+00,1.247049689292907715e+00,1.246970176696777344e+00,1.246890664100646973e+00,1.246811151504516602e+00,1.246731638908386230e+00,1.246652245521545410e+00,1.246572732925415039e+00,1.246493220329284668e+00,1.246413826942443848e+00,1.246334433555603027e+00,1.246255040168762207e+00,1.246175408363342285e+00,1.246096014976501465e+00,1.246016621589660645e+00,1.245937228202819824e+00,1.245857834815979004e+00,1.245778441429138184e+00,1.245699048042297363e+00,1.245619773864746094e+00,1.245540380477905273e+00,1.245460987091064453e+00,1.245381712913513184e+00,1.245302438735961914e+00,1.245223164558410645e+00,1.245143771171569824e+00,1.245064496994018555e+00,1.244985222816467285e+00,1.244905948638916016e+00,1.244826793670654297e+00,1.244747400283813477e+00,1.244668126106262207e+00,1.244588971138000488e+00,1.244509696960449219e+00,1.244430541992187500e+00,1.244351387023925781e+00,1.244272112846374512e+00,1.244192957878112793e+00,1.244113802909851074e+00,1.244034647941589355e+00,1.243955492973327637e+00,1.243876457214355469e+00,1.243797302246093750e+00,1.243718147277832031e+00,1.243639111518859863e+00,1.243559956550598145e+00,1.243480920791625977e+00,1.243401885032653809e+00,1.243322730064392090e+00,1.243243694305419922e+00,1.243164658546447754e+00,1.243085622787475586e+00,1.243006587028503418e+00,1.242927670478820801e+00,1.242848634719848633e+00,1.242769598960876465e+00,1.242690682411193848e+00,1.242611646652221680e+00
1.162428259849548340e+00,1.162359118461608887e+00,1.162290096282958984e+00,1.162220954895019531e+00,1.162151932716369629e+00,1.162082791328430176e+00,1.162013769149780273e+00,1.161944746971130371e+00,1.161875724792480469e+00,1.161806702613830566e+00,1.161737561225891113e+00,1.161668658256530762e+00,1.161599636077880859e+00,1.161530613899230957e+00,1.161461710929870605e+00,1.161392688751220703e+00,1.161323666572570801e+00,1.161254763603210449e+00,1.161185741424560547e+00,1.161116838455200195e+00,1.161047935485839844e+00,1.160978913307189941e+00,1.160910010337829590e+00,1.160841107368469238e+00,1.160772204399108887e+00,1.160703301429748535e+00,1.160634398460388184e+00,1.160565614700317383e+00,1.160496711730957031e+00,1.160427808761596680e+00,1.160359025001525879e+00,1.160290122032165527e+00,1.160221219062805176e+00,1.160152435302734375e+00,1.160083651542663574e+00,1.160014748573303223e+00,1.159945964813232422e+00,1.159877181053161621e+00,1.159808278083801270e+00,1.159739494323730469e+00,1.159670710563659668e+00,1.159601926803588867e+00,1.159533143043518066e+00,1.159464359283447266e+00,1.159395575523376465e+00,1.159326791763305664e+00,1.159258127212524414e+00,1.159189343452453613e+00,1.159120678901672363e+00,1.159052014350891113e+00,1.158983230590820312e+00,1.158914566040039062e+00,1.158845901489257812e+00,1.158777236938476562e+00,1.158708572387695312e+00,1.158639907836914062e+00,1.158571243286132812e+00,1.158502578735351562e+00,1.158433914184570312e+00,1.158365368843078613e+00,1.158296704292297363e+00,1.158228158950805664e+00,1.158159494400024414e+00,1.158090949058532715e+00,1.158022403717041016e+00,1.157953739166259766e+00,1.157885193824768066e+00,1.157816648483276367e+00,1.157748103141784668e+00,1.157679557800292969e+00,1.157611012458801270e+00,1.157542467117309570e+00,1.157473921775817871e+00,1.157405495643615723e+00,1.157336950302124023e+00,1.157268524169921875e+00,1.157199859619140625e+00,1.157131433486938477e+00,1.157063007354736328e+00,1.156994462013244629e+00
1.087169408798217773e+00,1.087108969688415527e+00,1.087048530578613281e+00,1.086988091468811035e+00,1.086927652359008789e+00,1.086867213249206543e+00,1.086806774139404297e+00,1.086746454238891602e+00,1.086686134338378906e+00,1.086625695228576660e+00,1.086565375328063965e+00,1.086504936218261719e+00,1.086444616317749023e+00,1.086384177207946777e+00,1.086323857307434082e+00,1.086263537406921387e+00,1.086203217506408691e+00,1.086142897605895996e+00,1.086082458496093750e+00,1.086022138595581055e+00,1.085961818695068359e+00,1.085901618003845215e+00,1.085841298103332520e+00,1.085781097412109375e+00,1.085720777511596680e+00,1.085660457611083984e+00,1.085600256919860840e+00,1.085539937019348145e+00,1.085479736328125000e+00,1.085419416427612305e+00,1.085359215736389160e+00,1.085298895835876465e+00,1.085238695144653320e+00,1.085178494453430176e+00,1.085118293762207031e+00,1.085058093070983887e+00,1.084997892379760742e+00,1.084937691688537598e+00,1.084877490997314453e+00,1.084817290306091309e+00,1.084757208824157715e+00,1.084697008132934570e+00,1.084636688232421875e+00,1.084576487541198730e+00,1.084516286849975586e+00,1.084456205368041992e+00,1.084396004676818848e+00,1.084335923194885254e+00,1.084275841712951660e+00,1.084215641021728516e+00,1.084155559539794922e+00,1.084095478057861328e+00,1.084035396575927734e+00,1.083975315093994141e+00,1.083915233612060547e+00,1.083855152130126953e+00,1.083795070648193359e+00,1.083734989166259766e+00,1.083674907684326172e+00,1.083614826202392578e+00,1.083554744720458984e+00,1.083494782447814941e+00,1.083434700965881348e+00,1.083374738693237305e+00,1.083314657211303711e+00,1.083254694938659668e+00,1.083194613456726074e+00,1.083134531974792480e+00,1.083074569702148438e+00,1.083014607429504395e+00,1.082954645156860352e+00,1.082894682884216309e+00,1.082834720611572266e+00,1.082774758338928223e+00,1.082714796066284180e+00,1.082654833793640137e+00,1.082594871520996094e+00,1.082534909248352051e+00,1.082475066184997559e+00,1.082415103912353516e+00
1.021062850952148438e+00,1.021009564399719238e+00,1.020956277847290039e+00,1.020902991294860840e+00,1.020849704742431641e+00,1.020796418190002441e+00,1.020743131637573242e+00,1.020689845085144043e+00,1.020636558532714844e+00,1.020583271980285645e+00,1.020530104637145996e+00,1.020476818084716797e+00,1.020423531532287598e+00,1.020370244979858398e+00,1.020317077636718750e+00,1.020263910293579102e+00,1.020210623741149902e+00,1.020157456398010254e+00,1.020104169845581055e+00,1.020051002502441406e+00,1.019997715950012207e+00,1.019944548606872559e+00,1.019891381263732910e+00,1.019838213920593262e+00,1.019785046577453613e+00,1.019731760025024414e+00,1.019678592681884766e+00,1.019625425338745117e+00,1.019572377204895020e+00,1.019519209861755371e+00,1.019466042518615723e+00,1.019412875175476074e+00,1.019359707832336426e+00,1.019306659698486328e+00,1.019253492355346680e+00,1.019200325012207031e+00,1.019147276878356934e+00,1.019094109535217285e+00,1.019041061401367188e+00,1.018987894058227539e+00,1.018934845924377441e+00,1.018881797790527344e+00,1.018828749656677246e+00,1.018775582313537598e+00,1.018722534179687500e+00,1.018669486045837402e+00,1.018616318702697754e+00,1.018563270568847656e+00,1.018510222434997559e+00,1.018457174301147461e+00,1.018404126167297363e+00,1.018351078033447266e+00,1.018298029899597168e+00,1.018244981765747070e+00,1.018191933631896973e+00,1.018138885498046875e+00,1.018085837364196777e+00,1.018032908439636230e+00,1.017979860305786133e+00,1.017926931381225586e+00,1.017873883247375488e+00,1.017820954322814941e+00,1.017767906188964844e+00,1.017714977264404297e+00,1.017662048339843750e+00,1.017609000205993652e+00,1.017556071281433105e+00,1.017503142356872559e+00,1.017450213432312012e+00,1.017397284507751465e+00,1.017344355583190918e+00,1.017291426658630371e+00,1.017238497734069824e+00,1.017185568809509277e+00,1.017132639884948730e+00,1.017079710960388184e+00,1.017026782035827637e+00,1.016973972320556641e+00,1.016921043395996094e+00,1.016868114471435547e+00
9.625350236892700195e-01,9.624876379966735840e-01,9.624402523040771484e-01,9.623928666114807129e-01,9.623455405235290527e-01,9.622981548309326172e-01,9.622507691383361816e-01,9.622034430503845215e-01,9.621561169624328613e-01,9.621088504791259766e-01,9.620615243911743164e-01,9.620141983032226562e-01,9.619668722152709961e-01,9.619195461273193359e-01,9.618722200393676758e-01,9.618249535560607910e-01,9.617776274681091309e-01,9.617303013801574707e-01,9.616830348968505859e-01,9.616357088088989258e-01,9.615884423255920410e-01,9.615411758422851562e-01,9.614939093589782715e-01,9.614465832710266113e-01,9.613993167877197266e-01,9.613520503044128418e-01,9.613047838211059570e-01,9.612575769424438477e-01,9.612103104591369629e-01,9.611630439758300781e-01,9.611157774925231934e-01,9.610685706138610840e-01,9.610213041305541992e-01,9.609740972518920898e-01,9.609268903732299805e-01,9.608796834945678711e-01,9.608325362205505371e-01,9.607853293418884277e-01,9.607381224632263184e-01,9.606909155845642090e-01,9.606437087059020996e-01,9.605965614318847656e-01,9.605493545532226562e-01,9.605022072792053223e-01,9.604550004005432129e-01,9.604078531265258789e-01,9.603606462478637695e-01,9.603134989738464355e-01,9.602663516998291016e-01,9.602190852165222168e-01,9.601719379425048828e-01,9.601247906684875488e-01,9.600776433944702148e-01,9.600304961204528809e-01,9.599833488464355469e-01,9.599362015724182129e-01,9.598891139030456543e-01,9.598419666290283203e-01,9.597948789596557617e-01,9.597477912902832031e-01,9.597006440162658691e-01,9.596535563468933105e-01,9.596064686775207520e-01,9.595593810081481934e-01,9.595122933387756348e-01,9.594652056694030762e-01,9.594181180000305176e-01,9.593710303306579590e-01,9.593240022659301758e-01,9.592769145965576172e-01,9.592298865318298340e-01,9.591827988624572754e-01,9.591357707977294922e-01,9.590887427330017090e-01,9.590416550636291504e-01,9.589946269989013672e-01,9.589475989341735840e-01,9.589005708694458008e-01,9.588534832000732422e-01,9.588064551353454590e-01
9.103530049324035645e-01,9.103106260299682617e-01,9.102682471275329590e-01,9.102258682250976562e-01,9.101836085319519043e-01,9.101412296295166016e-01,9.100989103317260742e-01,9.100565314292907715e-01,9.100141525268554688e-01,9.099718332290649414e-01,9.099294543266296387e-01,9.098871350288391113e-01,9.098448157310485840e-01,9.098024368286132812e-01,9.097601175308227539e-01,9.097177982330322266e-01,9.096754789352416992e-01,9.096331596374511719e-01,9.095908403396606445e-01,9.095485210418701172e-01,9.095062613487243652e-01,9.094639420509338379e-01,9.094216227531433105e-01,9.093793630599975586e-01,9.093370437622070312e-01,9.092947840690612793e-01,9.092524647712707520e-01,9.092102050781250000e-01,9.091679453849792480e-01,9.091256856918334961e-01,9.090834856033325195e-01,9.090412259101867676e-01,9.089989662170410156e-01,9.089567065238952637e-01,9.089144468307495117e-01,9.088722467422485352e-01,9.088299870491027832e-01,9.087877273559570312e-01,9.087455272674560547e-01,9.087032675743103027e-01,9.086610674858093262e-01,9.086188077926635742e-01,9.085766077041625977e-01,9.085344076156616211e-01,9.084922075271606445e-01,9.084500074386596680e-01,9.084077477455139160e-01,9.083655476570129395e-01,9.083234071731567383e-01,9.082812070846557617e-01,9.082390069961547852e-01,9.081968069076538086e-01,9.081546664237976074e-01,9.081123471260070801e-01,9.080702066421508789e-01,9.080280065536499023e-01,9.079858660697937012e-01,9.079437255859375000e-01,9.079015254974365234e-01,9.078593850135803223e-01,9.078172445297241211e-01,9.077751040458679199e-01,9.077329635620117188e-01,9.076908230781555176e-01,9.076486825942993164e-01,9.076065421104431152e-01,9.075644612312316895e-01,9.075223207473754883e-01,9.074801802635192871e-01,9.074380993843078613e-01,9.073959589004516602e-01,9.073538780212402344e-01,9.073117375373840332e-01,9.072696566581726074e-01,9.072275757789611816e-01,9.071854948997497559e-01,9.071434140205383301e-01,9.071013331413269043e-01,9.070592522621154785e-01,9.070171713829040527e-01
8.635380268096923828e-01,8.634998798370361328e-01,8.634617924690246582e-01,8.634236454963684082e-01,8.633854985237121582e-01,8.633474111557006836e-01,8.633092641830444336e-01,8.632711768150329590e-01,8.632330894470214844e-01,8.631949424743652344e-01,8.631568551063537598e-01,8.631187677383422852e-01,8.630806803703308105e-01,8.630425333976745605e-01,8.630044460296630859e-01,8.629663586616516113e-01,8.629282712936401367e-01,8.628902435302734375e-01,8.628521561622619629e-01,8.628140687942504883e-01,8.627759814262390137e-01,8.627379536628723145e-01,8.626998662948608398e-01,8.626618385314941406e-01,8.626238703727722168e-01,8.625857830047607422e-01,8.625477552413940430e-01,8.625096678733825684e-01,8.624716401100158691e-01,8.624336123466491699e-01,8.623955845832824707e-01,8.623575568199157715e-01,8.623195290565490723e-01,8.622815012931823730e-01,8.622434735298156738e-01,8.622054457664489746e-01,8.621674180030822754e-01,8.621293902397155762e-01,8.620914220809936523e-01,8.620533943176269531e-01,8.620153665542602539e-01,8.619773983955383301e-01,8.619393706321716309e-01,8.619014024734497070e-01,8.618634343147277832e-01,8.618254065513610840e-01,8.617874383926391602e-01,8.617494702339172363e-01,8.617115020751953125e-01,8.616735339164733887e-01,8.616356253623962402e-01,8.615976572036743164e-01,8.615596890449523926e-01,8.615217208862304688e-01,8.614838123321533203e-01,8.614458441734313965e-01,8.614078760147094727e-01,8.613697886466979980e-01,8.613318204879760742e-01,8.612938523292541504e-01,8.612559437751770020e-01,8.612180352210998535e-01,8.611800670623779297e-01,8.611421585083007812e-01,8.611042499542236328e-01,8.610663414001464844e-01,8.610283732414245605e-01,8.609904646873474121e-01,8.609525561332702637e-01,8.609146475791931152e-01,8.608767986297607422e-01,8.608388900756835938e-01,8.608009815216064453e-01,8.607630729675292969e-01,8.607251644134521484e-01,8.606873154640197754e-01,8.606494069099426270e-01,8.606115579605102539e-01,8.605736494064331055e-01,8.605358004570007324e-01
8.213024139404296875e-01,8.212679028511047363e-01,8.212334513664245605e-01,8.211989402770996094e-01,8.211644291877746582e-01,8.211299777030944824e-01,8.210954666137695312e-01,8.210610151290893555e-01,8.210265636444091797e-01,8.209920525550842285e-01,8.209576010704040527e-01,8.209231495857238770e-01,8.208886981010437012e-01,8.208541870117187500e-01,8.208197355270385742e-01,8.207852840423583984e-01,8.207508325576782227e-01,8.207163810729980469e-01,8.206820487976074219e-01,8.206475973129272461e-01,8.206131458282470703e-01,8.205787539482116699e-01,8.205443024635314941e-01,8.205098509788513184e-01,8.204754590988159180e-01,8.204410076141357422e-01,8.204066157341003418e-01,8.203721642494201660e-01,8.203377723693847656e-01,8.203033208847045898e-01,8.202689290046691895e-01,8.202345371246337891e-01,8.202000856399536133e-01,8.201656937599182129e-01,8.201313018798828125e-01,8.200969099998474121e-01,8.200625181198120117e-01,8.200281262397766113e-01,8.199937343597412109e-01,8.199593424797058105e-01,8.199249505996704102e-01,8.198906183242797852e-01,8.198562264442443848e-01,8.198218345642089844e-01,8.197875022888183594e-01,8.197531700134277344e-01,8.197188377380371094e-01,8.196844458580017090e-01,8.196501135826110840e-01,8.196157217025756836e-01,8.195813894271850586e-01,8.195470571517944336e-01,8.195127248764038086e-01,8.194783329963684082e-01,8.194440007209777832e-01,8.194096684455871582e-01,8.193753361701965332e-01,8.193410038948059082e-01,8.193066716194152832e-01,8.192723393440246582e-01,8.192379474639892578e-01,8.192036151885986328e-01,8.191692829132080078e-01,8.191349506378173828e-01,8.191006779670715332e-01,8.190663456916809082e-01,8.190320730209350586e-01,8.189977407455444336e-01,8.189634680747985840e-01,8.189291357994079590e-01,8.188948631286621094e-01,8.188605308532714844e-01,8.188262581825256348e-01,8.187919855117797852e-01,8.187577128410339355e-01,8.187233805656433105e-01,8.186891078948974609e-01,8.186548352241516113e-01,8.186205625534057617e-01,8.185862898826599121e-01
7.830056548118591309e-01,7.829743027687072754e-01,7.829429507255554199e-01,7.829115986824035645e-01,7.828802466392517090e-01,7.828488945960998535e-01,7.828176021575927734e-01,7.827862501144409180e-01,7.827548980712890625e-01,7.827235460281372070e-01,7.826922535896301270e-01,7.826609015464782715e-01,7.826296091079711914e-01,7.825983166694641113e-01,7.825670242309570312e-01,7.825356721878051758e-01,7.825043797492980957e-01,7.824730873107910156e-01,7.824417352676391602e-01,7.824104428291320801e-01,7.823791503906250000e-01,7.823478579521179199e-01,7.823165059089660645e-01,7.822852134704589844e-01,7.822539210319519043e-01,7.822226285934448242e-01,7.821913361549377441e-01,7.821600437164306641e-01,7.821287512779235840e-01,7.820975184440612793e-01,7.820662260055541992e-01,7.820349335670471191e-01,7.820036411285400391e-01,7.819724082946777344e-01,7.819411158561706543e-01,7.819098234176635742e-01,7.818785905838012695e-01,7.818472981452941895e-01,7.818160653114318848e-01,7.817848920822143555e-01,7.817535996437072754e-01,7.817223668098449707e-01,7.816911339759826660e-01,7.816598415374755859e-01,7.816286087036132812e-01,7.815973758697509766e-01,7.815661430358886719e-01,7.815349102020263672e-01,7.815036773681640625e-01,7.814724445343017578e-01,7.814412117004394531e-01,7.814099788665771484e-01,7.813787460327148438e-01,7.813475131988525391e-01,7.813162803649902344e-01,7.812851071357727051e-01,7.812538743019104004e-01,7.812226414680480957e-01,7.811914682388305664e-01,7.811602354049682617e-01,7.811290025711059570e-01,7.810978293418884277e-01,7.810665965080261230e-01,7.810354232788085938e-01,7.810041308403015137e-01,7.809729576110839844e-01,7.809417843818664551e-01,7.809106111526489258e-01,7.808793783187866211e-01,7.808482050895690918e-01,7.808170318603515625e-01,7.807858586311340332e-01,7.807546854019165039e-01,7.807235121726989746e-01,7.806923389434814453e-01,7.806611657142639160e-01,7.806299924850463867e-01,7.805988192558288574e-01,7.805677056312561035e-01,7.805365324020385742e-01
7.481212615966796875e-01,7.480926513671875000e-01,7.480640411376953125e-01,7.480353713035583496e-01,7.480067610740661621e-01,7.479781508445739746e-01,7.479495406150817871e-01,7.479210495948791504e-01,7.478924393653869629e-01,7.478638291358947754e-01,7.478352189064025879e-01,7.478066086769104004e-01,7.477779984474182129e-01,7.477493882179260254e-01,7.477208375930786133e-01,7.476922273635864258e-01,7.476636171340942383e-01,7.476350665092468262e-01,7.476064562797546387e-01,7.475779056549072266e-01,7.475492954254150391e-01,7.475207448005676270e-01,7.474921345710754395e-01,7.474635839462280273e-01,7.474350333213806152e-01,7.474064230918884277e-01,7.473778724670410156e-01,7.473493218421936035e-01,7.473207712173461914e-01,7.472921609878540039e-01,7.472636103630065918e-01,7.472350597381591797e-01,7.472065091133117676e-01,7.471780180931091309e-01,7.471494674682617188e-01,7.471209168434143066e-01,7.470923662185668945e-01,7.470638155937194824e-01,7.470353245735168457e-01,7.470067739486694336e-01,7.469782233238220215e-01,7.469496726989746094e-01,7.469211816787719727e-01,7.468926310539245605e-01,7.468640804290771484e-01,7.468355894088745117e-01,7.468070387840270996e-01,7.467785477638244629e-01,7.467499971389770508e-01,7.467215061187744141e-01,7.466929554939270020e-01,7.466644644737243652e-01,7.466359734535217285e-01,7.466074228286743164e-01,7.465789318084716797e-01,7.465504407882690430e-01,7.465219497680664062e-01,7.464934587478637695e-01,7.464649081230163574e-01,7.464365363121032715e-01,7.464080452919006348e-01,7.463795542716979980e-01,7.463510632514953613e-01,7.463225722312927246e-01,7.462940812110900879e-01,7.462655901908874512e-01,7.462370991706848145e-01,7.462086081504821777e-01,7.461799979209899902e-01,7.461515665054321289e-01,7.461230754852294922e-01,7.460945844650268555e-01,7.460661530494689941e-01,7.460376620292663574e-01,7.460092306137084961e-01,7.459807395935058594e-01,7.459523081779479980e-01,7.459238171577453613e-01,7.458953857421875000e-01,7.458669543266296387e-01
7.162126302719116211e-01,7.161864638328552246e-01,7.161602377891540527e-01,7.161340117454528809e-01,7.161077857017517090e-01,7.160815596580505371e-01,7.160553336143493652e-01,7.160291075706481934e-01,7.160028815269470215e-01,7.159766554832458496e-01,7.159504294395446777e-01,7.159242033958435059e-01,7.158980369567871094e-01,7.158718109130859375e-01,7.158455848693847656e-01,7.158194184303283691e-01,7.157931923866271973e-01,7.157669663429260254e-01,7.157407999038696289e-01,7.157145738601684570e-01,7.156884074211120605e-01,7.156621813774108887e-01,7.156360149383544922e-01,7.156098484992980957e-01,7.155836224555969238e-01,7.155574560165405273e-01,7.155312895774841309e-01,7.155051231384277344e-01,7.154789566993713379e-01,7.154527902603149414e-01,7.154266238212585449e-01,7.154004573822021484e-01,7.153742909431457520e-01,7.153480648994445801e-01,7.153218984603881836e-01,7.152957320213317871e-01,7.152695655822753906e-01,7.152433991432189941e-01,7.152172923088073730e-01,7.151911258697509766e-01,7.151649594306945801e-01,7.151387929916381836e-01,7.151126265525817871e-01,7.150865197181701660e-01,7.150603532791137695e-01,7.150341868400573730e-01,7.150080800056457520e-01,7.149819135665893555e-01,7.149557471275329590e-01,7.149296402931213379e-01,7.149034738540649414e-01,7.148773670196533203e-01,7.148512005805969238e-01,7.148250937461853027e-01,7.147989869117736816e-01,7.147728800773620605e-01,7.147467732429504395e-01,7.147206068038940430e-01,7.146944999694824219e-01,7.146683931350708008e-01,7.146422863006591797e-01,7.146161794662475586e-01,7.145900130271911621e-01,7.145639061927795410e-01,7.145377993583679199e-01,7.145116925239562988e-01,7.144855856895446777e-01,7.144594788551330566e-01,7.144333720207214355e-01,7.144072651863098145e-01,7.143811583518981934e-01,7.143550515174865723e-01,7.143289446830749512e-01,7.143028378486633301e-01,7.142767310142517090e-01,7.142506241798400879e-01,7.142245769500732422e-01,7.141984701156616211e-01,7.141723632812500000e-01,7.141463160514831543e-01
6.869146227836608887e-01,6.868904829025268555e-01,6.868663430213928223e-01,6.868422031402587891e-01,6.868181228637695312e-01,6.867939829826354980e-01,6.867698431015014648e-01,6.867457628250122070e-01,6.867216229438781738e-01,6.866974830627441406e-01,6.866734027862548828e-01,6.866492629051208496e-01,6.866251826286315918e-01,6.866010427474975586e-01,6.865769624710083008e-01,6.865528225898742676e-01,6.865287423133850098e-01,6.865046024322509766e-01,6.864805221557617188e-01,6.864564418792724609e-01,6.864323616027832031e-01,6.864082217216491699e-01,6.863842010498046875e-01,6.863601207733154297e-01,6.863360404968261719e-01,6.863119006156921387e-01,6.862878203392028809e-01,6.862637400627136230e-01,6.862396597862243652e-01,6.862155795097351074e-01,6.861914992332458496e-01,6.861674189567565918e-01,6.861433386802673340e-01,6.861192584037780762e-01,6.860951781272888184e-01,6.860710978507995605e-01,6.860470771789550781e-01,6.860229969024658203e-01,6.859989166259765625e-01,6.859748363494873047e-01,6.859508156776428223e-01,6.859267354011535645e-01,6.859026551246643066e-01,6.858785748481750488e-01,6.858545541763305664e-01,6.858304738998413086e-01,6.858064532279968262e-01,6.857823729515075684e-01,6.857584118843078613e-01,6.857343316078186035e-01,6.857103109359741211e-01,6.856862306594848633e-01,6.856622099876403809e-01,6.856381893157958984e-01,6.856141090393066406e-01,6.855900883674621582e-01,6.855660676956176758e-01,6.855419874191284180e-01,6.855179667472839355e-01,6.854939460754394531e-01,6.854699254035949707e-01,6.854459047317504883e-01,6.854218840599060059e-01,6.853978633880615234e-01,6.853737831115722656e-01,6.853497624397277832e-01,6.853257417678833008e-01,6.853017210960388184e-01,6.852777600288391113e-01,6.852537393569946289e-01,6.852297186851501465e-01,6.852056980133056641e-01,6.851816773414611816e-01,6.851576566696166992e-01,6.851337552070617676e-01,6.851096153259277344e-01,6.850855946540832520e-01,6.850616335868835449e-01,6.850376129150390625e-01,6.850135922431945801e-01
6.599193215370178223e-01,6.598970890045166016e-01,6.598747968673706055e-01,6.598525047302246094e-01,6.598302721977233887e-01,6.598079800605773926e-01,6.597857475280761719e-01,6.597634553909301758e-01,6.597412228584289551e-01,6.597189307212829590e-01,6.596966981887817383e-01,6.596744656562805176e-01,6.596521735191345215e-01,6.596299409866333008e-01,6.596077084541320801e-01,6.595854163169860840e-01,6.595632433891296387e-01,6.595410108566284180e-01,6.595187187194824219e-01,6.594964861869812012e-01,6.594742536544799805e-01,6.594520211219787598e-01,6.594297885894775391e-01,6.594075560569763184e-01,6.593853235244750977e-01,6.593630909919738770e-01,6.593408584594726562e-01,6.593186259269714355e-01,6.592963933944702148e-01,6.592741608619689941e-01,6.592519283294677734e-01,6.592296957969665527e-01,6.592074632644653320e-01,6.591852307319641113e-01,6.591630578041076660e-01,6.591408252716064453e-01,6.591185927391052246e-01,6.590963602066040039e-01,6.590741872787475586e-01,6.590519547462463379e-01,6.590297222137451172e-01,6.590075492858886719e-01,6.589853763580322266e-01,6.589631438255310059e-01,6.589409708976745605e-01,6.589187383651733398e-01,6.588965654373168945e-01,6.588743329048156738e-01,6.588521599769592285e-01,6.588299274444580078e-01,6.588077545166015625e-01,6.587855815887451172e-01,6.587633490562438965e-01,6.587411761283874512e-01,6.587189435958862305e-01,6.586967706680297852e-01,6.586745977401733398e-01,6.586524248123168945e-01,6.586301922798156738e-01,6.586080193519592285e-01,6.585858464241027832e-01,6.585636734962463379e-01,6.585415005683898926e-01,6.585193276405334473e-01,6.584971547126770020e-01,6.584749817848205566e-01,6.584528088569641113e-01,6.584306359291076660e-01,6.584085226058959961e-01,6.583863496780395508e-01,6.583641767501831055e-01,6.583420038223266602e-01,6.583198308944702148e-01,6.582976579666137695e-01,6.582754850387573242e-01,6.582533717155456543e-01,6.582311987876892090e-01,6.582090258598327637e-01,6.581868529319763184e-01,6.581646203994750977e-01
