3.098905801773071289e+00,3.177249670028686523e+00,3.259657621383666992e+00,3.346453905105590820e+00,3.437999248504638672e+00,3.534693717956542969e+00,3.636985063552856445e+00,3.745373725891113281e+00,3.860420465469360352e+00,3.982759237289428711e+00,4.113105297088623047e+00,4.252272605895996094e+00,4.401186943054199219e+00,5.000000000000000000e+00,5.000000000000000000e+00,5.000000000000000000e+00,5.000000000000000000e+00,5.000000000000000000e+00,5.000000000000000000e+00,5.000000000000000000e+00,5.000000000000000000e+00,5.000000000000000000e+00,5.000000000000000000e+00,5.000000000000000000e+00,5.000000000000000000e+00,5.000000000000000000e+00,5.000000000000000000e+00,5.000000000000000000e+00,5.000000000000000000e+00,5.000000000000000000e+00,5.000000000000000000e+00,5.000000000000000000e+00,5.000000000000000000e+00,5.000000000000000000e+00,5.000000000000000000e+00,5.000000000000000000e+00,5.000000000000000000e+00,5.000000000000000000e+00,5.000000000000000000e+00,5.000000000000000000e+00,5.000000000000000000e+00,5.000000000000000000e+00,5.000000000000000000e+00,5.000000000000000000e+00,5.000000000000000000e+00,5.000000000000000000e+00,5.000000000000000000e+00,5.000000000000000000e+00,5.000000000000000000e+00,5.000000000000000000e+00,5.000000000000000000e+00,5.000000000000000000e+00,5.000000000000000000e+00,5.000000000000000000e+00,5.000000000000000000e+00,5.000000000000000000e+00,5.000000000000000000e+00,5.000000000000000000e+00,5.000000000000000000e+00,5.000000000000000000e+00,5.000000000000000000e+00,5.000000000000000000e+00,5.000000000000000000e+00,5.000000000000000000e+00,5.000000000000000000e+00,5.000000000000000000e+00,5.000000000000000000e+00,5.000000000000000000e+00,5.000000000000000000e+00,5.000000000000000000e+00,5.000000000000000000e+00,5.000000000000000000e+00,5.000000000000000000e+00,4.403118610382080078e+00,4.271531105041503906e+00,4.147579669952392578e+00,4.030619621276855469e+00,3.920037984848022461e+00,3.815355777740478516e+00,3.716118812561035156e+00
3.098846197128295898e+00,3.177186965942382812e+00,3.259591341018676758e+00,3.346384525299072266e+00,3.437926054000854492e+00,3.534616470336914062e+00,3.636903047561645508e+00,3.745286226272583008e+00,3.860327720642089844e+00,3.982660293579101562e+00,4.113000392913818359e+00,4.252160072326660156e+00,4.401066303253173828e+00,4.560780048370361328e+00,5.000000000000000000e+00,5.000000000000000000e+00,5.000000000000000000e+00,5.000000000000000000e+00,5.000000000000000000e+00,5.000000000000000000e+00,5.000000000000000000e+00,5.000000000000000000e+00,5.000000000000000000e+00,5.000000000000000000e+00,5.000000000000000000e+00,5.000000000000000000e+00,5.000000000000000000e+00,5.000000000000000000e+00,5.000000000000000000e+00,5.000000000000000000e+00,5.000000000000000000e+00,5.000000000000000000e+00,5.000000000000000000e+00,5.000000000000000000e+00,5.000000000000000000e+00,5.000000000000000000e+00,5.000000000000000000e+00,5.000000000000000000e+00,5.000000000000000000e+00,5.000000000000000000e+00,5.000000000000000000e+00,5.000000000000000000e+00,5.000000000000000000e+00,5.000000000000000000e+00,5.000000000000000000e+00,5.000000000000000000e+00,5.000000000000000000e+00,5.000000000000000000e+00,5.000000000000000000e+00,5.000000000000000000e+00,5.000000000000000000e+00,5.000000000000000000e+00,5.000000000000000000e+00,5.000000000000000000e+00,5.000000000000000000e+00,5.000000000000000000e+00,5.000000000000000000e+00,5.000000000000000000e+00,5.000000000000000000e+00,5.000000000000000000e+00,5.000000000000000000e+00,5.000000000000000000e+00,5.000000000000000000e+00,5.000000000000000000e+00,5.000000000000000000e+00,5.000000000000000000e+00,5.000000000000000000e+00,5.000000000000000000e+00,5.000000000000000000e+00,5.000000000000000000e+00,5.000000000000000000e+00,5.000000000000000000e+00,4.543262958526611328e+00,4.403298377990722656e+00,4.271699905395507812e+00,4.147739410400390625e+00,4.030724525451660156e+00,3.920130968093872070e+00,3.815443992614746094e+00,3.716202497482299805e+00
3.098786592483520508e+00,3.177124261856079102e+00,3.259525537490844727e+00,3.346314907073974609e+00,3.437852382659912109e+00,3.534538507461547852e+00,3.636820793151855469e+00,3.745199203491210938e+00,3.860235452651977539e+00,3.982562065124511719e+00,4.112895011901855469e+00,4.252048015594482422e+00,4.400946140289306641e+00,4.560650825500488281e+00,4.732383251190185547e+00,5.000000000000000000e+00,5.000000000000000000e+00,5.000000000000000000e+00,5.000000000000000000e+00,5.000000000000000000e+00,5.000000000000000000e+00,5.000000000000000000e+00,5.000000000000000000e+00,5.000000000000000000e+00,5.000000000000000000e+00,5.000000000000000000e+00,5.000000000000000000e+00,5.000000000000000000e+00,5.000000000000000000e+00,5.000000000000000000e+00,5.000000000000000000e+00,5.000000000000000000e+00,5.000000000000000000e+00,5.000000000000000000e+00,5.000000000000000000e+00,5.000000000000000000e+00,5.000000000000000000e+00,5.000000000000000000e+00,5.000000000000000000e+00,5.000000000000000000e+00,5.000000000000000000e+00,5.000000000000000000e+00,5.000000000000000000e+00,5.000000000000000000e+00,5.000000000000000000e+00,5.000000000000000000e+00,5.000000000000000000e+00,5.000000000000000000e+00,5.000000000000000000e+00,5.000000000000000000e+00,5.000000000000000000e+00,5.000000000000000000e+00,5.000000000000000000e+00,5.000000000000000000e+00,5.000000000000000000e+00,5.000000000000000000e+00,5.000000000000000000e+00,5.000000000000000000e+00,5.000000000000000000e+00,5.000000000000000000e+00,5.000000000000000000e+00,5.000000000000000000e+00,5.000000000000000000e+00,5.000000000000000000e+00,5.000000000000000000e+00,5.000000000000000000e+00,5.000000000000000000e+00,5.000000000000000000e+00,5.000000000000000000e+00,5.000000000000000000e+00,5.000000000000000000e+00,4.692621231079101562e+00,4.543454170227050781e+00,4.403478145599365234e+00,4.271862983703613281e+00,4.147844314575195312e+00,4.030823230743408203e+00,3.920223951339721680e+00,3.815531969070434570e+00,3.716285943984985352e+00
3.098723411560058594e+00,3.177061319351196289e+00,3.259459257125854492e+00,3.346245050430297852e+00,3.437779188156127930e+00,3.534461021423339844e+00,3.636738777160644531e+00,3.745111942291259766e+00,3.860142469406127930e+00,3.982463359832763672e+00,4.112790107727050781e+00,4.251935482025146484e+00,4.400825500488281250e+00,4.560521602630615234e+00,4.732244014739990234e+00,4.917404174804687500e+00,5.000000000000000000e+00,5.000000000000000000e+00,5.000000000000000000e+00,5.000000000000000000e+00,5.000000000000000000e+00,5.000000000000000000e+00,5.000000000000000000e+00,5.000000000000000000e+00,5.000000000000000000e+00,5.000000000000000000e+00,5.000000000000000000e+00,5.000000000000000000e+00,5.000000000000000000e+00,5.000000000000000000e+00,5.000000000000000000e+00,5.000000000000000000e+00,5.000000000000000000e+00,5.000000000000000000e+00,5.000000000000000000e+00,5.000000000000000000e+00,5.000000000000000000e+00,5.000000000000000000e+00,5.000000000000000000e+00,5.000000000000000000e+00,5.000000000000000000e+00,5.000000000000000000e+00,5.000000000000000000e+00,5.000000000000000000e+00,5.000000000000000000e+00,5.000000000000000000e+00,5.000000000000000000e+00,5.000000000000000000e+00,5.000000000000000000e+00,5.000000000000000000e+00,5.000000000000000000e+00,5.000000000000000000e+00,5.000000000000000000e+00,5.000000000000000000e+00,5.000000000000000000e+00,5.000000000000000000e+00,5.000000000000000000e+00,5.000000000000000000e+00,5.000000000000000000e+00,5.000000000000000000e+00,5.000000000000000000e+00,5.000000000000000000e+00,5.000000000000000000e+00,5.000000000000000000e+00,5.000000000000000000e+00,5.000000000000000000e+00,5.000000000000000000e+00,5.000000000000000000e+00,5.000000000000000000e+00,5.000000000000000000e+00,4.852133750915527344e+00,4.692825317382812500e+00,4.543645381927490234e+00,4.403644084930419922e+00,4.271974086761474609e+00,4.147948741912841797e+00,4.030921459197998047e+00,3.920316934585571289e+00,3.815620422363281250e+00,3.716369867324829102e+00
3.098657131195068359e+00,3.176995038986206055e+00,3.259393453598022461e+00,3.346175670623779297e+00,3.437705516815185547e+00,3.534383296966552734e+00,3.636656284332275391e+00,3.745024681091308594e+00,3.860050201416015625e+00,3.982364892959594727e+00,4.112684726715087891e+00,4.251822948455810547e+00,4.400705337524414062e+00,4.560392379760742188e+00,4.732104778289794922e+00,4.917253971099853516e+00,5.000000000000000000e+00,5.000000000000000000e+00,5.000000000000000000e+00,5.000000000000000000e+00,5.000000000000000000e+00,5.000000000000000000e+00,5.000000000000000000e+00,5.000000000000000000e+00,5.000000000000000000e+00,5.000000000000000000e+00,5.000000000000000000e+00,5.000000000000000000e+00,5.000000000000000000e+00,5.000000000000000000e+00,5.000000000000000000e+00,5.000000000000000000e+00,5.000000000000000000e+00,5.000000000000000000e+00,5.000000000000000000e+00,5.000000000000000000e+00,5.000000000000000000e+00,5.000000000000000000e+00,5.000000000000000000e+00,5.000000000000000000e+00,5.000000000000000000e+00,5.000000000000000000e+00,5.000000000000000000e+00,5.000000000000000000e+00,5.000000000000000000e+00,5.000000000000000000e+00,5.000000000000000000e+00,5.000000000000000000e+00,5.000000000000000000e+00,5.000000000000000000e+00,5.000000000000000000e+00,5.000000000000000000e+00,5.000000000000000000e+00,5.000000000000000000e+00,5.000000000000000000e+00,5.000000000000000000e+00,5.000000000000000000e+00,5.000000000000000000e+00,5.000000000000000000e+00,5.000000000000000000e+00,5.000000000000000000e+00,5.000000000000000000e+00,5.000000000000000000e+00,5.000000000000000000e+00,5.000000000000000000e+00,5.000000000000000000e+00,5.000000000000000000e+00,5.000000000000000000e+00,5.000000000000000000e+00,5.000000000000000000e+00,4.852351665496826172e+00,4.693028926849365234e+00,4.543815135955810547e+00,4.403761863708496094e+00,4.272084236145019531e+00,4.148052692413330078e+00,4.031020164489746094e+00,3.920410394668579102e+00,3.815708637237548828e+00,3.716453552246093750e+00
3.098591327667236328e+00,3.176925659179687500e+00,3.259323596954345703e+00,3.346106052398681641e+00,3.437632322311401367e+00,3.534305810928344727e+00,3.636574506759643555e+00,3.744937658309936523e+00,3.859957456588745117e+00,3.982266187667846680e+00,4.112579822540283203e+00,4.251710414886474609e+00,4.400585174560546875e+00,4.560263156890869141e+00,4.731965541839599609e+00,4.917103767395019531e+00,5.000000000000000000e+00,5.000000000000000000e+00,5.000000000000000000e+00,5.000000000000000000e+00,5.000000000000000000e+00,5.000000000000000000e+00,5.000000000000000000e+00,5.000000000000000000e+00,5.000000000000000000e+00,5.000000000000000000e+00,5.000000000000000000e+00,5.000000000000000000e+00,5.000000000000000000e+00,5.000000000000000000e+00,5.000000000000000000e+00,5.000000000000000000e+00,5.000000000000000000e+00,5.000000000000000000e+00,5.000000000000000000e+00,5.000000000000000000e+00,5.000000000000000000e+00,5.000000000000000000e+00,5.000000000000000000e+00,5.000000000000000000e+00,5.000000000000000000e+00,5.000000000000000000e+00,5.000000000000000000e+00,5.000000000000000000e+00,5.000000000000000000e+00,5.000000000000000000e+00,5.000000000000000000e+00,5.000000000000000000e+00,5.000000000000000000e+00,5.000000000000000000e+00,5.000000000000000000e+00,5.000000000000000000e+00,5.000000000000000000e+00,5.000000000000000000e+00,5.000000000000000000e+00,5.000000000000000000e+00,5.000000000000000000e+00,5.000000000000000000e+00,5.000000000000000000e+00,5.000000000000000000e+00,5.000000000000000000e+00,5.000000000000000000e+00,5.000000000000000000e+00,5.000000000000000000e+00,5.000000000000000000e+00,5.000000000000000000e+00,5.000000000000000000e+00,5.000000000000000000e+00,5.000000000000000000e+00,5.000000000000000000e+00,4.852569580078125000e+00,4.693202018737792969e+00,4.543940067291259766e+00,4.403879165649414062e+00,4.272194862365722656e+00,4.148157119750976562e+00,4.031118392944335938e+00,3.920503377914428711e+00,3.815796613693237305e+00,3.716536998748779297e+00
3.098525285720825195e+00,3.176856279373168945e+00,3.259250640869140625e+00,3.346032619476318359e+00,3.437558650970458984e+00,3.534228086471557617e+00,3.636492013931274414e+00,3.744850397109985352e+00,3.859864473342895508e+00,3.982167959213256836e+00,4.112474918365478516e+00,4.251598358154296875e+00,4.400464534759521484e+00,4.560133934020996094e+00,4.731826305389404297e+00,4.916953563690185547e+00,5.000000000000000000e+00,5.000000000000000000e+00,5.000000000000000000e+00,5.000000000000000000e+00,5.000000000000000000e+00,5.000000000000000000e+00,5.000000000000000000e+00,5.000000000000000000e+00,5.000000000000000000e+00,5.000000000000000000e+00,5.000000000000000000e+00,5.000000000000000000e+00,5.000000000000000000e+00,5.000000000000000000e+00,5.000000000000000000e+00,5.000000000000000000e+00,5.000000000000000000e+00,5.000000000000000000e+00,5.000000000000000000e+00,5.000000000000000000e+00,5.000000000000000000e+00,5.000000000000000000e+00,5.000000000000000000e+00,5.000000000000000000e+00,5.000000000000000000e+00,5.000000000000000000e+00,5.000000000000000000e+00,5.000000000000000000e+00,5.000000000000000000e+00,5.000000000000000000e+00,5.000000000000000000e+00,5.000000000000000000e+00,5.000000000000000000e+00,5.000000000000000000e+00,5.000000000000000000e+00,5.000000000000000000e+00,5.000000000000000000e+00,5.000000000000000000e+00,5.000000000000000000e+00,5.000000000000000000e+00,5.000000000000000000e+00,5.000000000000000000e+00,5.000000000000000000e+00,5.000000000000000000e+00,5.000000000000000000e+00,5.000000000000000000e+00,5.000000000000000000e+00,5.000000000000000000e+00,5.000000000000000000e+00,5.000000000000000000e+00,5.000000000000000000e+00,5.000000000000000000e+00,5.000000000000000000e+00,5.000000000000000000e+00,4.852746009826660156e+00,4.693335056304931641e+00,4.544064998626708984e+00,4.403996944427490234e+00,4.272305488586425781e+00,4.148261547088623047e+00,4.031217098236083984e+00,3.920596361160278320e+00,3.815884828567504883e+00,3.716620922088623047e+00
3.098459482192993164e+00,3.176787137985229492e+00,3.259177684783935547e+00,3.345955848693847656e+00,3.437481164932250977e+00,3.534150600433349609e+00,3.636409997940063477e+00,3.744763374328613281e+00,3.859772205352783203e+00,3.982069015502929688e+00,4.112369537353515625e+00,4.251485824584960938e+00,4.400343894958496094e+00,4.560004711151123047e+00,4.731687545776367188e+00,4.916803359985351562e+00,5.000000000000000000e+00,5.000000000000000000e+00,5.000000000000000000e+00,5.000000000000000000e+00,5.000000000000000000e+00,5.000000000000000000e+00,5.000000000000000000e+00,5.000000000000000000e+00,5.000000000000000000e+00,5.000000000000000000e+00,5.000000000000000000e+00,5.000000000000000000e+00,5.000000000000000000e+00,5.000000000000000000e+00,5.000000000000000000e+00,5.000000000000000000e+00,5.000000000000000000e+00,5.000000000000000000e+00,5.000000000000000000e+00,5.000000000000000000e+00,5.000000000000000000e+00,5.000000000000000000e+00,5.000000000000000000e+00,5.000000000000000000e+00,5.000000000000000000e+00,5.000000000000000000e+00,5.000000000000000000e+00,5.000000000000000000e+00,5.000000000000000000e+00,5.000000000000000000e+00,5.000000000000000000e+00,5.000000000000000000e+00,5.000000000000000000e+00,5.000000000000000000e+00,5.000000000000000000e+00,5.000000000000000000e+00,5.000000000000000000e+00,5.000000000000000000e+00,5.000000000000000000e+00,5.000000000000000000e+00,5.000000000000000000e+00,5.000000000000000000e+00,5.000000000000000000e+00,5.000000000000000000e+00,5.000000000000000000e+00,5.000000000000000000e+00,5.000000000000000000e+00,5.000000000000000000e+00,5.000000000000000000e+00,5.000000000000000000e+00,5.000000000000000000e+00,5.000000000000000000e+00,5.000000000000000000e+00,5.000000000000000000e+00,4.852888584136962891e+00,4.693468570709228516e+00,4.544189929962158203e+00,4.404114246368408203e+00,4.272416114807128906e+00,4.148365497589111328e+00,4.031315326690673828e+00,3.920689821243286133e+00,3.815973281860351562e+00,3.716704607009887695e+00
3.098393440246582031e+00,3.176717519760131836e+00,3.259104728698730469e+00,3.345878839492797852e+00,3.437400102615356445e+00,3.534068822860717773e+00,3.636327743530273438e+00,3.744676113128662109e+00,3.859679460525512695e+00,3.981970787048339844e+00,4.112264633178710938e+00,4.251373767852783203e+00,4.400223731994628906e+00,4.559875488281250000e+00,4.731548309326171875e+00,4.916653156280517578e+00,5.000000000000000000e+00,5.000000000000000000e+00,5.000000000000000000e+00,5.000000000000000000e+00,5.000000000000000000e+00,5.000000000000000000e+00,5.000000000000000000e+00,5.000000000000000000e+00,5.000000000000000000e+00,5.000000000000000000e+00,5.000000000000000000e+00,5.000000000000000000e+00,5.000000000000000000e+00,5.000000000000000000e+00,5.000000000000000000e+00,5.000000000000000000e+00,5.000000000000000000e+00,5.000000000000000000e+00,5.000000000000000000e+00,5.000000000000000000e+00,5.000000000000000000e+00,5.000000000000000000e+00,5.000000000000000000e+00,5.000000000000000000e+00,5.000000000000000000e+00,5.000000000000000000e+00,5.000000000000000000e+00,5.000000000000000000e+00,5.000000000000000000e+00,5.000000000000000000e+00,5.000000000000000000e+00,5.000000000000000000e+00,5.000000000000000000e+00,5.000000000000000000e+00,5.000000000000000000e+00,5.000000000000000000e+00,5.000000000000000000e+00,5.000000000000000000e+00,5.000000000000000000e+00,5.000000000000000000e+00,5.000000000000000000e+00,5.000000000000000000e+00,5.000000000000000000e+00,5.000000000000000000e+00,5.000000000000000000e+00,5.000000000000000000e+00,5.000000000000000000e+00,5.000000000000000000e+00,5.000000000000000000e+00,5.000000000000000000e+00,5.000000000000000000e+00,5.000000000000000000e+00,5.000000000000000000e+00,5.000000000000000000e+00,4.853031158447265625e+00,4.693602561950683594e+00,4.544315338134765625e+00,4.404231548309326172e+00,4.272526741027832031e+00,4.148469924926757812e+00,4.031414031982421875e+00,3.920782804489135742e+00,3.816061258316040039e+00,3.716788291931152344e+00
3.098327636718750000e+00,3.176648378372192383e+00,3.259031534194946289e+00,3.345802068710327148e+00,3.437318801879882812e+00,3.533982753753662109e+00,3.636241436004638672e+00,3.744589090347290039e+00,3.859587192535400391e+00,3.981872081756591797e+00,4.112159729003906250e+00,4.251261234283447266e+00,4.400103569030761719e+00,4.559745788574218750e+00,4.731409072875976562e+00,4.916502952575683594e+00,5.000000000000000000e+00,5.000000000000000000e+00,5.000000000000000000e+00,5.000000000000000000e+00,5.000000000000000000e+00,5.000000000000000000e+00,5.000000000000000000e+00,5.000000000000000000e+00,5.000000000000000000e+00,5.000000000000000000e+00,5.000000000000000000e+00,5.000000000000000000e+00,5.000000000000000000e+00,5.000000000000000000e+00,5.000000000000000000e+00,5.000000000000000000e+00,5.000000000000000000e+00,5.000000000000000000e+00,5.000000000000000000e+00,5.000000000000000000e+00,5.000000000000000000e+00,5.000000000000000000e+00,5.000000000000000000e+00,5.000000000000000000e+00,5.000000000000000000e+00,5.000000000000000000e+00,5.000000000000000000e+00,5.000000000000000000e+00,5.000000000000000000e+00,5.000000000000000000e+00,5.000000000000000000e+00,5.000000000000000000e+00,5.000000000000000000e+00,5.000000000000000000e+00,5.000000000000000000e+00,5.000000000000000000e+00,3.834167718887329102e+00,3.861794233322143555e+00,5.000000000000000000e+00,5.000000000000000000e+00,5.000000000000000000e+00,5.000000000000000000e+00,5.000000000000000000e+00,5.000000000000000000e+00,5.000000000000000000e+00,5.000000000000000000e+00,5.000000000000000000e+00,5.000000000000000000e+00,5.000000000000000000e+00,5.000000000000000000e+00,5.000000000000000000e+00,5.000000000000000000e+00,5.000000000000000000e+00,5.000000000000000000e+00,4.853174209594726562e+00,4.693735599517822266e+00,4.544440269470214844e+00,4.404349327087402344e+00,4.272637367248535156e+00,4.148573875427246094e+00,4.031512260437011719e+00,3.920875310897827148e+00,3.816145896911621094e+00,3.716865539550781250e+00
3.098261594772338867e+00,3.176579236984252930e+00,3.258958816528320312e+00,3.345724821090698242e+00,3.437237739562988281e+00,3.533897161483764648e+00,3.636150360107421875e+00,3.744497537612915039e+00,3.859494209289550781e+00,3.981773376464843750e+00,4.112054347991943359e+00,4.251149177551269531e+00,4.399982929229736328e+00,4.559617042541503906e+00,4.731269836425781250e+00,4.916352748870849609e+00,5.000000000000000000e+00,5.000000000000000000e+00,5.000000000000000000e+00,5.000000000000000000e+00,5.000000000000000000e+00,5.000000000000000000e+00,5.000000000000000000e+00,5.000000000000000000e+00,5.000000000000000000e+00,5.000000000000000000e+00,5.000000000000000000e+00,5.000000000000000000e+00,5.000000000000000000e+00,5.000000000000000000e+00,5.000000000000000000e+00,5.000000000000000000e+00,5.000000000000000000e+00,5.000000000000000000e+00,5.000000000000000000e+00,5.000000000000000000e+00,5.000000000000000000e+00,5.000000000000000000e+00,5.000000000000000000e+00,5.000000000000000000e+00,5.000000000000000000e+00,5.000000000000000000e+00,5.000000000000000000e+00,5.000000000000000000e+00,5.000000000000000000e+00,5.000000000000000000e+00,5.000000000000000000e+00,5.000000000000000000e+00,5.000000000000000000e+00,5.000000000000000000e+00,5.000000000000000000e+00,3.926261663436889648e+00,3.850062847137451172e+00,3.855953693389892578e+00,5.000000000000000000e+00,5.000000000000000000e+00,5.000000000000000000e+00,5.000000000000000000e+00,5.000000000000000000e+00,5.000000000000000000e+00,5.000000000000000000e+00,5.000000000000000000e+00,5.000000000000000000e+00,5.000000000000000000e+00,5.000000000000000000e+00,5.000000000000000000e+00,5.000000000000000000e+00,5.000000000000000000e+00,5.000000000000000000e+00,5.000000000000000000e+00,4.853316307067871094e+00,4.693869113922119141e+00,4.544565200805664062e+00,4.404466629028320312e+00,4.272747993469238281e+00,4.148674964904785156e+00,4.031604290008544922e+00,3.920959711074829102e+00,3.816225767135620117e+00,3.716941356658935547e+00
3.098195791244506836e+00,3.176509857177734375e+00,3.258885622024536133e+00,3.345648288726806641e+00,3.437156438827514648e+00,3.533811092376708984e+00,3.636059761047363281e+00,3.744400978088378906e+00,3.859397172927856445e+00,3.981674909591674805e+00,4.111949443817138672e+00,4.251036643981933594e+00,4.399862766265869141e+00,4.559487819671630859e+00,4.731130599975585938e+00,4.916202545166015625e+00,5.000000000000000000e+00,5.000000000000000000e+00,5.000000000000000000e+00,5.000000000000000000e+00,5.000000000000000000e+00,5.000000000000000000e+00,5.000000000000000000e+00,5.000000000000000000e+00,5.000000000000000000e+00,5.000000000000000000e+00,5.000000000000000000e+00,5.000000000000000000e+00,5.000000000000000000e+00,5.000000000000000000e+00,5.000000000000000000e+00,5.000000000000000000e+00,5.000000000000000000e+00,5.000000000000000000e+00,5.000000000000000000e+00,5.000000000000000000e+00,5.000000000000000000e+00,5.000000000000000000e+00,5.000000000000000000e+00,5.000000000000000000e+00,5.000000000000000000e+00,5.000000000000000000e+00,5.000000000000000000e+00,5.000000000000000000e+00,5.000000000000000000e+00,5.000000000000000000e+00,5.000000000000000000e+00,5.000000000000000000e+00,5.000000000000000000e+00,5.000000000000000000e+00,5.000000000000000000e+00,5.000000000000000000e+00,3.855751514434814453e+00,3.898221492767333984e+00,5.000000000000000000e+00,5.000000000000000000e+00,5.000000000000000000e+00,5.000000000000000000e+00,5.000000000000000000e+00,5.000000000000000000e+00,5.000000000000000000e+00,5.000000000000000000e+00,5.000000000000000000e+00,5.000000000000000000e+00,5.000000000000000000e+00,5.000000000000000000e+00,5.000000000000000000e+00,5.000000000000000000e+00,5.000000000000000000e+00,5.000000000000000000e+00,4.853459358215332031e+00,4.694002628326416016e+00,4.544687747955322266e+00,4.404577732086181641e+00,4.272848606109619141e+00,4.148769378662109375e+00,4.031693458557128906e+00,3.921043872833251953e+00,3.816305637359619141e+00,3.717017173767089844e+00
3.098129749298095703e+00,3.176440715789794922e+00,3.258812904357910156e+00,3.345571041107177734e+00,3.437075614929199219e+00,3.533725500106811523e+00,3.635968685150146484e+00,3.744304895401000977e+00,3.859294891357421875e+00,3.981571435928344727e+00,4.111844062805175781e+00,4.250924587249755859e+00,4.399742603302001953e+00,4.559358596801757812e+00,4.730991363525390625e+00,4.916052341461181641e+00,5.000000000000000000e+00,5.000000000000000000e+00,5.000000000000000000e+00,5.000000000000000000e+00,5.000000000000000000e+00,5.000000000000000000e+00,5.000000000000000000e+00,5.000000000000000000e+00,5.000000000000000000e+00,5.000000000000000000e+00,5.000000000000000000e+00,5.000000000000000000e+00,5.000000000000000000e+00,5.000000000000000000e+00,5.000000000000000000e+00,5.000000000000000000e+00,5.000000000000000000e+00,5.000000000000000000e+00,5.000000000000000000e+00,5.000000000000000000e+00,5.000000000000000000e+00,5.000000000000000000e+00,5.000000000000000000e+00,5.000000000000000000e+00,5.000000000000000000e+00,5.000000000000000000e+00,5.000000000000000000e+00,5.000000000000000000e+00,5.000000000000000000e+00,5.000000000000000000e+00,5.000000000000000000e+00,5.000000000000000000e+00,5.000000000000000000e+00,5.000000000000000000e+00,5.000000000000000000e+00,5.000000000000000000e+00,3.924775838851928711e+00,3.976839303970336914e+00,5.000000000000000000e+00,5.000000000000000000e+00,5.000000000000000000e+00,5.000000000000000000e+00,5.000000000000000000e+00,5.000000000000000000e+00,5.000000000000000000e+00,5.000000000000000000e+00,5.000000000000000000e+00,5.000000000000000000e+00,5.000000000000000000e+00,5.000000000000000000e+00,5.000000000000000000e+00,5.000000000000000000e+00,5.000000000000000000e+00,5.000000000000000000e+00,4.853595256805419922e+00,4.694125175476074219e+00,4.544800758361816406e+00,4.404684066772460938e+00,4.272948265075683594e+00,4.148863792419433594e+00,4.031782627105712891e+00,3.921128273010253906e+00,3.816385507583618164e+00,3.717093229293823242e+00
3.098063945770263672e+00,3.176371097564697266e+00,3.258739709854125977e+00,3.345494508743286133e+00,3.436994075775146484e+00,3.533639669418334961e+00,3.635878086090087891e+00,3.744208335876464844e+00,3.859192371368408203e+00,3.981462955474853516e+00,4.111734390258789062e+00,4.250812053680419922e+00,4.399622440338134766e+00,4.559229373931884766e+00,4.730852603912353516e+00,4.915902137756347656e+00,5.000000000000000000e+00,5.000000000000000000e+00,5.000000000000000000e+00,5.000000000000000000e+00,5.000000000000000000e+00,5.000000000000000000e+00,5.000000000000000000e+00,5.000000000000000000e+00,5.000000000000000000e+00,5.000000000000000000e+00,5.000000000000000000e+00,5.000000000000000000e+00,5.000000000000000000e+00,5.000000000000000000e+00,5.000000000000000000e+00,5.000000000000000000e+00,5.000000000000000000e+00,5.000000000000000000e+00,5.000000000000000000e+00,5.000000000000000000e+00,5.000000000000000000e+00,5.000000000000000000e+00,5.000000000000000000e+00,5.000000000000000000e+00,5.000000000000000000e+00,5.000000000000000000e+00,5.000000000000000000e+00,5.000000000000000000e+00,5.000000000000000000e+00,5.000000000000000000e+00,5.000000000000000000e+00,5.000000000000000000e+00,5.000000000000000000e+00,3.908867597579956055e+00,3.903025388717651367e+00,3.873764038085937500e+00,3.865275621414184570e+00,3.869123935699462891e+00,3.878756046295166016e+00,3.909658908843994141e+00,5.000000000000000000e+00,5.000000000000000000e+00,5.000000000000000000e+00,5.000000000000000000e+00,5.000000000000000000e+00,5.000000000000000000e+00,5.000000000000000000e+00,5.000000000000000000e+00,5.000000000000000000e+00,5.000000000000000000e+00,5.000000000000000000e+00,5.000000000000000000e+00,5.000000000000000000e+00,5.000000000000000000e+00,4.853724479675292969e+00,4.694245815277099609e+00,4.544914245605468750e+00,4.404790401458740234e+00,4.273048400878906250e+00,4.148958206176757812e+00,4.031871795654296875e+00,3.921212673187255859e+00,3.816465377807617188e+00,3.717169046401977539e+00
3.097997665405273438e+00,3.176301956176757812e+00,3.258666992187500000e+00,3.345417261123657227e+00,3.436913251876831055e+00,3.533554077148437500e+00,3.635787010192871094e+00,3.744112253189086914e+00,3.859090328216552734e+00,3.981353759765625000e+00,4.111618041992187500e+00,4.250694751739501953e+00,4.399501800537109375e+00,4.559100151062011719e+00,4.730713367462158203e+00,4.915751934051513672e+00,5.000000000000000000e+00,5.000000000000000000e+00,5.000000000000000000e+00,5.000000000000000000e+00,5.000000000000000000e+00,5.000000000000000000e+00,5.000000000000000000e+00,5.000000000000000000e+00,5.000000000000000000e+00,5.000000000000000000e+00,5.000000000000000000e+00,5.000000000000000000e+00,5.000000000000000000e+00,5.000000000000000000e+00,5.000000000000000000e+00,5.000000000000000000e+00,5.000000000000000000e+00,5.000000000000000000e+00,5.000000000000000000e+00,5.000000000000000000e+00,5.000000000000000000e+00,5.000000000000000000e+00,5.000000000000000000e+00,5.000000000000000000e+00,5.000000000000000000e+00,5.000000000000000000e+00,5.000000000000000000e+00,5.000000000000000000e+00,5.000000000000000000e+00,5.000000000000000000e+00,5.000000000000000000e+00,5.000000000000000000e+00,5.000000000000000000e+00,3.900948286056518555e+00,3.876681804656982422e+00,3.836267471313476562e+00,3.823012590408325195e+00,3.827287673950195312e+00,3.852248668670654297e+00,3.920056343078613281e+00,5.000000000000000000e+00,5.000000000000000000e+00,5.000000000000000000e+00,5.000000000000000000e+00,5.000000000000000000e+00,5.000000000000000000e+00,5.000000000000000000e+00,5.000000000000000000e+00,5.000000000000000000e+00,5.000000000000000000e+00,5.000000000000000000e+00,5.000000000000000000e+00,5.000000000000000000e+00,5.000000000000000000e+00,4.853853702545166016e+00,4.694366931915283203e+00,4.545027732849121094e+00,4.404896736145019531e+00,4.273148536682128906e+00,4.149052619934082031e+00,4.031960964202880859e+00,3.921296834945678711e+00,3.816545724868774414e+00,3.717244863510131836e+00
3.097932100296020508e+00,3.176232576370239258e+00,3.258594036102294922e+00,3.345340728759765625e+00,3.436831951141357422e+00,3.533468008041381836e+00,3.635696411132812500e+00,3.744015932083129883e+00,3.858988285064697266e+00,3.981245040893554688e+00,4.111502170562744141e+00,4.250570774078369141e+00,4.399376392364501953e+00,4.558970928192138672e+00,4.730574131011962891e+00,4.915601730346679688e+00,5.000000000000000000e+00,5.000000000000000000e+00,5.000000000000000000e+00,5.000000000000000000e+00,5.000000000000000000e+00,5.000000000000000000e+00,5.000000000000000000e+00,5.000000000000000000e+00,5.000000000000000000e+00,5.000000000000000000e+00,5.000000000000000000e+00,5.000000000000000000e+00,5.000000000000000000e+00,5.000000000000000000e+00,5.000000000000000000e+00,5.000000000000000000e+00,5.000000000000000000e+00,5.000000000000000000e+00,5.000000000000000000e+00,5.000000000000000000e+00,5.000000000000000000e+00,5.000000000000000000e+00,5.000000000000000000e+00,5.000000000000000000e+00,5.000000000000000000e+00,5.000000000000000000e+00,5.000000000000000000e+00,5.000000000000000000e+00,5.000000000000000000e+00,5.000000000000000000e+00,5.000000000000000000e+00,5.000000000000000000e+00,5.000000000000000000e+00,3.930203676223754883e+00,3.893449306488037109e+00,3.845948219299316406e+00,3.818258285522460938e+00,3.822468996047973633e+00,3.864264965057373047e+00,3.913980960845947266e+00,5.000000000000000000e+00,5.000000000000000000e+00,5.000000000000000000e+00,5.000000000000000000e+00,5.000000000000000000e+00,5.000000000000000000e+00,5.000000000000000000e+00,5.000000000000000000e+00,5.000000000000000000e+00,5.000000000000000000e+00,5.000000000000000000e+00,5.000000000000000000e+00,5.000000000000000000e+00,5.000000000000000000e+00,4.853982925415039062e+00,4.694488048553466797e+00,4.545141220092773438e+00,4.405003070831298828e+00,4.273248672485351562e+00,4.149147033691406250e+00,4.032050132751464844e+00,3.921381235122680664e+00,3.816625595092773438e+00,3.717320680618286133e+00
3.097865819931030273e+00,3.176163434982299805e+00,3.258521080017089844e+00,3.345263719558715820e+00,3.436750888824462891e+00,3.533382415771484375e+00,3.635605573654174805e+00,3.743919849395751953e+00,3.858885765075683594e+00,3.981136083602905273e+00,4.111385822296142578e+00,4.250446796417236328e+00,4.399243354797363281e+00,4.558836460113525391e+00,4.730435371398925781e+00,4.915451526641845703e+00,5.000000000000000000e+00,5.000000000000000000e+00,5.000000000000000000e+00,5.000000000000000000e+00,5.000000000000000000e+00,5.000000000000000000e+00,5.000000000000000000e+00,5.000000000000000000e+00,5.000000000000000000e+00,5.000000000000000000e+00,5.000000000000000000e+00,5.000000000000000000e+00,5.000000000000000000e+00,5.000000000000000000e+00,5.000000000000000000e+00,5.000000000000000000e+00,5.000000000000000000e+00,5.000000000000000000e+00,5.000000000000000000e+00,5.000000000000000000e+00,5.000000000000000000e+00,5.000000000000000000e+00,5.000000000000000000e+00,5.000000000000000000e+00,5.000000000000000000e+00,5.000000000000000000e+00,5.000000000000000000e+00,5.000000000000000000e+00,5.000000000000000000e+00,5.000000000000000000e+00,5.000000000000000000e+00,5.000000000000000000e+00,5.000000000000000000e+00,3.948786258697509766e+00,3.920042276382446289e+00,3.841016054153442383e+00,3.817525386810302734e+00,3.821187973022460938e+00,3.867166757583618164e+00,3.912517547607421875e+00,3.939881563186645508e+00,5.000000000000000000e+00,5.000000000000000000e+00,5.000000000000000000e+00,5.000000000000000000e+00,5.000000000000000000e+00,5.000000000000000000e+00,5.000000000000000000e+00,5.000000000000000000e+00,5.000000000000000000e+00,5.000000000000000000e+00,5.000000000000000000e+00,5.000000000000000000e+00,5.000000000000000000e+00,4.854112148284912109e+00,4.694608688354492188e+00,4.545254230499267578e+00,4.405109882354736328e+00,4.273349285125732422e+00,4.149241447448730469e+00,4.032139301300048828e+00,3.921466112136840820e+00,3.816705465316772461e+00,3.717396259307861328e+00
3.097772121429443359e+00,3.176080703735351562e+00,3.258448362350463867e+00,3.345186948776245117e+00,3.436669588088989258e+00,3.533296823501586914e+00,3.635514974594116211e+00,3.743823289871215820e+00,3.858783721923828125e+00,3.981027364730834961e+00,4.111269950866699219e+00,4.250322341918945312e+00,4.399110317230224609e+00,4.558693408966064453e+00,4.730290412902832031e+00,4.915301322937011719e+00,5.000000000000000000e+00,5.000000000000000000e+00,5.000000000000000000e+00,5.000000000000000000e+00,5.000000000000000000e+00,5.000000000000000000e+00,5.000000000000000000e+00,5.000000000000000000e+00,5.000000000000000000e+00,5.000000000000000000e+00,5.000000000000000000e+00,5.000000000000000000e+00,5.000000000000000000e+00,5.000000000000000000e+00,5.000000000000000000e+00,5.000000000000000000e+00,5.000000000000000000e+00,5.000000000000000000e+00,5.000000000000000000e+00,5.000000000000000000e+00,5.000000000000000000e+00,5.000000000000000000e+00,5.000000000000000000e+00,5.000000000000000000e+00,5.000000000000000000e+00,5.000000000000000000e+00,5.000000000000000000e+00,5.000000000000000000e+00,5.000000000000000000e+00,5.000000000000000000e+00,5.000000000000000000e+00,5.000000000000000000e+00,5.000000000000000000e+00,3.964471101760864258e+00,3.932433128356933594e+00,3.834223508834838867e+00,3.814419507980346680e+00,3.821487665176391602e+00,3.881162643432617188e+00,3.932514905929565430e+00,3.936811685562133789e+00,5.000000000000000000e+00,5.000000000000000000e+00,5.000000000000000000e+00,5.000000000000000000e+00,5.000000000000000000e+00,5.000000000000000000e+00,5.000000000000000000e+00,5.000000000000000000e+00,5.000000000000000000e+00,5.000000000000000000e+00,5.000000000000000000e+00,5.000000000000000000e+00,5.000000000000000000e+00,4.854241371154785156e+00,4.694729804992675781e+00,4.545367717742919922e+00,4.405216217041015625e+00,4.273449420928955078e+00,4.149335861206054688e+00,4.032228469848632812e+00,3.921550273895263672e+00,3.816785335540771484e+00,3.717472076416015625e+00
3.097673416137695312e+00,3.175976991653442383e+00,3.258341789245605469e+00,3.345092296600341797e+00,3.436588287353515625e+00,3.533210992813110352e+00,3.635423898696899414e+00,3.743727207183837891e+00,3.858681201934814453e+00,3.980918169021606445e+00,4.111153602600097656e+00,4.250198364257812500e+00,4.398977279663085938e+00,4.558550834655761719e+00,4.730136871337890625e+00,4.915144920349121094e+00,5.000000000000000000e+00,5.000000000000000000e+00,5.000000000000000000e+00,5.000000000000000000e+00,5.000000000000000000e+00,5.000000000000000000e+00,5.000000000000000000e+00,5.000000000000000000e+00,5.000000000000000000e+00,5.000000000000000000e+00,5.000000000000000000e+00,5.000000000000000000e+00,5.000000000000000000e+00,5.000000000000000000e+00,5.000000000000000000e+00,5.000000000000000000e+00,5.000000000000000000e+00,5.000000000000000000e+00,5.000000000000000000e+00,5.000000000000000000e+00,5.000000000000000000e+00,5.000000000000000000e+00,5.000000000000000000e+00,5.000000000000000000e+00,5.000000000000000000e+00,5.000000000000000000e+00,5.000000000000000000e+00,5.000000000000000000e+00,5.000000000000000000e+00,5.000000000000000000e+00,5.000000000000000000e+00,5.000000000000000000e+00,5.000000000000000000e+00,3.982759952545166016e+00,3.902336597442626953e+00,3.826214551925659180e+00,3.806176424026489258e+00,3.821803331375122070e+00,3.869328498840332031e+00,3.928925991058349609e+00,3.895354509353637695e+00,5.000000000000000000e+00,5.000000000000000000e+00,5.000000000000000000e+00,5.000000000000000000e+00,5.000000000000000000e+00,5.000000000000000000e+00,5.000000000000000000e+00,5.000000000000000000e+00,5.000000000000000000e+00,5.000000000000000000e+00,5.000000000000000000e+00,5.000000000000000000e+00,5.000000000000000000e+00,4.854370594024658203e+00,4.694850444793701172e+00,4.545480728149414062e+00,4.405323028564453125e+00,4.273549556732177734e+00,4.149430274963378906e+00,4.032317638397216797e+00,3.921634674072265625e+00,3.816865205764770508e+00,3.717547893524169922e+00
3.097574710845947266e+00,3.175873279571533203e+00,3.258232593536376953e+00,3.344977140426635742e+00,3.436466932296752930e+00,3.533102035522460938e+00,3.635329484939575195e+00,3.743630647659301758e+00,3.858579158782958984e+00,3.980809688568115234e+00,4.111037731170654297e+00,4.250074386596679688e+00,4.398844242095947266e+00,4.558407783508300781e+00,4.729983329772949219e+00,4.914979457855224609e+00,5.000000000000000000e+00,5.000000000000000000e+00,5.000000000000000000e+00,5.000000000000000000e+00,5.000000000000000000e+00,5.000000000000000000e+00,5.000000000000000000e+00,5.000000000000000000e+00,5.000000000000000000e+00,5.000000000000000000e+00,5.000000000000000000e+00,5.000000000000000000e+00,5.000000000000000000e+00,5.000000000000000000e+00,5.000000000000000000e+00,5.000000000000000000e+00,5.000000000000000000e+00,5.000000000000000000e+00,5.000000000000000000e+00,5.000000000000000000e+00,5.000000000000000000e+00,5.000000000000000000e+00,5.000000000000000000e+00,5.000000000000000000e+00,5.000000000000000000e+00,5.000000000000000000e+00,5.000000000000000000e+00,5.000000000000000000e+00,5.000000000000000000e+00,5.000000000000000000e+00,5.000000000000000000e+00,5.000000000000000000e+00,5.000000000000000000e+00,3.961911678314208984e+00,3.917277574539184570e+00,3.845464229583740234e+00,3.828733205795288086e+00,3.828001499176025391e+00,3.853875160217285156e+00,5.000000000000000000e+00,3.866485118865966797e+00,5.000000000000000000e+00,5.000000000000000000e+00,5.000000000000000000e+00,5.000000000000000000e+00,5.000000000000000000e+00,5.000000000000000000e+00,5.000000000000000000e+00,5.000000000000000000e+00,5.000000000000000000e+00,5.000000000000000000e+00,5.000000000000000000e+00,5.000000000000000000e+00,5.000000000000000000e+00,4.854499816894531250e+00,4.694971561431884766e+00,4.545594215393066406e+00,4.405429363250732422e+00,4.273649692535400391e+00,4.149524688720703125e+00,4.032406806945800781e+00,3.921719074249267578e+00,3.816945075988769531e+00,3.717623710632324219e+00
3.097506046295166016e+00,3.175784587860107422e+00,3.258123397827148438e+00,3.344862222671508789e+00,3.436345577239990234e+00,3.532973527908325195e+00,3.635193586349487305e+00,3.743505001068115234e+00,3.858468532562255859e+00,3.980700492858886719e+00,4.110921382904052734e+00,4.249950408935546875e+00,4.398711681365966797e+00,4.558265209197998047e+00,4.729829311370849609e+00,4.914813518524169922e+00,5.000000000000000000e+00,5.000000000000000000e+00,5.000000000000000000e+00,5.000000000000000000e+00,5.000000000000000000e+00,5.000000000000000000e+00,5.000000000000000000e+00,5.000000000000000000e+00,5.000000000000000000e+00,5.000000000000000000e+00,5.000000000000000000e+00,5.000000000000000000e+00,5.000000000000000000e+00,5.000000000000000000e+00,5.000000000000000000e+00,5.000000000000000000e+00,5.000000000000000000e+00,5.000000000000000000e+00,5.000000000000000000e+00,5.000000000000000000e+00,5.000000000000000000e+00,5.000000000000000000e+00,5.000000000000000000e+00,5.000000000000000000e+00,5.000000000000000000e+00,5.000000000000000000e+00,5.000000000000000000e+00,5.000000000000000000e+00,5.000000000000000000e+00,5.000000000000000000e+00,5.000000000000000000e+00,5.000000000000000000e+00,5.000000000000000000e+00,3.948591232299804688e+00,3.864720106124877930e+00,3.769655227661132812e+00,3.776762962341308594e+00,3.854376554489135742e+00,3.840449571609497070e+00,5.000000000000000000e+00,3.855391025543212891e+00,5.000000000000000000e+00,5.000000000000000000e+00,5.000000000000000000e+00,5.000000000000000000e+00,5.000000000000000000e+00,5.000000000000000000e+00,5.000000000000000000e+00,5.000000000000000000e+00,5.000000000000000000e+00,5.000000000000000000e+00,5.000000000000000000e+00,5.000000000000000000e+00,5.000000000000000000e+00,4.854629039764404297e+00,4.695092201232910156e+00,4.545707702636718750e+00,4.405535697937011719e+00,4.273749828338623047e+00,4.149619102478027344e+00,4.032495975494384766e+00,3.921803474426269531e+00,3.817024946212768555e+00,3.717699527740478516e+00
3.097440481185913086e+00,3.175715923309326172e+00,3.258049726486206055e+00,3.344766855239868164e+00,3.436226129531860352e+00,3.532845258712768555e+00,3.635057687759399414e+00,3.743360996246337891e+00,3.858315467834472656e+00,3.980554103851318359e+00,4.110791683197021484e+00,4.249825954437255859e+00,4.398579120635986328e+00,4.558122634887695312e+00,4.729675769805908203e+00,4.914647579193115234e+00,5.000000000000000000e+00,5.000000000000000000e+00,5.000000000000000000e+00,5.000000000000000000e+00,5.000000000000000000e+00,5.000000000000000000e+00,5.000000000000000000e+00,5.000000000000000000e+00,5.000000000000000000e+00,5.000000000000000000e+00,5.000000000000000000e+00,5.000000000000000000e+00,5.000000000000000000e+00,5.000000000000000000e+00,5.000000000000000000e+00,5.000000000000000000e+00,5.000000000000000000e+00,5.000000000000000000e+00,5.000000000000000000e+00,5.000000000000000000e+00,5.000000000000000000e+00,5.000000000000000000e+00,5.000000000000000000e+00,5.000000000000000000e+00,5.000000000000000000e+00,5.000000000000000000e+00,5.000000000000000000e+00,5.000000000000000000e+00,5.000000000000000000e+00,5.000000000000000000e+00,5.000000000000000000e+00,5.000000000000000000e+00,5.000000000000000000e+00,3.927844047546386719e+00,3.820941686630249023e+00,3.736581563949584961e+00,3.735427618026733398e+00,3.838242769241333008e+00,3.826062202453613281e+00,5.000000000000000000e+00,3.812982082366943359e+00,3.794578790664672852e+00,5.000000000000000000e+00,5.000000000000000000e+00,5.000000000000000000e+00,5.000000000000000000e+00,5.000000000000000000e+00,5.000000000000000000e+00,5.000000000000000000e+00,5.000000000000000000e+00,5.000000000000000000e+00,5.000000000000000000e+00,5.000000000000000000e+00,5.000000000000000000e+00,4.854758262634277344e+00,4.695213317871093750e+00,4.545821189880371094e+00,4.405642032623291016e+00,4.273849964141845703e+00,4.149713993072509766e+00,4.032585144042968750e+00,3.921887636184692383e+00,3.817105054855346680e+00,3.717775344848632812e+00
3.097374677658081055e+00,3.175646781921386719e+00,3.257977247238159180e+00,3.344690084457397461e+00,3.436145067214965820e+00,3.532742261886596680e+00,3.634927272796630859e+00,3.743216753005981445e+00,3.858162641525268555e+00,3.980391263961791992e+00,4.110618114471435547e+00,4.249654293060302734e+00,4.398425102233886719e+00,4.557979583740234375e+00,4.729522228240966797e+00,4.914481639862060547e+00,5.000000000000000000e+00,5.000000000000000000e+00,5.000000000000000000e+00,5.000000000000000000e+00,5.000000000000000000e+00,5.000000000000000000e+00,5.000000000000000000e+00,5.000000000000000000e+00,5.000000000000000000e+00,5.000000000000000000e+00,5.000000000000000000e+00,5.000000000000000000e+00,5.000000000000000000e+00,5.000000000000000000e+00,5.000000000000000000e+00,5.000000000000000000e+00,5.000000000000000000e+00,5.000000000000000000e+00,5.000000000000000000e+00,5.000000000000000000e+00,5.000000000000000000e+00,5.000000000000000000e+00,5.000000000000000000e+00,5.000000000000000000e+00,5.000000000000000000e+00,5.000000000000000000e+00,5.000000000000000000e+00,5.000000000000000000e+00,5.000000000000000000e+00,5.000000000000000000e+00,5.000000000000000000e+00,5.000000000000000000e+00,5.000000000000000000e+00,3.917623996734619141e+00,3.866492271423339844e+00,3.707780361175537109e+00,3.696295976638793945e+00,3.839697360992431641e+00,3.829746723175048828e+00,5.000000000000000000e+00,5.000000000000000000e+00,3.755706310272216797e+00,5.000000000000000000e+00,5.000000000000000000e+00,5.000000000000000000e+00,5.000000000000000000e+00,5.000000000000000000e+00,5.000000000000000000e+00,5.000000000000000000e+00,5.000000000000000000e+00,5.000000000000000000e+00,5.000000000000000000e+00,5.000000000000000000e+00,5.000000000000000000e+00,4.854887485504150391e+00,4.695334434509277344e+00,4.545934200286865234e+00,4.405748367309570312e+00,4.273950099945068359e+00,4.149808406829833984e+00,4.032674312591552734e+00,3.921972036361694336e+00,3.817184925079345703e+00,3.717851161956787109e+00
3.097308874130249023e+00,3.175577640533447266e+00,3.257904529571533203e+00,3.344613313674926758e+00,3.436064243316650391e+00,3.532656669616699219e+00,3.634837150573730469e+00,3.743104219436645508e+00,3.858019113540649414e+00,3.980228424072265625e+00,4.110444068908691406e+00,4.249468326568603516e+00,4.398226261138916016e+00,4.557776927947998047e+00,4.729338645935058594e+00,4.914315700531005859e+00,5.000000000000000000e+00,5.000000000000000000e+00,5.000000000000000000e+00,5.000000000000000000e+00,5.000000000000000000e+00,5.000000000000000000e+00,5.000000000000000000e+00,5.000000000000000000e+00,5.000000000000000000e+00,5.000000000000000000e+00,5.000000000000000000e+00,5.000000000000000000e+00,5.000000000000000000e+00,5.000000000000000000e+00,5.000000000000000000e+00,5.000000000000000000e+00,5.000000000000000000e+00,5.000000000000000000e+00,5.000000000000000000e+00,5.000000000000000000e+00,5.000000000000000000e+00,5.000000000000000000e+00,5.000000000000000000e+00,5.000000000000000000e+00,5.000000000000000000e+00,5.000000000000000000e+00,5.000000000000000000e+00,5.000000000000000000e+00,5.000000000000000000e+00,5.000000000000000000e+00,5.000000000000000000e+00,5.000000000000000000e+00,5.000000000000000000e+00,3.904807090759277344e+00,5.000000000000000000e+00,3.675224542617797852e+00,3.657778501510620117e+00,3.840670108795166016e+00,3.837354183197021484e+00,5.000000000000000000e+00,5.000000000000000000e+00,5.000000000000000000e+00,5.000000000000000000e+00,5.000000000000000000e+00,5.000000000000000000e+00,5.000000000000000000e+00,5.000000000000000000e+00,5.000000000000000000e+00,5.000000000000000000e+00,5.000000000000000000e+00,5.000000000000000000e+00,5.000000000000000000e+00,5.000000000000000000e+00,5.000000000000000000e+00,4.855016708374023438e+00,4.695455074310302734e+00,4.546047687530517578e+00,4.405855178833007812e+00,4.274050712585449219e+00,4.149902820587158203e+00,4.032763481140136719e+00,3.922056436538696289e+00,3.817264795303344727e+00,3.717927694320678711e+00
3.097243309020996094e+00,3.175508499145507812e+00,3.257831811904907227e+00,3.344537019729614258e+00,3.435983419418334961e+00,3.532571077346801758e+00,3.634746551513671875e+00,3.743008375167846680e+00,3.857917308807373047e+00,3.980105161666870117e+00,4.110286235809326172e+00,4.249282836914062500e+00,4.398027420043945312e+00,4.557563304901123047e+00,4.729108333587646484e+00,4.914072990417480469e+00,5.000000000000000000e+00,5.000000000000000000e+00,5.000000000000000000e+00,5.000000000000000000e+00,5.000000000000000000e+00,5.000000000000000000e+00,5.000000000000000000e+00,5.000000000000000000e+00,5.000000000000000000e+00,5.000000000000000000e+00,5.000000000000000000e+00,5.000000000000000000e+00,5.000000000000000000e+00,5.000000000000000000e+00,5.000000000000000000e+00,5.000000000000000000e+00,5.000000000000000000e+00,5.000000000000000000e+00,5.000000000000000000e+00,5.000000000000000000e+00,5.000000000000000000e+00,5.000000000000000000e+00,5.000000000000000000e+00,5.000000000000000000e+00,5.000000000000000000e+00,5.000000000000000000e+00,5.000000000000000000e+00,5.000000000000000000e+00,5.000000000000000000e+00,5.000000000000000000e+00,5.000000000000000000e+00,5.000000000000000000e+00,5.000000000000000000e+00,5.000000000000000000e+00,5.000000000000000000e+00,3.665096282958984375e+00,3.623241424560546875e+00,3.841585636138916016e+00,3.839852571487426758e+00,5.000000000000000000e+00,5.000000000000000000e+00,5.000000000000000000e+00,5.000000000000000000e+00,5.000000000000000000e+00,5.000000000000000000e+00,5.000000000000000000e+00,5.000000000000000000e+00,5.000000000000000000e+00,5.000000000000000000e+00,5.000000000000000000e+00,5.000000000000000000e+00,5.000000000000000000e+00,5.000000000000000000e+00,5.000000000000000000e+00,4.855146408081054688e+00,4.695576190948486328e+00,4.546161174774169922e+00,4.405961513519287109e+00,4.274150848388671875e+00,4.149997234344482422e+00,4.032853126525878906e+00,3.922143459320068359e+00,3.817349910736083984e+00,3.718010425567626953e+00
3.097177743911743164e+00,3.175439596176147461e+00,3.257759094238281250e+00,3.344460487365722656e+00,3.435902833938598633e+00,3.532485723495483398e+00,3.634655952453613281e+00,3.742912530899047852e+00,3.857815742492675781e+00,3.979996442794799805e+00,4.110170364379882812e+00,4.249146938323974609e+00,4.397850990295410156e+00,4.557349205017089844e+00,4.728878498077392578e+00,4.913824558258056641e+00,5.000000000000000000e+00,5.000000000000000000e+00,5.000000000000000000e+00,5.000000000000000000e+00,5.000000000000000000e+00,5.000000000000000000e+00,5.000000000000000000e+00,5.000000000000000000e+00,5.000000000000000000e+00,5.000000000000000000e+00,5.000000000000000000e+00,5.000000000000000000e+00,5.000000000000000000e+00,5.000000000000000000e+00,5.000000000000000000e+00,5.000000000000000000e+00,5.000000000000000000e+00,5.000000000000000000e+00,5.000000000000000000e+00,5.000000000000000000e+00,5.000000000000000000e+00,5.000000000000000000e+00,5.000000000000000000e+00,5.000000000000000000e+00,5.000000000000000000e+00,5.000000000000000000e+00,5.000000000000000000e+00,5.000000000000000000e+00,5.000000000000000000e+00,5.000000000000000000e+00,5.000000000000000000e+00,5.000000000000000000e+00,5.000000000000000000e+00,5.000000000000000000e+00,5.000000000000000000e+00,3.680416584014892578e+00,3.626624584197998047e+00,3.839387178421020508e+00,3.847623109817504883e+00,5.000000000000000000e+00,5.000000000000000000e+00,5.000000000000000000e+00,5.000000000000000000e+00,5.000000000000000000e+00,5.000000000000000000e+00,5.000000000000000000e+00,5.000000000000000000e+00,5.000000000000000000e+00,5.000000000000000000e+00,5.000000000000000000e+00,5.000000000000000000e+00,5.000000000000000000e+00,5.000000000000000000e+00,5.000000000000000000e+00,4.855275630950927734e+00,4.695696830749511719e+00,4.546274185180664062e+00,4.406068325042724609e+00,4.274252891540527344e+00,4.150096893310546875e+00,4.032949924468994141e+00,3.922235727310180664e+00,3.817437648773193359e+00,3.718093395233154297e+00
3.097111940383911133e+00,3.175370454788208008e+00,3.257686376571655273e+00,3.344383716583251953e+00,3.435821771621704102e+00,3.532400369644165039e+00,3.634565591812133789e+00,3.742816448211669922e+00,3.857713699340820312e+00,3.979888439178466797e+00,4.110054492950439453e+00,4.249022960662841797e+00,4.397718429565429688e+00,4.557198047637939453e+00,4.728680133819580078e+00,4.913576126098632812e+00,5.000000000000000000e+00,5.000000000000000000e+00,5.000000000000000000e+00,5.000000000000000000e+00,5.000000000000000000e+00,5.000000000000000000e+00,5.000000000000000000e+00,5.000000000000000000e+00,5.000000000000000000e+00,5.000000000000000000e+00,5.000000000000000000e+00,5.000000000000000000e+00,5.000000000000000000e+00,5.000000000000000000e+00,5.000000000000000000e+00,5.000000000000000000e+00,5.000000000000000000e+00,5.000000000000000000e+00,5.000000000000000000e+00,5.000000000000000000e+00,5.000000000000000000e+00,5.000000000000000000e+00,5.000000000000000000e+00,5.000000000000000000e+00,5.000000000000000000e+00,5.000000000000000000e+00,5.000000000000000000e+00,5.000000000000000000e+00,5.000000000000000000e+00,5.000000000000000000e+00,5.000000000000000000e+00,5.000000000000000000e+00,5.000000000000000000e+00,5.000000000000000000e+00,5.000000000000000000e+00,3.695442438125610352e+00,3.662338018417358398e+00,3.854796648025512695e+00,5.000000000000000000e+00,5.000000000000000000e+00,5.000000000000000000e+00,5.000000000000000000e+00,5.000000000000000000e+00,5.000000000000000000e+00,5.000000000000000000e+00,5.000000000000000000e+00,5.000000000000000000e+00,5.000000000000000000e+00,5.000000000000000000e+00,5.000000000000000000e+00,5.000000000000000000e+00,5.000000000000000000e+00,5.000000000000000000e+00,5.000000000000000000e+00,4.855404853820800781e+00,4.695818901062011719e+00,4.546392440795898438e+00,4.406182765960693359e+00,4.274362564086914062e+00,4.150200366973876953e+00,4.033047676086425781e+00,3.922327756881713867e+00,3.817524909973144531e+00,3.718176603317260742e+00
3.097046136856079102e+00,3.175301313400268555e+00,3.257613897323608398e+00,3.344307184219360352e+00,3.435740947723388672e+00,3.532315015792846680e+00,3.634475231170654297e+00,3.742720365524291992e+00,3.857611656188964844e+00,3.979779958724975586e+00,4.109939098358154297e+00,4.248899936676025391e+00,4.397585868835449219e+00,4.557056427001953125e+00,4.728527069091796875e+00,4.913406848907470703e+00,5.000000000000000000e+00,5.000000000000000000e+00,5.000000000000000000e+00,5.000000000000000000e+00,5.000000000000000000e+00,5.000000000000000000e+00,5.000000000000000000e+00,5.000000000000000000e+00,5.000000000000000000e+00,5.000000000000000000e+00,5.000000000000000000e+00,5.000000000000000000e+00,5.000000000000000000e+00,5.000000000000000000e+00,5.000000000000000000e+00,5.000000000000000000e+00,5.000000000000000000e+00,5.000000000000000000e+00,5.000000000000000000e+00,5.000000000000000000e+00,5.000000000000000000e+00,5.000000000000000000e+00,5.000000000000000000e+00,5.000000000000000000e+00,5.000000000000000000e+00,5.000000000000000000e+00,5.000000000000000000e+00,5.000000000000000000e+00,5.000000000000000000e+00,5.000000000000000000e+00,5.000000000000000000e+00,5.000000000000000000e+00,5.000000000000000000e+00,5.000000000000000000e+00,5.000000000000000000e+00,3.718804121017456055e+00,3.693257093429565430e+00,3.903084993362426758e+00,5.000000000000000000e+00,5.000000000000000000e+00,5.000000000000000000e+00,5.000000000000000000e+00,5.000000000000000000e+00,5.000000000000000000e+00,5.000000000000000000e+00,5.000000000000000000e+00,5.000000000000000000e+00,5.000000000000000000e+00,5.000000000000000000e+00,5.000000000000000000e+00,5.000000000000000000e+00,5.000000000000000000e+00,5.000000000000000000e+00,5.000000000000000000e+00,4.855542659759521484e+00,4.695951461791992188e+00,4.546516895294189453e+00,4.406299114227294922e+00,4.274472236633300781e+00,4.150303840637207031e+00,4.033145427703857422e+00,3.922420501708984375e+00,3.817612171173095703e+00,3.718259334564208984e+00
3.096980810165405273e+00,3.175232172012329102e+00,3.257541179656982422e+00,3.344230651855468750e+00,3.435659885406494141e+00,3.532229423522949219e+00,3.634384870529174805e+00,3.742624759674072266e+00,3.857509613037109375e+00,3.979671239852905273e+00,4.109823226928710938e+00,4.248775959014892578e+00,4.397453784942626953e+00,4.556913852691650391e+00,4.728374004364013672e+00,4.913241386413574219e+00,5.000000000000000000e+00,5.000000000000000000e+00,5.000000000000000000e+00,5.000000000000000000e+00,5.000000000000000000e+00,5.000000000000000000e+00,5.000000000000000000e+00,5.000000000000000000e+00,5.000000000000000000e+00,5.000000000000000000e+00,5.000000000000000000e+00,5.000000000000000000e+00,5.000000000000000000e+00,5.000000000000000000e+00,5.000000000000000000e+00,5.000000000000000000e+00,5.000000000000000000e+00,5.000000000000000000e+00,5.000000000000000000e+00,5.000000000000000000e+00,5.000000000000000000e+00,5.000000000000000000e+00,5.000000000000000000e+00,5.000000000000000000e+00,5.000000000000000000e+00,5.000000000000000000e+00,5.000000000000000000e+00,5.000000000000000000e+00,5.000000000000000000e+00,5.000000000000000000e+00,5.000000000000000000e+00,5.000000000000000000e+00,5.000000000000000000e+00,5.000000000000000000e+00,5.000000000000000000e+00,3.742256164550781250e+00,3.707031011581420898e+00,3.940380334854125977e+00,5.000000000000000000e+00,5.000000000000000000e+00,5.000000000000000000e+00,5.000000000000000000e+00,5.000000000000000000e+00,5.000000000000000000e+00,5.000000000000000000e+00,5.000000000000000000e+00,5.000000000000000000e+00,5.000000000000000000e+00,5.000000000000000000e+00,5.000000000000000000e+00,5.000000000000000000e+00,5.000000000000000000e+00,5.000000000000000000e+00,5.000000000000000000e+00,4.855684280395507812e+00,4.696083545684814453e+00,4.546640872955322266e+00,4.406415939331054688e+00,4.274581909179687500e+00,4.150406837463378906e+00,4.033242702484130859e+00,3.922512531280517578e+00,3.817699909210205078e+00,3.718342304229736328e+00
3.096915006637573242e+00,3.175163269042968750e+00,3.257468461990356445e+00,3.344154119491577148e+00,3.435579538345336914e+00,3.532143831253051758e+00,3.634294271469116211e+00,3.742528915405273438e+00,3.857408046722412109e+00,3.979562759399414062e+00,4.109707355499267578e+00,4.248652458190917969e+00,4.397321224212646484e+00,4.556771755218505859e+00,4.728220939636230469e+00,4.913076400756835938e+00,5.000000000000000000e+00,5.000000000000000000e+00,5.000000000000000000e+00,5.000000000000000000e+00,5.000000000000000000e+00,5.000000000000000000e+00,5.000000000000000000e+00,5.000000000000000000e+00,5.000000000000000000e+00,5.000000000000000000e+00,5.000000000000000000e+00,5.000000000000000000e+00,5.000000000000000000e+00,5.000000000000000000e+00,5.000000000000000000e+00,5.000000000000000000e+00,5.000000000000000000e+00,5.000000000000000000e+00,5.000000000000000000e+00,5.000000000000000000e+00,5.000000000000000000e+00,5.000000000000000000e+00,5.000000000000000000e+00,5.000000000000000000e+00,5.000000000000000000e+00,5.000000000000000000e+00,5.000000000000000000e+00,5.000000000000000000e+00,5.000000000000000000e+00,5.000000000000000000e+00,5.000000000000000000e+00,5.000000000000000000e+00,5.000000000000000000e+00,5.000000000000000000e+00,5.000000000000000000e+00,3.767811775207519531e+00,3.721540451049804688e+00,4.000410556793212891e+00,5.000000000000000000e+00,5.000000000000000000e+00,5.000000000000000000e+00,5.000000000000000000e+00,5.000000000000000000e+00,5.000000000000000000e+00,5.000000000000000000e+00,5.000000000000000000e+00,5.000000000000000000e+00,5.000000000000000000e+00,5.000000000000000000e+00,5.000000000000000000e+00,5.000000000000000000e+00,5.000000000000000000e+00,5.000000000000000000e+00,5.000000000000000000e+00,4.855825901031494141e+00,4.696215629577636719e+00,4.546764850616455078e+00,4.406532764434814453e+00,4.274691581726074219e+00,4.150510311126708984e+00,4.033340454101562500e+00,3.922604799270629883e+00,3.817787170410156250e+00,3.718425512313842773e+00
3.096849203109741211e+00,3.175094366073608398e+00,3.257395744323730469e+00,3.344077348709106445e+00,3.435498476028442383e+00,3.532058715820312500e+00,3.634203672409057617e+00,3.742432832717895508e+00,3.857306003570556641e+00,3.979454278945922852e+00,4.109591960906982422e+00,4.248528957366943359e+00,4.397189140319824219e+00,4.556629657745361328e+00,4.728067874908447266e+00,4.912910938262939453e+00,5.000000000000000000e+00,5.000000000000000000e+00,5.000000000000000000e+00,5.000000000000000000e+00,5.000000000000000000e+00,5.000000000000000000e+00,5.000000000000000000e+00,5.000000000000000000e+00,5.000000000000000000e+00,5.000000000000000000e+00,5.000000000000000000e+00,5.000000000000000000e+00,5.000000000000000000e+00,5.000000000000000000e+00,5.000000000000000000e+00,5.000000000000000000e+00,5.000000000000000000e+00,5.000000000000000000e+00,5.000000000000000000e+00,5.000000000000000000e+00,5.000000000000000000e+00,5.000000000000000000e+00,5.000000000000000000e+00,5.000000000000000000e+00,5.000000000000000000e+00,5.000000000000000000e+00,5.000000000000000000e+00,5.000000000000000000e+00,5.000000000000000000e+00,5.000000000000000000e+00,5.000000000000000000e+00,5.000000000000000000e+00,5.000000000000000000e+00,5.000000000000000000e+00,5.000000000000000000e+00,3.795854568481445312e+00,3.737486362457275391e+00,5.000000000000000000e+00,5.000000000000000000e+00,5.000000000000000000e+00,5.000000000000000000e+00,5.000000000000000000e+00,5.000000000000000000e+00,5.000000000000000000e+00,5.000000000000000000e+00,5.000000000000000000e+00,5.000000000000000000e+00,5.000000000000000000e+00,5.000000000000000000e+00,5.000000000000000000e+00,5.000000000000000000e+00,5.000000000000000000e+00,5.000000000000000000e+00,5.000000000000000000e+00,4.855967521667480469e+00,4.696348190307617188e+00,4.546888828277587891e+00,4.406648635864257812e+00,4.274800777435302734e+00,4.150613784790039062e+00,4.033438205718994141e+00,3.922697305679321289e+00,3.817874670028686523e+00,3.718508243560791016e+00
3.096783399581909180e+00,3.175025224685668945e+00,3.257323265075683594e+00,3.344000816345214844e+00,3.435417652130126953e+00,3.531973361968994141e+00,3.634113550186157227e+00,3.742336750030517578e+00,3.857204198837280273e+00,3.979346036911010742e+00,4.109476089477539062e+00,4.248405456542968750e+00,4.397056579589843750e+00,4.556487560272216797e+00,4.727914810180664062e+00,4.912745952606201172e+00,5.000000000000000000e+00,5.000000000000000000e+00,5.000000000000000000e+00,5.000000000000000000e+00,5.000000000000000000e+00,5.000000000000000000e+00,5.000000000000000000e+00,5.000000000000000000e+00,5.000000000000000000e+00,5.000000000000000000e+00,5.000000000000000000e+00,5.000000000000000000e+00,5.000000000000000000e+00,5.000000000000000000e+00,5.000000000000000000e+00,5.000000000000000000e+00,5.000000000000000000e+00,5.000000000000000000e+00,5.000000000000000000e+00,5.000000000000000000e+00,5.000000000000000000e+00,5.000000000000000000e+00,5.000000000000000000e+00,5.000000000000000000e+00,5.000000000000000000e+00,5.000000000000000000e+00,5.000000000000000000e+00,5.000000000000000000e+00,5.000000000000000000e+00,5.000000000000000000e+00,5.000000000000000000e+00,5.000000000000000000e+00,5.000000000000000000e+00,5.000000000000000000e+00,5.000000000000000000e+00,5.000000000000000000e+00,3.763231039047241211e+00,5.000000000000000000e+00,5.000000000000000000e+00,5.000000000000000000e+00,5.000000000000000000e+00,5.000000000000000000e+00,5.000000000000000000e+00,5.000000000000000000e+00,5.000000000000000000e+00,5.000000000000000000e+00,5.000000000000000000e+00,5.000000000000000000e+00,5.000000000000000000e+00,5.000000000000000000e+00,5.000000000000000000e+00,5.000000000000000000e+00,5.000000000000000000e+00,5.000000000000000000e+00,4.856108665466308594e+00,4.696480274200439453e+00,4.547013282775878906e+00,4.406765460968017578e+00,4.274910926818847656e+00,4.150717258453369141e+00,4.033535957336425781e+00,3.922789573669433594e+00,3.817962408065795898e+00,3.718590974807739258e+00
3.096718072891235352e+00,3.174956083297729492e+00,3.257250547409057617e+00,3.343924522399902344e+00,3.435336828231811523e+00,3.531887769699096680e+00,3.634022951126098633e+00,3.742241144180297852e+00,3.857102155685424805e+00,3.979237556457519531e+00,4.109360694885253906e+00,4.248281478881835938e+00,4.396924018859863281e+00,4.556344985961914062e+00,4.727761745452880859e+00,4.854275226593017578e+00,4.853075981140136719e+00,4.851877212524414062e+00,4.850678920745849609e+00,4.849481582641601562e+00,4.848284244537353516e+00,4.847088336944580078e+00,4.845892429351806641e+00,4.844696998596191406e+00,4.843502521514892578e+00,4.842308044433593750e+00,4.841114521026611328e+00,4.839921951293945312e+00,4.838729381561279297e+00,4.837537765502929688e+00,4.836346626281738281e+00,4.835155963897705078e+00,4.833966255187988281e+00,4.832776546478271484e+00,4.831587791442871094e+00,4.830399513244628906e+00,4.829212188720703125e+00,4.828024864196777344e+00,4.826838493347167969e+00,4.825652599334716797e+00,4.824467658996582031e+00,4.823282718658447266e+00,4.822098731994628906e+00,4.820915222167968750e+00,4.819732189178466797e+00,4.818549633026123047e+00,4.817368030548095703e+00,4.816186428070068359e+00,4.815005779266357422e+00,4.813826084136962891e+00,4.812646389007568359e+00,4.811467647552490234e+00,3.694646120071411133e+00,4.809111118316650391e+00,4.807934284210205078e+00,4.806757450103759766e+00,4.805581569671630859e+00,4.804406166076660156e+00,4.803231239318847656e+00,4.802056789398193359e+00,4.800883293151855469e+00,4.799709796905517578e+00,4.798537731170654297e+00,4.797365665435791016e+00,4.796194076538085938e+00,4.795023441314697266e+00,4.793852806091308594e+00,4.792683124542236328e+00,4.791513919830322266e+00,4.790345668792724609e+00,4.789177417755126953e+00,4.696612834930419922e+00,4.547136783599853516e+00,4.406882286071777344e+00,4.275020599365234375e+00,4.150820732116699219e+00,4.033633232116699219e+00,3.922881841659545898e+00,3.818049669265747070e+00,3.718674421310424805e+00
3.096652269363403320e+00,3.174887180328369141e+00,3.257177829742431641e+00,3.343847751617431641e+00,3.435256242752075195e+00,3.531802177429199219e+00,3.633932590484619141e+00,3.742145299911499023e+00,3.770732402801513672e+00,3.770008802413940430e+00,3.769285440444946289e+00,3.768562078475952148e+00,3.767839193344116211e+00,3.767116785049438477e+00,3.766394376754760742e+00,3.765672206878662109e+00,3.764950513839721680e+00,3.764229059219360352e+00,3.763507366180419922e+00,3.762786626815795898e+00,3.762066125869750977e+00,3.761345386505126953e+00,3.760625362396240234e+00,3.759905576705932617e+00,3.759185791015625000e+00,3.758466482162475586e+00,3.757747650146484375e+00,3.757028579711914062e+00,3.756310224533081055e+00,3.755592107772827148e+00,3.754873991012573242e+00,3.754156351089477539e+00,3.753439188003540039e+00,3.752721548080444336e+00,3.752004861831665039e+00,3.751288414001464844e+00,3.750572443008422852e+00,3.749855995178222656e+00,3.749140501022338867e+00,3.748425006866455078e+00,3.747709512710571289e+00,3.746994733810424805e+00,3.746280193328857422e+00,3.745565414428710938e+00,3.744851589202880859e+00,3.744137763977050781e+00,3.743423938751220703e+00,3.742710828781127930e+00,3.741997957229614258e+00,3.741284847259521484e+00,3.740572452545166016e+00,3.739860534667968750e+00,3.739148139953613281e+00,3.738436698913574219e+00,3.737725496292114258e+00,3.737014055252075195e+00,3.736303329467773438e+00,3.735592842102050781e+00,3.734882593154907227e+00,3.734172344207763672e+00,3.733462572097778320e+00,3.732753276824951172e+00,3.732043743133544922e+00,3.731334924697875977e+00,3.730626344680786133e+00,3.729917526245117188e+00,3.729209661483764648e+00,3.728501796722412109e+00,3.727793931961059570e+00,3.727086544036865234e+00,3.726379632949829102e+00,3.725672483444213867e+00,3.724966049194335938e+00,3.724260091781616211e+00,3.723553657531738281e+00,3.722847938537597656e+00,3.722142696380615234e+00,3.721437692642211914e+00,3.720732450485229492e+00,3.718757152557373047e+00
3.083128452301025391e+00,3.082644701004028320e+00,3.082160711288452148e+00,3.081676959991455078e+00,3.081193685531616211e+00,3.080710172653198242e+00,3.080226898193359375e+00,3.079743623733520508e+00,3.079261064529418945e+00,3.078778028488159180e+00,3.078295469284057617e+00,3.077812910079956055e+00,3.077330827713012695e+00,3.076848506927490234e+00,3.076366662979125977e+00,3.075884580612182617e+00,3.075403213500976562e+00,3.074921846389770508e+00,3.074440240859985352e+00,3.073959112167358398e+00,3.073478221893310547e+00,3.072997570037841797e+00,3.072516679763793945e+00,3.072036266326904297e+00,3.071555852890014648e+00,3.071075439453125000e+00,3.070595502853393555e+00,3.070115566253662109e+00,3.069635629653930664e+00,3.069155931472778320e+00,3.068676471710205078e+00,3.068197011947631836e+00,3.067718029022216797e+00,3.067239046096801758e+00,3.066759824752807617e+00,3.066281318664550781e+00,3.065802812576293945e+00,3.065324068069458008e+00,3.064846038818359375e+00,3.064367771148681641e+00,3.063889980316162109e+00,3.063411951065063477e+00,3.062934398651123047e+00,3.062456846237182617e+00,3.061979293823242188e+00,3.061501979827880859e+00,3.061024904251098633e+00,3.060547828674316406e+00,3.060071229934692383e+00,3.059594631195068359e+00,3.059117794036865234e+00,3.058641672134399414e+00,3.058165311813354492e+00,3.057689189910888672e+00,3.057213306427001953e+00,3.056737661361694336e+00,3.056261777877807617e+00,3.055786371231079102e+00,3.055311203002929688e+00,3.054835796356201172e+00,3.054360866546630859e+00,3.053885936737060547e+00,3.053411245346069336e+00,3.052936553955078125e+00,3.052462100982666016e+00,3.051987886428833008e+00,3.051513671875000000e+00,3.051039695739746094e+00,3.050565958023071289e+00,3.050091981887817383e+00,3.049618482589721680e+00,3.049145221710205078e+00,3.048671722412109375e+00,3.048198699951171875e+00,3.047725915908813477e+00,3.047252893447875977e+00,3.046780347824096680e+00,3.046307802200317383e+00,3.045835256576538086e+00,3.045363187789916992e+00
2.604854106903076172e+00,2.604508399963378906e+00,2.604162931442260742e+00,2.603817939758300781e+00,2.603472471237182617e+00,2.603127479553222656e+00,2.602782249450683594e+00,2.602437496185302734e+00,2.602092742919921875e+00,2.601747751235961914e+00,2.601403236389160156e+00,2.601058721542358398e+00,2.600714206695556641e+00,2.600369691848754883e+00,2.600025653839111328e+00,2.599681377410888672e+00,2.599337100982666016e+00,2.598993301391601562e+00,2.598649263381958008e+00,2.598305225372314453e+00,2.597961664199829102e+00,2.597618103027343750e+00,2.597274541854858398e+00,2.596931219100952148e+00,2.596587896347045898e+00,2.596244812011718750e+00,2.595901489257812500e+00,2.595558643341064453e+00,2.595215797424316406e+00,2.594872713088989258e+00,2.594530105590820312e+00,2.594187498092651367e+00,2.593844652175903320e+00,2.593502283096313477e+00,2.593159914016723633e+00,2.592817544937133789e+00,2.592475414276123047e+00,2.592133283615112305e+00,2.591791152954101562e+00,2.591449260711669922e+00,2.591107368469238281e+00,2.590765476226806641e+00,2.590423822402954102e+00,2.590082406997680664e+00,2.589740753173828125e+00,2.589399337768554688e+00,2.589058160781860352e+00,2.588716983795166016e+00,2.588375806808471680e+00,2.588034629821777344e+00,2.587693929672241211e+00,2.587352752685546875e+00,2.587012052536010742e+00,2.586671590805053711e+00,2.586330652236938477e+00,2.585990428924560547e+00,2.585649967193603516e+00,2.585309505462646484e+00,2.584969282150268555e+00,2.584629297256469727e+00,2.584289073944091797e+00,2.583949089050292969e+00,2.583609342575073242e+00,2.583269357681274414e+00,2.582929849624633789e+00,2.582590341567993164e+00,2.582250833511352539e+00,2.581911087036132812e+00,2.581571817398071289e+00,2.581232786178588867e+00,2.580893516540527344e+00,2.580554485321044922e+00,2.580215454101562500e+00,2.579876422882080078e+00,2.579537630081176758e+00,2.579199075698852539e+00,2.578860282897949219e+00,2.578521728515625000e+00,2.578183412551879883e+00,2.577844858169555664e+00
2.255038022994995117e+00,2.254779100418090820e+00,2.254520416259765625e+00,2.254261493682861328e+00,2.254002809524536133e+00,2.253744125366210938e+00,2.253485441207885742e+00,2.253226757049560547e+00,2.252968311309814453e+00,2.252709865570068359e+00,2.252451419830322266e+00,2.252193212509155273e+00,2.251935005187988281e+00,2.251676797866821289e+00,2.251418590545654297e+00,2.251160383224487305e+00,2.250902414321899414e+00,2.250644445419311523e+00,2.250386476516723633e+00,2.250128507614135742e+00,2.249871015548706055e+00,2.249613046646118164e+00,2.249355316162109375e+00,2.249097824096679688e+00,2.248840332031250000e+00,2.248582839965820312e+00,2.248325347900390625e+00,2.248068094253540039e+00,2.247810840606689453e+00,2.247553825378417969e+00,2.247296571731567383e+00,2.247039318084716797e+00,2.246782541275024414e+00,2.246525287628173828e+00,2.246268510818481445e+00,2.246011734008789062e+00,2.245754718780517578e+00,2.245497941970825195e+00,2.245241403579711914e+00,2.244984626770019531e+00,2.244728088378906250e+00,2.244471788406372070e+00,2.244215250015258789e+00,2.243958950042724609e+00,2.243702650070190430e+00,2.243446111679077148e+00,2.243190050125122070e+00,2.242933988571166992e+00,2.242677688598632812e+00,2.242421627044677734e+00,2.242165803909301758e+00,2.241909980773925781e+00,2.241653919219970703e+00,2.241398096084594727e+00,2.241142511367797852e+00,2.240886688232421875e+00,2.240631103515625000e+00,2.240375518798828125e+00,2.240119934082031250e+00,2.239864587783813477e+00,2.239609241485595703e+00,2.239353895187377930e+00,2.239098548889160156e+00,2.238843441009521484e+00,2.238588094711303711e+00,2.238332986831665039e+00,2.238078117370605469e+00,2.237823009490966797e+00,2.237568140029907227e+00,2.237313270568847656e+00,2.237058401107788086e+00,2.236803770065307617e+00,2.236548900604248047e+00,2.236294507980346680e+00,2.236039638519287109e+00,2.235785245895385742e+00,2.235530853271484375e+00,2.235276222229003906e+00,2.235022068023681641e+00,2.234767675399780273e+00
1.988054752349853516e+00,1.987853288650512695e+00,1.987652182579040527e+00,1.987450838088989258e+00,1.987249851226806641e+00,1.987048864364624023e+00,1.986847639083862305e+00,1.986646771430969238e+00,1.986445903778076172e+00,1.986244797706604004e+00,1.986044049263000488e+00,1.985843300819396973e+00,1.985642313957214355e+00,1.985441684722900391e+00,1.985240817070007324e+00,1.985040187835693359e+00,1.984839677810668945e+00,1.984638929367065430e+00,1.984438419342041016e+00,1.984237909317016602e+00,1.984037280082702637e+00,1.983837008476257324e+00,1.983636617660522461e+00,1.983436226844787598e+00,1.983235955238342285e+00,1.983035564422607422e+00,1.982835412025451660e+00,1.982635259628295898e+00,1.982434988021850586e+00,1.982234954833984375e+00,1.982034921646118164e+00,1.981835007667541504e+00,1.981635093688964844e+00,1.981434941291809082e+00,1.981235146522521973e+00,1.981035351753234863e+00,1.980835676193237305e+00,1.980635881423950195e+00,1.980436205863952637e+00,1.980236649513244629e+00,1.980036854743957520e+00,1.979837298393249512e+00,1.979637742042541504e+00,1.979438304901123047e+00,1.979238867759704590e+00,1.979039430618286133e+00,1.978839874267578125e+00,1.978640556335449219e+00,1.978441357612609863e+00,1.978242158889770508e+00,1.978042960166931152e+00,1.977843761444091797e+00,1.977644443511962891e+00,1.977445363998413086e+00,1.977246284484863281e+00,1.977047324180603027e+00,1.976848363876342773e+00,1.976649522781372070e+00,1.976450681686401367e+00,1.976251602172851562e+00,1.976052761077880859e+00,1.975854039192199707e+00,1.975655317306518555e+00,1.975456714630126953e+00,1.975258111953735352e+00,1.975059270858764648e+00,1.974860668182373047e+00,1.974662184715270996e+00,1.974463701248168945e+00,1.974265336990356445e+00,1.974066853523254395e+00,1.973868370056152344e+00,1.973670005798339844e+00,1.973471760749816895e+00,1.973273515701293945e+00,1.973075389862060547e+00,1.972877264022827148e+00,1.972679138183593750e+00,1.972480773925781250e+00,1.972282767295837402e+00
1.777597308158874512e+00,1.777436494827270508e+00,1.777275562286376953e+00,1.777114748954772949e+00,1.776954054832458496e+00,1.776793122291564941e+00,1.776632428169250488e+00,1.776471734046936035e+00,1.776310920715332031e+00,1.776150345802307129e+00,1.775989770889282227e+00,1.775829076766967773e+00,1.775668621063232422e+00,1.775508046150207520e+00,1.775347471237182617e+00,1.775187015533447266e+00,1.775026440620422363e+00,1.774866104125976562e+00,1.774705767631530762e+00,1.774545192718505859e+00,1.774384975433349609e+00,1.774224758148193359e+00,1.774064302444458008e+00,1.773904085159301758e+00,1.773743987083435059e+00,1.773583650588989258e+00,1.773423552513122559e+00,1.773263216018676758e+00,1.773103237152099609e+00,1.772943258285522461e+00,1.772783041000366211e+00,1.772623062133789062e+00,1.772463083267211914e+00,1.772302985191345215e+00,1.772143125534057617e+00,1.771983265876770020e+00,1.771823525428771973e+00,1.771663546562194824e+00,1.771503806114196777e+00,1.771344065666198730e+00,1.771184325218200684e+00,1.771024703979492188e+00,1.770864963531494141e+00,1.770705342292785645e+00,1.770545601844787598e+00,1.770386099815368652e+00,1.770226597785949707e+00,1.770067095756530762e+00,1.769907593727111816e+00,1.769748091697692871e+00,1.769588470458984375e+00,1.769429087638854980e+00,1.769269824028015137e+00,1.769110441207885742e+00,1.768951177597045898e+00,1.768791913986206055e+00,1.768632411956787109e+00,1.768473267555236816e+00,1.768314003944396973e+00,1.768154859542846680e+00,1.767995715141296387e+00,1.767836689949035645e+00,1.767677664756774902e+00,1.767518401145935059e+00,1.767359375953674316e+00,1.767200350761413574e+00,1.767041444778442383e+00,1.766882538795471191e+00,1.766723632812500000e+00,1.766564607620239258e+00,1.766405701637268066e+00,1.766246914863586426e+00,1.766088128089904785e+00,1.765929341316223145e+00,1.765770673751831055e+00,1.765611767768859863e+00,1.765453100204467773e+00,1.765294551849365234e+00,1.765135884284973145e+00,1.764977335929870605e+00
1.607433080673217773e+00,1.607301592826843262e+00,1.607169866561889648e+00,1.607038497924804688e+00,1.606906890869140625e+00,1.606775403022766113e+00,1.606644034385681152e+00,1.606512427330017090e+00,1.606381058692932129e+00,1.606249809265136719e+00,1.606118321418762207e+00,1.605986952781677246e+00,1.605855703353881836e+00,1.605724334716796875e+00,1.605593085289001465e+00,1.605461716651916504e+00,1.605330467224121094e+00,1.605199337005615234e+00,1.605068087577819824e+00,1.604936957359313965e+00,1.604805827140808105e+00,1.604674577713012695e+00,1.604543566703796387e+00,1.604412436485290527e+00,1.604281306266784668e+00,1.604150295257568359e+00,1.604019165039062500e+00,1.603888273239135742e+00,1.603757262229919434e+00,1.603626251220703125e+00,1.603495359420776367e+00,1.603364467620849609e+00,1.603233456611633301e+00,1.603102684020996094e+00,1.602971792221069336e+00,1.602840900421142578e+00,1.602710127830505371e+00,1.602579355239868164e+00,1.602448582649230957e+00,1.602317810058593750e+00,1.602187037467956543e+00,1.602056384086608887e+00,1.601925730705261230e+00,1.601795077323913574e+00,1.601664543151855469e+00,1.601533889770507812e+00,1.601403355598449707e+00,1.601272821426391602e+00,1.601142168045043945e+00,1.601011753082275391e+00,1.600881218910217285e+00,1.600750803947448730e+00,1.600620388984680176e+00,1.600489974021911621e+00,1.600359439849853516e+00,1.600229144096374512e+00,1.600098729133605957e+00,1.599968433380126953e+00,1.599838137626647949e+00,1.599707841873168945e+00,1.599577426910400391e+00,1.599447250366210938e+00,1.599317073822021484e+00,1.599186778068542480e+00,1.599056720733642578e+00,1.598926544189453125e+00,1.598796367645263672e+00,1.598666191101074219e+00,1.598536014556884766e+00,1.598405957221984863e+00,1.598276019096374512e+00,1.598145961761474609e+00,1.598015904426574707e+00,1.597885847091674805e+00,1.597755908966064453e+00,1.597625970840454102e+00,1.597496032714843750e+00,1.597366094589233398e+00,1.597236275672912598e+00,1.597106218338012695e+00
1.467001318931579590e+00,1.466891646385192871e+00,1.466782093048095703e+00,1.466672539710998535e+00,1.466562986373901367e+00,1.466453433036804199e+00,1.466343879699707031e+00,1.466234445571899414e+00,1.466125011444091797e+00,1.466015458106994629e+00,1.465906143188476562e+00,1.465796709060668945e+00,1.465687274932861328e+00,1.465577840805053711e+00,1.465468525886535645e+00,1.465359091758728027e+00,1.465249776840209961e+00,1.465140461921691895e+00,1.465031147003173828e+00,1.464921951293945312e+00,1.464812517166137695e+00,1.464703321456909180e+00,1.464594125747680664e+00,1.464484810829162598e+00,1.464375734329223633e+00,1.464266538619995117e+00,1.464157223701477051e+00,1.464048147201538086e+00,1.463938951492309570e+00,1.463829874992370605e+00,1.463720798492431641e+00,1.463611602783203125e+00,1.463502526283264160e+00,1.463393568992614746e+00,1.463284373283386230e+00,1.463175415992736816e+00,1.463066458702087402e+00,1.462957382202148438e+00,1.462848424911499023e+00,1.462739467620849609e+00,1.462630510330200195e+00,1.462521672248840332e+00,1.462412595748901367e+00,1.462303757667541504e+00,1.462194919586181641e+00,1.462085962295532227e+00,1.461977243423461914e+00,1.461868405342102051e+00,1.461759686470031738e+00,1.461650848388671875e+00,1.461542129516601562e+00,1.461433410644531250e+00,1.461324572563171387e+00,1.461215853691101074e+00,1.461107254028320312e+00,1.460998535156250000e+00,1.460889935493469238e+00,1.460781335830688477e+00,1.460672497749328613e+00,1.460563898086547852e+00,1.460455417633056641e+00,1.460346817970275879e+00,1.460238218307495117e+00,1.460129737854003906e+00,1.460021138191223145e+00,1.459912538528442383e+00,1.459804058074951172e+00,1.459695696830749512e+00,1.459587216377258301e+00,1.459478735923767090e+00,1.459370255470275879e+00,1.459261775016784668e+00,1.459153413772583008e+00,1.459045052528381348e+00,1.458936691284179688e+00,1.458828330039978027e+00,1.458720088005065918e+00,1.458611607551574707e+00,1.458503365516662598e+00,1.458395004272460938e+00
1.349135279655456543e+00,1.349042654037475586e+00,1.348949909210205078e+00,1.348857283592224121e+00,1.348764657974243164e+00,1.348671913146972656e+00,1.348579406738281250e+00,1.348486781120300293e+00,1.348394155502319336e+00,1.348301529884338379e+00,1.348209023475646973e+00,1.348116397857666016e+00,1.348023891448974609e+00,1.347931385040283203e+00,1.347838878631591797e+00,1.347746372222900391e+00,1.347653865814208984e+00,1.347561359405517578e+00,1.347468972206115723e+00,1.347376465797424316e+00,1.347284078598022461e+00,1.347191691398620605e+00,1.347099184989929199e+00,1.347006797790527344e+00,1.346914529800415039e+00,1.346822023391723633e+00,1.346729755401611328e+00,1.346637368202209473e+00,1.346544981002807617e+00,1.346452713012695312e+00,1.346360325813293457e+00,1.346268057823181152e+00,1.346175789833068848e+00,1.346083402633666992e+00,1.345991253852844238e+00,1.345898985862731934e+00,1.345806717872619629e+00,1.345714449882507324e+00,1.345622301101684570e+00,1.345530033111572266e+00,1.345437884330749512e+00,1.345345616340637207e+00,1.345253586769104004e+00,1.345161437988281250e+00,1.345069169998168945e+00,1.344977140426635742e+00,1.344885110855102539e+00,1.344792842864990234e+00,1.344700813293457031e+00,1.344608783721923828e+00,1.344516634941101074e+00,1.344424605369567871e+00,1.344332695007324219e+00,1.344240665435791016e+00,1.344148755073547363e+00,1.344056606292724609e+00,1.343964695930480957e+00,1.343872785568237305e+00,1.343780875205993652e+00,1.343688845634460449e+00,1.343597054481506348e+00,1.343505144119262695e+00,1.343413114547729492e+00,1.343321323394775391e+00,1.343229413032531738e+00,1.343137621879577637e+00,1.343045711517333984e+00,1.342953920364379883e+00,1.342862010002136230e+00,1.342770218849182129e+00,1.342678546905517578e+00,1.342586755752563477e+00,1.342494964599609375e+00,1.342403292655944824e+00,1.342311382293701172e+00,1.342219710350036621e+00,1.342128038406372070e+00,1.342036366462707520e+00,1.341944694519042969e+00,1.341853022575378418e+00
1.248800635337829590e+00,1.248721241950988770e+00,1.248641848564147949e+00,1.248562455177307129e+00,1.248483180999755859e+00,1.248403668403625488e+00,1.248324394226074219e+00,1.248245000839233398e+00,1.248165607452392578e+00,1.248086333274841309e+00,1.248006939888000488e+00,1.247927665710449219e+00,1.247848391532897949e+00,1.247769117355346680e+00,1.247689843177795410e+00,1.247610569000244141e+00,1.247531294822692871e+00,1.247452020645141602e+00,1.247372746467590332e+00,1.247293591499328613e+00,1.247214436531066895e+00,1.247135162353515625e+00,1.247055888175964355e+00,1.246976733207702637e+00,1.246897578239440918e+00,1.246818423271179199e+00,1.246739268302917480e+00,1.246660113334655762e+00,1.246580958366394043e+00,1.246501803398132324e+00,1.246422648429870605e+00,1.246343612670898438e+00,1.246264457702636719e+00,1.246185421943664551e+00,1.246106386184692383e+00,1.246027231216430664e+00,1.245948195457458496e+00,1.245869159698486328e+00,1.245790123939514160e+00,1.245711088180541992e+00,1.245632052421569824e+00,1.245553016662597656e+00,1.245474100112915039e+00,1.245395064353942871e+00,1.245316147804260254e+00,1.245237112045288086e+00,1.245158195495605469e+00,1.245079278945922852e+00,1.245000362396240234e+00,1.244921326637268066e+00,1.244842410087585449e+00,1.244763612747192383e+00,1.244684576988220215e+00,1.244605779647827148e+00,1.244526863098144531e+00,1.244447946548461914e+00,1.244369149208068848e+00,1.244290351867675781e+00,1.244211554527282715e+00,1.244132637977600098e+00,1.244053840637207031e+00,1.243975043296813965e+00,1.243896365165710449e+00,1.243817567825317383e+00,1.243738889694213867e+00,1.243660092353820801e+00,1.243581295013427734e+00,1.243502616882324219e+00,1.243423819541931152e+00,1.243345141410827637e+00,1.243266463279724121e+00,1.243187785148620605e+00,1.243109107017517090e+00,1.243030428886413574e+00,1.242951750755310059e+00,1.242873072624206543e+00,1.242794513702392578e+00,1.242715835571289062e+00,1.242637157440185547e+00,1.242558598518371582e+00
1.162356734275817871e+00,1.162287831306457520e+00,1.162219166755676270e+00,1.162150382995605469e+00,1.162081480026245117e+00,1.162012815475463867e+00,1.161944031715393066e+00,1.161875247955322266e+00,1.161806583404541016e+00,1.161737799644470215e+00,1.161669135093688965e+00,1.161600351333618164e+00,1.161531686782836914e+00,1.161463022232055664e+00,1.161394357681274414e+00,1.161325573921203613e+00,1.161256909370422363e+00,1.161188244819641113e+00,1.161119580268859863e+00,1.161050915718078613e+00,1.160982251167297363e+00,1.160913586616516113e+00,1.160845041275024414e+00,1.160776376724243164e+00,1.160707831382751465e+00,1.160639166831970215e+00,1.160570621490478516e+00,1.160501956939697266e+00,1.160433411598205566e+00,1.160364866256713867e+00,1.160296320915222168e+00,1.160227656364440918e+00,1.160159230232238770e+00,1.160090684890747070e+00,1.160022139549255371e+00,1.159953594207763672e+00,1.159885048866271973e+00,1.159816503524780273e+00,1.159748077392578125e+00,1.159679651260375977e+00,1.159611105918884277e+00,1.159542679786682129e+00,1.159474134445190430e+00,1.159405708312988281e+00,1.159337282180786133e+00,1.159268736839294434e+00,1.159200310707092285e+00,1.159132003784179688e+00,1.159063458442687988e+00,1.158995151519775391e+00,1.158926725387573242e+00,1.158858299255371094e+00,1.158789992332458496e+00,1.158721566200256348e+00,1.158653140068054199e+00,1.158584833145141602e+00,1.158516407012939453e+00,1.158448100090026855e+00,1.158379793167114258e+00,1.158311486244201660e+00,1.158243179321289062e+00,1.158174872398376465e+00,1.158106565475463867e+00,1.158038258552551270e+00,1.157969951629638672e+00,1.157901763916015625e+00,1.157833576202392578e+00,1.157765269279479980e+00,1.157697081565856934e+00,1.157628893852233887e+00,1.157560586929321289e+00,1.157492399215698242e+00,1.157424211502075195e+00,1.157356023788452148e+00,1.157287836074829102e+00,1.157219648361206055e+00,1.157151341438293457e+00,1.157083272933959961e+00,1.157015085220336914e+00,1.156946897506713867e+00
1.087105512619018555e+00,1.087045311927795410e+00,1.086985111236572266e+00,1.086924910545349121e+00,1.086864829063415527e+00,1.086804747581481934e+00,1.086744546890258789e+00,1.086684346199035645e+00,1.086624264717102051e+00,1.086564064025878906e+00,1.086503982543945312e+00,1.086443901062011719e+00,1.086383819580078125e+00,1.086323738098144531e+00,1.086263537406921387e+00,1.086203575134277344e+00,1.086143493652343750e+00,1.086083412170410156e+00,1.086023330688476562e+00,1.085963249206542969e+00,1.085903167724609375e+00,1.085843205451965332e+00,1.085783123970031738e+00,1.085723042488098145e+00,1.085663080215454102e+00,1.085602998733520508e+00,1.085543036460876465e+00,1.085483074188232422e+00,1.085422992706298828e+00,1.085363030433654785e+00,1.085303068161010742e+00,1.085243105888366699e+00,1.085183143615722656e+00,1.085123062133789062e+00,1.085063219070434570e+00,1.085003256797790527e+00,1.084943294525146484e+00,1.084883332252502441e+00,1.084823489189147949e+00,1.084763526916503906e+00,1.084703564643859863e+00,1.084643721580505371e+00,1.084583759307861328e+00,1.084523797035217285e+00,1.084463953971862793e+00,1.084403991699218750e+00,1.084344148635864258e+00,1.084284305572509766e+00,1.084224462509155273e+00,1.084164619445800781e+00,1.084104657173156738e+00,1.084044933319091797e+00,1.083985090255737305e+00,1.083925247192382812e+00,1.083865404129028320e+00,1.083805561065673828e+00,1.083745718002319336e+00,1.083685994148254395e+00,1.083626151084899902e+00,1.083566308021545410e+00,1.083506584167480469e+00,1.083446741104125977e+00,1.083387017250061035e+00,1.083327293395996094e+00,1.083267450332641602e+00,1.083207726478576660e+00,1.083148002624511719e+00,1.083088278770446777e+00,1.083028554916381836e+00,1.082968831062316895e+00,1.082909107208251953e+00,1.082849383354187012e+00,1.082789778709411621e+00,1.082730054855346680e+00,1.082670331001281738e+00,1.082610607147216797e+00,1.082551002502441406e+00,1.082491397857666016e+00,1.082431674003601074e+00,1.082372069358825684e+00
1.021005392074584961e+00,1.020952343940734863e+00,1.020899176597595215e+00,1.020846128463745117e+00,1.020793080329895020e+00,1.020740032196044922e+00,1.020686984062194824e+00,1.020633935928344727e+00,1.020580887794494629e+00,1.020527839660644531e+00,1.020474791526794434e+00,1.020421743392944336e+00,1.020368814468383789e+00,1.020315766334533691e+00,1.020262718200683594e+00,1.020209789276123047e+00,1.020156741142272949e+00,1.020103812217712402e+00,1.020050764083862305e+00,1.019997715950012207e+00,1.019944787025451660e+00,1.019891858100891113e+00,1.019838809967041016e+00,1.019785881042480469e+00,1.019732952117919922e+00,1.019680023193359375e+00,1.019627094268798828e+00,1.019574046134948730e+00,1.019521236419677734e+00,1.019468307495117188e+00,1.019415259361267090e+00,1.019362449645996094e+00,1.019309520721435547e+00,1.019256591796875000e+00,1.019203662872314453e+00,1.019150733947753906e+00,1.019097924232482910e+00,1.019044995307922363e+00,1.018992185592651367e+00,1.018939256668090820e+00,1.018886446952819824e+00,1.018833518028259277e+00,1.018780708312988281e+00,1.018727779388427734e+00,1.018674969673156738e+00,1.018622159957885742e+00,1.018569231033325195e+00,1.018516421318054199e+00,1.018463730812072754e+00,1.018410801887512207e+00,1.018357992172241211e+00,1.018305182456970215e+00,1.018252372741699219e+00,1.018199682235717773e+00,1.018146753311157227e+00,1.018094062805175781e+00,1.018041253089904785e+00,1.017988443374633789e+00,1.017935752868652344e+00,1.017882943153381348e+00,1.017830133438110352e+00,1.017777442932128906e+00,1.017724752426147461e+00,1.017671942710876465e+00,1.017619252204895020e+00,1.017566561698913574e+00,1.017513751983642578e+00,1.017461061477661133e+00,1.017408251762390137e+00,1.017355561256408691e+00,1.017302870750427246e+00,1.017250180244445801e+00,1.017197489738464355e+00,1.017144799232482910e+00,1.017092227935791016e+00,1.017039537429809570e+00,1.016986846923828125e+00,1.016934275627136230e+00,1.016881585121154785e+00,1.016828894615173340e+00
9.624828696250915527e-01,9.624357223510742188e-01,9.623885750770568848e-01,9.623414278030395508e-01,9.622941613197326660e-01,9.622470736503601074e-01,9.621999263763427734e-01,9.621527791023254395e-01,9.621056914329528809e-01,9.620584249496459961e-01,9.620113372802734375e-01,9.619642496109008789e-01,9.619171619415283203e-01,9.618700146675109863e-01,9.618229269981384277e-01,9.617757797241210938e-01,9.617286920547485352e-01,9.616816043853759766e-01,9.616345167160034180e-01,9.615874290466308594e-01,9.615402817726135254e-01,9.614931941032409668e-01,9.614461660385131836e-01,9.613991379737854004e-01,9.613520503044128418e-01,9.613050222396850586e-01,9.612578749656677246e-01,9.612108469009399414e-01,9.611638188362121582e-01,9.611167907714843750e-01,9.610697627067565918e-01,9.610227942466735840e-01,9.609756469726562500e-01,9.609286189079284668e-01,9.608816504478454590e-01,9.608346223831176758e-01,9.607876539230346680e-01,9.607405662536621094e-01,9.606935977935791016e-01,9.606465697288513184e-01,9.605996012687683105e-01,9.605526328086853027e-01,9.605057239532470703e-01,9.604586362838745117e-01,9.604116678237915039e-01,9.603646993637084961e-01,9.603177905082702637e-01,9.602708220481872559e-01,9.602237939834594727e-01,9.601768851280212402e-01,9.601299166679382324e-01,9.600830078125000000e-01,9.600360989570617676e-01,9.599891901016235352e-01,9.599421620368957520e-01,9.598952531814575195e-01,9.598483443260192871e-01,9.598014950752258301e-01,9.597545862197875977e-01,9.597075581550598145e-01,9.596607089042663574e-01,9.596138000488281250e-01,9.595669507980346680e-01,9.595201015472412109e-01,9.594731926918029785e-01,9.594262242317199707e-01,9.593793749809265137e-01,9.593325257301330566e-01,9.592856764793395996e-01,9.592388868331909180e-01,9.591919183731079102e-01,9.591450691223144531e-01,9.590982794761657715e-01,9.590514302253723145e-01,9.590046405792236328e-01,9.589577913284301758e-01,9.589108824729919434e-01,9.588640928268432617e-01,9.588173031806945801e-01,9.587705135345458984e-01
